-1.086181104183197021e-01 4.543038308620452881e-01 -1.841131597757339478e-01
-1.094348132610321045e-01 4.504139125347137451e-01 -1.683562546968460083e-01
-1.061486452817916870e-01 4.660192131996154785e-01 -1.721623092889785767e-01
-1.066573783755302429e-01 4.616228342056274414e-01 -1.564239710569381714e-01
-1.383208949118852615e-02 -3.957224190235137939e-01 -7.191714048385620117e-01
-1.740570738911628723e-02 -4.013891220092773438e-01 -7.069196105003356934e-01
-1.722853071987628937e-02 -3.904438614845275879e-01 -7.101264595985412598e-01
-2.094869688153266907e-02 -3.953326344490051270e-01 -6.968924999237060547e-01
-1.226635128259658813e-01 -6.422775331884622574e-04 1.294114738702774048e-01
-1.169105470180511475e-01 1.239907462149858475e-03 1.402276009321212769e-01
-1.260092705488204956e-01 1.052783988416194916e-02 1.350772678852081299e-01
-1.214659735560417175e-01 1.222144812345504761e-02 1.469075232744216919e-01
-1.712842136621475220e-01 9.641817212104797363e-02 -4.201020002365112305e-01
-1.675949245691299438e-01 9.747521579265594482e-02 -4.040862023830413818e-01
-1.780562102794647217e-01 1.091237217187881470e-01 -4.076174199581146240e-01
-1.747967302799224854e-01 1.101941764354705811e-01 -3.907468020915985107e-01
3.502431139349937439e-02 -2.504576444625854492e-01 -7.056141495704650879e-01
3.263387829065322876e-02 -2.526696920394897461e-01 -6.915384531021118164e-01
3.018649294972419739e-02 -2.413158416748046875e-01 -6.934921145439147949e-01
2.658220008015632629e-02 -2.443677186965942383e-01 -6.778202056884765625e-01
1.993331313133239746e-02 3.096323907375335693e-01 2.214046418666839600e-01
1.884723640978336334e-02 3.043651282787322998e-01 2.363354563713073730e-01
9.401976130902767181e-03 3.139167428016662598e-01 2.316558510065078735e-01
8.734863251447677612e-03 3.083925247192382812e-01 2.467844486236572266e-01
6.636224687099456787e-02 -3.869295716285705566e-01 -7.152788043022155762e-01
7.133369147777557373e-02 -3.922197520732879639e-01 -7.024956941604614258e-01
6.778313219547271729e-02 -3.774687647819519043e-01 -7.066960334777832031e-01
7.050427049398422241e-02 -3.819263577461242676e-01 -6.925937533378601074e-01
6.327615678310394287e-02 -2.910361886024475098e-01 3.883287683129310608e-02
5.832989141345024109e-02 -2.917569875717163086e-01 5.101497843861579895e-02
6.354019045829772949e-02 -2.813551127910614014e-01 4.667012766003608704e-02
5.774616077542304993e-02 -2.829070091247558594e-01 5.871724709868431091e-02
1.119589135050773621e-01 -7.168292999267578125e-01 -6.720523834228515625e-01
1.095015406608581543e-01 -7.224341034889221191e-01 -6.555963754653930664e-01
1.009142622351646423e-01 -7.099743485450744629e-01 -6.637165546417236328e-01
9.619319438934326172e-02 -7.148039937019348145e-01 -6.472207307815551758e-01
-5.820187926292419434e-02 4.202856421470642090e-01 2.270106226205825806e-02
-6.286050379276275635e-02 4.147522747516632080e-01 3.688658401370048523e-02
-5.794682726263999939e-02 4.239412844181060791e-01 3.945079073309898376e-02
-6.212896853685379028e-02 4.183977842330932617e-01 5.334129929542541504e-02
1.845099180936813354e-01 4.907487705349922180e-02 -1.773884892463684082e-01
1.831050664186477661e-01 4.565967246890068054e-02 -1.647897064685821533e-01
1.863493472337722778e-01 5.504735186696052551e-02 -1.645045429468154907e-01
1.844375431537628174e-01 5.185578390955924988e-02 -1.519673317670822144e-01
-8.763357996940612793e-02 5.183150172233581543e-01 -2.423940151929855347e-01
-9.026113152503967285e-02 5.159184932708740234e-01 -2.307047545909881592e-01
-8.422707766294479370e-02 5.261734127998352051e-01 -2.313821315765380859e-01
-8.693204075098037720e-02 5.233980417251586914e-01 -2.199929356575012207e-01
5.618822202086448669e-02 -7.533820718526840210e-02 -6.360272169113159180e-01
5.167664960026741028e-02 -7.256444543600082397e-02 -6.317057609558105469e-01
5.397925525903701782e-02 -6.140544265508651733e-02 -6.331582665443420410e-01
4.895711317658424377e-02 -5.894505977630615234e-02 -6.281350255012512207e-01
1.412992179393768311e-01 3.708923757076263428e-01 -1.544627398252487183e-01
1.400547325611114502e-01 3.704409003257751465e-01 -1.396171003580093384e-01
1.360931992530822754e-01 3.786946535110473633e-01 -1.445620208978652954e-01
1.351541131734848022e-01 3.776495754718780518e-01 -1.302803754806518555e-01
-6.040912494063377380e-02 -3.786077350378036499e-02 -8.195745199918746948e-02
-5.736350268125534058e-02 -3.652007877826690674e-02 -6.704135239124298096e-02
-7.090213149785995483e-02 -3.415187820792198181e-02 -6.847146898508071899e-02
-6.876514106988906860e-02 -3.303248807787895203e-02 -5.409213155508041382e-02
1.688752770423889160e-01 -7.277540564537048340e-01 1.148840188980102539e-01
1.715488433837890625e-01 -7.280263304710388184e-01 1.319030225276947021e-01
1.607642024755477905e-01 -7.224574685096740723e-01 1.299476176500320435e-01
1.636154353618621826e-01 -7.223074436187744141e-01 1.467345505952835083e-01
7.962764054536819458e-02 -4.663512706756591797e-01 -6.740596890449523926e-01
7.581450790166854858e-02 -4.676459729671478271e-01 -6.640807986259460449e-01
7.354799658060073853e-02 -4.589416384696960449e-01 -6.662615537643432617e-01
6.942866742610931396e-02 -4.603266716003417969e-01 -6.564154624938964844e-01
2.989837341010570526e-02 -5.785614252090454102e-01 1.577616855502128601e-02
3.075492568314075470e-02 -5.822542309761047363e-01 2.998914197087287903e-02
2.511251904070377350e-02 -5.680480599403381348e-01 2.318151108920574188e-02
2.585532516241073608e-02 -5.709177851676940918e-01 3.694271668791770935e-02
1.738882958889007568e-01 1.283612251281738281e-01 1.203351467847824097e-01
1.678078919649124146e-01 1.258312016725540161e-01 1.364750117063522339e-01
1.695892512798309326e-01 1.371239572763442993e-01 1.316483765840530396e-01
1.637520045042037964e-01 1.345899403095245361e-01 1.481268852949142456e-01
-1.124871224164962769e-01 1.242758482694625854e-01 -6.014119386672973633e-01
-1.214091181755065918e-01 1.239897757768630981e-01 -5.925689935684204102e-01
-1.151681095361709595e-01 1.385536491870880127e-01 -5.949562788009643555e-01
-1.237280815839767456e-01 1.383404880762100220e-01 -5.853083133697509766e-01
-4.103852435946464539e-02 5.792232155799865723e-01 6.392002701759338379e-01
-4.006999358534812927e-02 5.712099075317382812e-01 6.518820524215698242e-01
-3.713122755289077759e-02 5.871953368186950684e-01 6.500341296195983887e-01
-3.658279031515121460e-02 5.776084661483764648e-01 6.625781655311584473e-01
1.013009250164031982e-01 2.678132951259613037e-01 2.101726979017257690e-01
9.749390184879302979e-02 2.661612331867218018e-01 2.239923328161239624e-01
9.301231801509857178e-02 2.801922261714935303e-01 2.156287431716918945e-01
9.006482362747192383e-02 2.770625352859497070e-01 2.295206338167190552e-01
-1.755909174680709839e-01 1.293473243713378906e-01 -3.084629476070404053e-01
-1.773727238178253174e-01 1.249988749623298645e-01 -2.914063334465026855e-01
-1.798422187566757202e-01 1.485726535320281982e-01 -3.034593462944030762e-01
-1.812580227851867676e-01 1.442397981882095337e-01 -2.856648862361907959e-01
9.950955212116241455e-02 -8.713277988135814667e-03 -2.655279338359832764e-01
9.547685086727142334e-02 -1.454205811023712158e-02 -2.540159523487091064e-01
1.042802408337593079e-01 -8.795208297669887543e-03 -2.529658973217010498e-01
9.996464848518371582e-02 -1.405384112149477005e-02 -2.415533065795898438e-01
-6.982890516519546509e-02 -4.289754033088684082e-01 -6.983667016029357910e-01
-7.412143051624298096e-02 -4.306850731372833252e-01 -6.862086653709411621e-01
-7.454898953437805176e-02 -4.214516282081604004e-01 -6.913228034973144531e-01
-7.832708954811096191e-02 -4.231036007404327393e-01 -6.793798804283142090e-01
1.215120628476142883e-01 -9.820541739463806152e-02 9.301347285509109497e-02
1.106507927179336548e-01 -9.874469786882400513e-02 1.018349006772041321e-01
1.204139888286590576e-01 -8.178173005580902100e-02 9.900734573602676392e-02
1.071441695094108582e-01 -8.240403980016708374e-02 1.062396019697189331e-01
-5.753040686249732971e-02 3.941384553909301758e-01 4.558525383472442627e-01
-4.988665133714675903e-02 3.925657868385314941e-01 4.700367450714111328e-01
-6.091159209609031677e-02 4.041973352432250977e-01 4.612510204315185547e-01
-5.010953545570373535e-02 4.031281471252441406e-01 4.752396643161773682e-01
-2.449242584407329559e-02 2.757523655891418457e-01 -5.995430350303649902e-01
-3.615055605769157410e-02 2.799574136734008789e-01 -5.903596282005310059e-01
-3.487398475408554077e-02 2.899313271045684814e-01 -5.825176835060119629e-01
-4.548048973083496094e-02 2.945168912410736084e-01 -5.720629096031188965e-01
2.190607339143753052e-01 1.996795386075973511e-01 -1.731818765401840210e-01
2.180839776992797852e-01 1.960334181785583496e-01 -1.560955494642257690e-01
2.154948115348815918e-01 2.082882970571517944e-01 -1.599199622869491577e-01
2.143502682447433472e-01 2.047737687826156616e-01 -1.427002400159835815e-01
-6.170166283845901489e-02 -9.426724165678024292e-02 -5.135283470153808594e-01
-6.898437440395355225e-02 -9.438139945268630981e-02 -5.042419433593750000e-01
-6.553994119167327881e-02 -8.465969562530517578e-02 -5.079162120819091797e-01
-7.246747612953186035e-02 -8.468671888113021851e-02 -4.976063966751098633e-01
1.700383797287940979e-02 -5.276279151439666748e-02 -1.889633536338806152e-01
2.352222613990306854e-02 -5.207991227507591248e-02 -1.746074706315994263e-01
1.027259230613708496e-02 -5.023562535643577576e-02 -1.706915646791458130e-01
1.642702147364616394e-02 -4.938915371894836426e-02 -1.570303291082382202e-01
-7.089086621999740601e-02 -2.246221899986267090e-01 -2.434736490249633789e-02
-6.723428517580032349e-02 -2.252153158187866211e-01 -7.686039898544549942e-03
-7.358929514884948730e-02 -2.159267812967300415e-01 -1.512046065181493759e-02
-6.586974114179611206e-02 -2.139279544353485107e-01 -1.928985584527254105e-03
-1.254686713218688965e-01 -7.192457914352416992e-01 6.815184652805328369e-02
-1.241037398576736450e-01 -7.210767269134521484e-01 8.433416485786437988e-02
-1.376014053821563721e-01 -7.158730030059814453e-01 8.287462592124938965e-02
-1.356758028268814087e-01 -7.182408571243286133e-01 9.899022430181503296e-02
1.298591960221529007e-02 2.342295795679092407e-01 4.685842394828796387e-01
5.633615888655185699e-03 2.352138012647628784e-01 4.739070534706115723e-01
1.013653725385665894e-02 2.426115870475769043e-01 4.762876033782958984e-01
5.545552819967269897e-03 2.449810653924942017e-01 4.818025827407836914e-01
1.777588725090026855e-01 3.620379418134689331e-02 -1.149158924818038940e-01
1.736219972372055054e-01 3.370118886232376099e-02 -1.009573340415954590e-01
1.798261404037475586e-01 4.376827552914619446e-02 -1.001006439328193665e-01
1.756869554519653320e-01 4.109753295779228210e-02 -8.554478734731674194e-02
6.037937104701995850e-02 3.867579102516174316e-01 4.180927872657775879e-01
6.092143431305885315e-02 3.851743042469024658e-01 4.308804571628570557e-01
5.948300659656524658e-02 3.938219249248504639e-01 4.276514053344726562e-01
5.826644971966743469e-02 3.925882577896118164e-01 4.411208331584930420e-01
-6.609608232975006104e-02 2.622470855712890625e-01 4.173506796360015869e-01
-6.309863924980163574e-02 2.627512514591217041e-01 4.323201179504394531e-01
-6.914241611957550049e-02 2.717178761959075928e-01 4.248160421848297119e-01
-6.525237858295440674e-02 2.722078859806060791e-01 4.401100277900695801e-01
8.855345100164413452e-02 -3.600890561938285828e-02 -1.441691815853118896e-01
9.114919602870941162e-02 -3.726676106452941895e-02 -1.309733539819717407e-01
8.689895272254943848e-02 -3.494291380047798157e-02 -1.236306205391883850e-01
8.618529140949249268e-02 -3.562827780842781067e-02 -1.092322543263435364e-01
1.069659143686294556e-01 -2.262108772993087769e-01 8.576163090765476227e-03
1.071147993206977844e-01 -2.295904755592346191e-01 1.995430886745452881e-02
1.083261370658874512e-01 -2.172483205795288086e-01 1.837618649005889893e-02
1.091118082404136658e-01 -2.204493135213851929e-01 2.805972471833229065e-02
1.240243390202522278e-01 4.394221305847167969e-01 -2.169386297464370728e-01
1.224732324481010437e-01 4.389832615852355957e-01 -1.987520158290863037e-01
1.180841103196144104e-01 4.499841034412384033e-01 -2.038038671016693115e-01
1.161068230867385864e-01 4.501333236694335938e-01 -1.859095543622970581e-01
-7.128445059061050415e-02 -1.292483061552047729e-01 -5.181052684783935547e-01
-7.985979318618774414e-02 -1.284822076559066772e-01 -5.110000967979431152e-01
-7.284087687730789185e-02 -1.173922270536422729e-01 -5.074781179428100586e-01
-8.237432688474655151e-02 -1.169783398509025574e-01 -5.006673932075500488e-01
-9.296029806137084961e-03 1.819966584444046021e-01 -6.679664254188537598e-01
-1.757852546870708466e-02 1.810953468084335327e-01 -6.557211875915527344e-01
-2.190803363919258118e-02 1.904415488243103027e-01 -6.577019691467285156e-01
-2.466090023517608643e-02 1.930461376905441284e-01 -6.441457271575927734e-01
6.410451233386993408e-02 6.848362833261489868e-02 -4.520446658134460449e-01
6.638773530721664429e-02 6.892448663711547852e-02 -4.382779598236083984e-01
5.890488997101783752e-02 7.791112363338470459e-02 -4.420905411243438721e-01
6.085608899593353271e-02 7.873272895812988281e-02 -4.283018708229064941e-01
8.130255341529846191e-02 5.646027922630310059e-01 4.258354306221008301e-01
8.173923194408416748e-02 5.622422695159912109e-01 4.401975274085998535e-01
8.272140473127365112e-02 5.709993839263916016e-01 4.358647167682647705e-01
8.220477402210235596e-02 5.687550902366638184e-01 4.506114423274993896e-01
-1.806886792182922363e-01 9.774022549390792847e-02 1.978996396064758301e-02
-1.826874315738677979e-01 9.410858154296875000e-02 3.382392227649688721e-02
-1.827990412712097168e-01 1.080107167363166809e-01 2.996263653039932251e-02
-1.857391595840454102e-01 1.041159182786941528e-01 4.502370208501815796e-02
-5.407708883285522461e-02 -2.205755375325679779e-02 -2.854039669036865234e-01
-5.471925809979438782e-02 -2.560681104660034180e-02 -2.727415561676025391e-01
-6.566337496042251587e-02 -2.030798234045505524e-02 -2.760810852050781250e-01
-6.601815670728683472e-02 -2.339904382824897766e-02 -2.629579007625579834e-01
-4.680168256163597107e-02 -2.038887739181518555e-01 -6.891667842864990234e-01
-4.949131235480308533e-02 -2.072825878858566284e-01 -6.744308471679687500e-01
-4.917523264884948730e-02 -1.906766742467880249e-01 -6.751337647438049316e-01
-5.146416649222373962e-02 -1.933589130640029907e-01 -6.612716317176818848e-01
-1.501254588365554810e-01 1.038293316960334778e-01 -3.938010632991790771e-01
-1.444728523492813110e-01 1.044689714908599854e-01 -3.792846202850341797e-01
-1.505868136882781982e-01 1.131771355867385864e-01 -3.817608952522277832e-01
-1.457687020301818848e-01 1.129360496997833252e-01 -3.676046431064605713e-01
1.712952405214309692e-01 2.844344079494476318e-01 -8.644072711467742920e-02
1.729154288768768311e-01 2.834918797016143799e-01 -7.415518909692764282e-02
1.660627573728561401e-01 2.913718521595001221e-01 -7.648477703332901001e-02
1.676636636257171631e-01 2.903049886226654053e-01 -6.386579573154449463e-02
1.264671236276626587e-01 3.034349083900451660e-01 -4.980467557907104492e-01
1.319019496440887451e-01 3.063586354255676270e-01 -4.826744794845581055e-01
1.193533763289451599e-01 3.159500956535339355e-01 -4.889525175094604492e-01
1.242574825882911682e-01 3.181865811347961426e-01 -4.748899638652801514e-01
-1.244237795472145081e-01 -1.403886675834655762e-01 2.507750317454338074e-02
-1.273952722549438477e-01 -1.424844712018966675e-01 3.804099187254905701e-02
-1.291772276163101196e-01 -1.323252916336059570e-01 3.462929651141166687e-02
-1.321646273136138916e-01 -1.340401917695999146e-01 4.888862743973731995e-02
8.477202802896499634e-02 -1.499044150114059448e-02 -4.523949027061462402e-01
9.414917230606079102e-02 -8.402071893215179443e-03 -4.391663074493408203e-01
8.221279084682464600e-02 -3.484436310827732086e-03 -4.469275772571563721e-01
9.032522141933441162e-02 2.245374023914337158e-03 -4.325597286224365234e-01
1.382507979869842529e-01 1.263151466846466064e-01 -5.863509774208068848e-01
1.451887786388397217e-01 1.277098506689071655e-01 -5.767242908477783203e-01
1.366460323333740234e-01 1.401609629392623901e-01 -5.804083347320556641e-01
1.439977288246154785e-01 1.424239575862884521e-01 -5.705429911613464355e-01
-4.486852511763572693e-02 3.619097173213958740e-01 -4.873659014701843262e-01
-4.359189048409461975e-02 3.654637634754180908e-01 -4.745082259178161621e-01
-5.267288163304328918e-02 3.678377866744995117e-01 -4.656240940093994141e-01
-5.041565373539924622e-02 3.705354630947113037e-01 -4.531313776969909668e-01
1.106866374611854553e-01 -6.286033391952514648e-01 1.068948209285736084e-02
1.105179116129875183e-01 -6.327896118164062500e-01 2.465142123401165009e-02
1.027006506919860840e-01 -6.204873919486999512e-01 1.435827463865280151e-02
9.926742315292358398e-02 -6.245854496955871582e-01 2.748149819672107697e-02
-1.040600836277008057e-01 2.852548956871032715e-01 -5.453560352325439453e-01
-1.110594645142555237e-01 2.871601283550262451e-01 -5.332508683204650879e-01
-1.088950261473655701e-01 2.976405322551727295e-01 -5.266905426979064941e-01
-1.156281903386116028e-01 2.992191016674041748e-01 -5.139858126640319824e-01
-1.515800654888153076e-01 9.389203786849975586e-02 1.320129632949829102e-01
-1.456231176853179932e-01 9.676478058099746704e-02 1.483476459980010986e-01
-1.525530219078063965e-01 1.055143252015113831e-01 1.404138803482055664e-01
-1.464394927024841309e-01 1.080488935112953186e-01 1.568385511636734009e-01
-7.183206826448440552e-02 -4.815035760402679443e-01 -6.934370398521423340e-01
-7.661362737417221069e-02 -4.850472509860992432e-01 -6.763799190521240234e-01
-8.010555058717727661e-02 -4.692210853099822998e-01 -6.852238178253173828e-01
-8.470960706472396851e-02 -4.721261560916900635e-01 -6.687995195388793945e-01
-1.450662761926651001e-01 3.280667588114738464e-02 -2.866273522377014160e-01
-1.465198695659637451e-01 2.982773445546627045e-02 -2.731888592243194580e-01
-1.551565378904342651e-01 4.338163882493972778e-02 -2.767545878887176514e-01
-1.570929735898971558e-01 4.134891554713249207e-02 -2.624342739582061768e-01
-3.416796401143074036e-02 5.973197221755981445e-01 3.513683676719665527e-01
-4.554039612412452698e-02 5.898148417472839355e-01 3.679759204387664795e-01
-4.176725074648857117e-02 6.052228808403015137e-01 3.617022037506103516e-01
-5.214921012520790100e-02 5.977248549461364746e-01 3.792849183082580566e-01
-9.130895137786865234e-03 4.098606705665588379e-01 -3.967625498771667480e-01
-5.311754532158374786e-03 4.141383767127990723e-01 -3.843965828418731689e-01
-1.449794229120016098e-02 4.207806885242462158e-01 -3.876370787620544434e-01
-1.415057480335235596e-02 4.244185388088226318e-01 -3.763874173164367676e-01
4.450057074427604675e-02 -6.509459763765335083e-02 -5.316029191017150879e-01
4.767337068915367126e-02 -6.307686865329742432e-02 -5.169339179992675781e-01
4.194232448935508728e-02 -5.185141041874885559e-02 -5.254457592964172363e-01
4.503532126545906067e-02 -4.991841688752174377e-02 -5.099601745605468750e-01
1.390145570039749146e-01 -6.979190707206726074e-01 -6.068305373191833496e-01
1.347686499357223511e-01 -7.011571526527404785e-01 -5.938063263893127441e-01
1.322783976793289185e-01 -6.909520030021667480e-01 -5.981319546699523926e-01
1.271956562995910645e-01 -6.940895915031433105e-01 -5.852623581886291504e-01
-5.007566139101982117e-02 5.843647718429565430e-01 5.369725227355957031e-01
-4.852152243256568909e-02 5.813744068145751953e-01 5.508225560188293457e-01
-4.599285125732421875e-02 5.924220085144042969e-01 5.467085838317871094e-01
-4.473502188920974731e-02 5.879017710685729980e-01 5.599718689918518066e-01
1.020046696066856384e-01 4.277009889483451843e-02 -3.530791699886322021e-01
1.002324074506759644e-01 3.376495465636253357e-02 -3.382041454315185547e-01
9.776161611080169678e-02 4.714495316147804260e-02 -3.457967936992645264e-01
9.667671471834182739e-02 3.850749507546424866e-02 -3.300729095935821533e-01
-9.061854798346757889e-04 3.386988639831542969e-01 3.433271944522857666e-01
-5.761414300650358200e-03 3.404435813426971436e-01 3.563644886016845703e-01
-6.166567094624042511e-03 3.464905917644500732e-01 3.551185727119445801e-01
-1.427403837442398071e-02 3.445130884647369385e-01 3.672686219215393066e-01
1.701030284166336060e-01 2.536066472530364990e-01 -3.418905735015869141e-01
1.709337830543518066e-01 2.514017224311828613e-01 -3.249680101871490479e-01
1.658999621868133545e-01 2.634205222129821777e-01 -3.340283036231994629e-01
1.673499494791030884e-01 2.606889009475708008e-01 -3.182807564735412598e-01
-1.176848262548446655e-02 -4.352035224437713623e-01 -7.048462629318237305e-01
-1.828009635210037231e-02 -4.399541318416595459e-01 -6.938620209693908691e-01
-2.046811953186988831e-02 -4.228016734123229980e-01 -7.031078338623046875e-01
-2.652504667639732361e-02 -4.278153181076049805e-01 -6.917328238487243652e-01
1.280170585960149765e-02 5.450969338417053223e-01 6.583482623100280762e-01
1.492777001112699509e-02 5.459748506546020508e-01 6.718045473098754883e-01
3.290016204118728638e-03 5.544845461845397949e-01 6.655644774436950684e-01
6.258918438106775284e-03 5.547221899032592773e-01 6.786877512931823730e-01
3.839022293686866760e-02 6.301847696304321289e-01 3.673402667045593262e-01
4.151343554258346558e-02 6.288565993309020996e-01 3.836748898029327393e-01
3.346788883209228516e-02 6.357536911964416504e-01 3.792266845703125000e-01
3.820409625768661499e-02 6.348922848701477051e-01 3.956876099109649658e-01
-2.471956796944141388e-02 1.181445792317390442e-01 3.335635960102081299e-01
-2.383987046778202057e-02 1.208303123712539673e-01 3.448427915573120117e-01
-2.834836207330226898e-02 1.263013035058975220e-01 3.415257036685943604e-01
-2.752418629825115204e-02 1.285915523767471313e-01 3.529580235481262207e-01
1.400143802165985107e-01 2.082770690321922302e-02 -1.366416085511445999e-02
1.372770369052886963e-01 1.518098544329404831e-02 4.403116181492805481e-04
1.429129987955093384e-01 2.784819155931472778e-02 -3.732548560947179794e-03
1.407180428504943848e-01 2.192525938153266907e-02 1.243227347731590271e-02
-3.359718993306159973e-02 -1.884408146142959595e-01 -6.276458501815795898e-01
-4.013341292738914490e-02 -1.909570693969726562e-01 -6.113405227661132812e-01
-3.859630599617958069e-02 -1.767491400241851807e-01 -6.131638288497924805e-01
-4.501594230532646179e-02 -1.791346967220306396e-01 -5.962823033332824707e-01
9.646020084619522095e-02 -6.828315854072570801e-01 1.055732462555170059e-02
1.055486202239990234e-01 -6.821731328964233398e-01 2.216012589633464813e-02
9.273019433021545410e-02 -6.687337756156921387e-01 1.228522974997758865e-02
1.011561751365661621e-01 -6.694059967994689941e-01 2.492551133036613464e-02
4.488108307123184204e-02 -1.022303402423858643e-01 6.455163657665252686e-02
4.812759906053543091e-02 -1.020585671067237854e-01 7.734142988920211792e-02
4.059490934014320374e-02 -9.399101883172988892e-02 7.203260809183120728e-02
4.488473013043403625e-02 -9.382131695747375488e-02 8.377490192651748657e-02
-1.239162217825651169e-02 -4.418421536684036255e-02 -2.511983811855316162e-01
-1.025947928428649902e-02 -4.794732481241226196e-02 -2.323413491249084473e-01
-2.378877997398376465e-02 -4.378906637430191040e-02 -2.408948987722396851e-01
-2.235924638807773590e-02 -4.758163169026374817e-02 -2.229214757680892944e-01
7.126169651746749878e-02 4.834929108619689941e-01 -3.137570917606353760e-01
7.703064382076263428e-02 4.894323945045471191e-01 -3.003379106521606445e-01
6.595432013273239136e-02 4.963928461074829102e-01 -3.048901259899139404e-01
7.224740087985992432e-02 5.023549795150756836e-01 -2.923580408096313477e-01
-1.346557438373565674e-01 -7.418395280838012695e-01 5.357979610562324524e-02
-1.341332197189331055e-01 -7.446293234825134277e-01 6.963133811950683594e-02
-1.438926309347152710e-01 -7.361739277839660645e-01 6.623266637325286865e-02
-1.426700502634048462e-01 -7.390599250793457031e-01 8.163209259510040283e-02
-1.818284951150417328e-02 3.621096489951014519e-03 -5.606306791305541992e-01
-1.757934316992759705e-02 2.414092421531677246e-03 -5.420947670936584473e-01
-2.272723056375980377e-02 1.194729749113321304e-02 -5.472777485847473145e-01
-2.557772025465965271e-02 1.143995579332113266e-02 -5.282679200172424316e-01
-3.213445842266082764e-02 7.073110342025756836e-02 -6.170101761817932129e-01
-3.494141995906829834e-02 6.158282235264778137e-02 -6.132183670997619629e-01
-3.720749914646148682e-02 8.364189416170120239e-02 -6.176481842994689941e-01
-4.150748997926712036e-02 7.448117434978485107e-02 -6.138071417808532715e-01
6.637413054704666138e-02 5.297328829765319824e-01 4.996311366558074951e-01
5.874124169349670410e-02 5.266069769859313965e-01 5.147586464881896973e-01
6.254577636718750000e-02 5.393556356430053711e-01 5.134189724922180176e-01
5.504065379500389099e-02 5.369535684585571289e-01 5.283567905426025391e-01
1.030252687633037567e-02 4.149386584758758545e-01 -3.926263451576232910e-01
1.628287136554718018e-02 4.186310768127441406e-01 -3.798226714134216309e-01
5.925142206251621246e-03 4.236110448837280273e-01 -3.800861537456512451e-01
1.254490111023187637e-02 4.283945262432098389e-01 -3.686014711856842041e-01
1.820111572742462158e-01 2.230430990457534790e-01 -3.550687134265899658e-01
1.810893267393112183e-01 2.210483849048614502e-01 -3.366883397102355957e-01
1.752729117870330811e-01 2.387976646423339844e-01 -3.478563725948333740e-01
1.761077195405960083e-01 2.364055961370468140e-01 -3.310908973217010498e-01
-1.549380421638488770e-01 1.266535669565200806e-01 -3.734581172466278076e-01
-1.520013511180877686e-01 1.259712427854537964e-01 -3.576815724372863770e-01
-1.602351516485214233e-01 1.340636461973190308e-01 -3.634600043296813965e-01
-1.583538651466369629e-01 1.328864693641662598e-01 -3.465310335159301758e-01
1.689172983169555664e-01 -3.502869978547096252e-02 -5.236836671829223633e-01
1.668493896722793579e-01 -3.804458677768707275e-02 -5.096759796142578125e-01
1.692721545696258545e-01 -2.886460907757282257e-02 -5.114667415618896484e-01
1.671347767114639282e-01 -3.158228099346160889e-02 -4.979690015316009521e-01
-7.697084546089172363e-02 5.275349020957946777e-01 4.660925865173339844e-01
-7.683040946722030640e-02 5.268573164939880371e-01 4.793685376644134521e-01
-8.201584219932556152e-02 5.366362929344177246e-01 4.730453491210937500e-01
-8.094274997711181641e-02 5.362939238548278809e-01 4.874659776687622070e-01
-8.457759767770767212e-02 5.054786801338195801e-01 -1.840161383152008057e-01
-8.180746436119079590e-02 4.987349212169647217e-01 -1.679930090904235840e-01
-7.661283761262893677e-02 5.134105682373046875e-01 -1.725399941205978394e-01
-7.357985526323318481e-02 5.050756335258483887e-01 -1.559729725122451782e-01
-6.282527744770050049e-02 2.438145279884338379e-01 4.124156832695007324e-01
-5.894221365451812744e-02 2.443957477807998657e-01 4.251311719417572021e-01
-6.681308150291442871e-02 2.554486393928527832e-01 4.182924926280975342e-01
-6.280323863029479980e-02 2.556904852390289307e-01 4.322005808353424072e-01
1.981760561466217041e-02 -3.100211545825004578e-02 -7.278458774089813232e-02
2.651917561888694763e-02 -3.060017712414264679e-02 -5.852643027901649475e-02
1.231814548373222351e-02 -2.999079227447509766e-02 -6.093810498714447021e-02
1.865526661276817322e-02 -2.935707755386829376e-02 -4.666753113269805908e-02
1.735085248947143555e-01 5.391990020871162415e-02 -4.353825747966766357e-01
1.666110605001449585e-01 5.225064605474472046e-02 -4.210993349552154541e-01
1.678343564271926880e-01 6.367340683937072754e-02 -4.216166138648986816e-01
1.605942696332931519e-01 6.194029375910758972e-02 -4.073008000850677490e-01
3.234116360545158386e-02 2.952037155628204346e-01 -5.760256648063659668e-01
3.947063162922859192e-02 3.020457029342651367e-01 -5.631642341613769531e-01
2.626759931445121765e-02 3.075166344642639160e-01 -5.638336539268493652e-01
3.335781767964363098e-02 3.149195313453674316e-01 -5.500519871711730957e-01
1.782899796962738037e-01 8.264800161123275757e-02 -5.102421641349792480e-01
1.789483428001403809e-01 8.032841980457305908e-02 -4.928027391433715820e-01
1.785887628793716431e-01 9.303131699562072754e-02 -4.954903125762939453e-01
1.790092289447784424e-01 9.096471965312957764e-02 -4.774546325206756592e-01
-1.047805398702621460e-01 -2.263274043798446655e-01 2.983394078910350800e-02
-1.066319048404693604e-01 -2.277925908565521240e-01 4.475890845060348511e-02
-1.126483380794525146e-01 -2.150323688983917236e-01 4.126012325286865234e-02
-1.134753078222274780e-01 -2.155098766088485718e-01 5.377559736371040344e-02
4.060071706771850586e-02 -2.422710657119750977e-01 -6.586065888404846191e-01
3.960890695452690125e-02 -2.449971884489059448e-01 -6.413965821266174316e-01
3.743982687592506409e-02 -2.316671609878540039e-01 -6.463662981986999512e-01
3.723894432187080383e-02 -2.340466380119323730e-01 -6.304998397827148438e-01
-1.412193756550550461e-02 4.757913053035736084e-01 3.609074354171752930e-01
-2.194407209753990173e-02 4.626087844371795654e-01 3.676772415637969971e-01
-2.108540758490562439e-02 4.867623448371887207e-01 3.607345223426818848e-01
-2.844636142253875732e-02 4.725679159164428711e-01 3.663081824779510498e-01
9.661256521940231323e-02 -1.572401523590087891e-01 -6.262794137001037598e-01
1.023144721984863281e-01 -1.584651321172714233e-01 -6.162873506546020508e-01
9.910961240530014038e-02 -1.478724628686904907e-01 -6.203728318214416504e-01
1.041551455855369568e-01 -1.492363214492797852e-01 -6.107456684112548828e-01
3.339738398790359497e-02 2.036530971527099609e-01 -6.185102462768554688e-01
3.998101130127906799e-02 2.085577696561813354e-01 -6.104749441146850586e-01
2.702711150050163269e-02 2.127712517976760864e-01 -6.143683195114135742e-01
3.386278077960014343e-02 2.175175249576568604e-01 -6.064620614051818848e-01
4.432112723588943481e-02 -1.819054633378982544e-01 -5.925377011299133301e-01
4.628123342990875244e-02 -1.803351491689682007e-01 -5.785199999809265137e-01
3.923813998699188232e-02 -1.698599308729171753e-01 -5.847097635269165039e-01
4.255998507142066956e-02 -1.680536270141601562e-01 -5.710186362266540527e-01
4.908830672502517700e-02 1.409289389848709106e-01 3.393706083297729492e-01
4.278627410531044006e-02 1.414293795824050903e-01 3.512725234031677246e-01
4.253577440977096558e-02 1.504854112863540649e-01 3.567562401294708252e-01
3.691330552101135254e-02 1.516825705766677856e-01 3.680512011051177979e-01
-2.423038147389888763e-02 -4.546485468745231628e-02 2.768814936280250549e-02
-2.102660015225410461e-02 -4.981092736124992371e-02 4.174023121595382690e-02
-3.158655762672424316e-02 -4.378500580787658691e-02 3.790223225951194763e-02
-3.025749139487743378e-02 -4.855183511972427368e-02 5.172565951943397522e-02
-2.519554458558559418e-03 3.569647967815399170e-01 -5.278204083442687988e-01
3.008293220773339272e-03 3.621303439140319824e-01 -5.148386955261230469e-01
-1.056468486785888672e-02 3.651630878448486328e-01 -5.111654996871948242e-01
-6.217514164745807648e-03 3.701997101306915283e-01 -4.982357919216156006e-01
1.744287163019180298e-01 -7.398311495780944824e-01 1.296241134405136108e-01
1.764112710952758789e-01 -7.393820285797119141e-01 1.458197087049484253e-01
1.650217324495315552e-01 -7.343652248382568359e-01 1.427045762538909912e-01
1.670771241188049316e-01 -7.339286804199218750e-01 1.591912060976028442e-01
-1.408414915204048157e-03 4.347355365753173828e-01 -1.536552980542182922e-02
3.492075251415371895e-03 4.322304427623748779e-01 -2.155080437660217285e-06
-1.255375333130359650e-02 4.384704530239105225e-01 -7.124918978661298752e-03
-5.650753155350685120e-03 4.357244372367858887e-01 8.114601485431194305e-03
4.279886186122894287e-02 2.196508273482322693e-02 -3.512836992740631104e-01
3.974134847521781921e-02 1.366421859711408615e-02 -3.402335941791534424e-01
2.689514867961406708e-02 1.653810031712055206e-02 -3.469899892807006836e-01
2.394610829651355743e-02 8.422885090112686157e-03 -3.360164165496826172e-01
1.014942228794097900e-01 -5.842202901840209961e-01 -6.418929100036621094e-01
9.532722830772399902e-02 -5.895867943763732910e-01 -6.328769326210021973e-01
9.548313915729522705e-02 -5.756027102470397949e-01 -6.382205486297607422e-01
8.941359817981719971e-02 -5.818746685981750488e-01 -6.307867169380187988e-01
5.187957733869552612e-02 3.604331314563751221e-01 4.701060652732849121e-01
4.587972536683082581e-02 3.598258495330810547e-01 4.829191565513610840e-01
4.796590656042098999e-02 3.746025264263153076e-01 4.750123620033264160e-01
4.204860329627990723e-02 3.742918074131011963e-01 4.876863658428192139e-01
8.545284718275070190e-02 -3.384932409971952438e-03 -6.212401986122131348e-01
9.587081521749496460e-02 -2.021530643105506897e-03 -6.170423030853271484e-01
8.464639633893966675e-02 8.975031785666942596e-03 -6.191970109939575195e-01
9.500451385974884033e-02 1.010986790060997009e-02 -6.139813661575317383e-01
-1.190777942538261414e-01 5.534299835562705994e-02 -6.058694720268249512e-01
-1.258518099784851074e-01 5.492367595434188843e-02 -5.946316719055175781e-01
-1.254691034555435181e-01 6.497255712747573853e-02 -5.943429470062255859e-01
-1.321552544832229614e-01 6.456468254327774048e-02 -5.826525688171386719e-01
1.160167381167411804e-01 -7.323804497718811035e-01 -5.675933361053466797e-01
1.200375109910964966e-01 -7.326828837394714355e-01 -5.561363101005554199e-01
1.131863743066787720e-01 -7.246277332305908203e-01 -5.585682392120361328e-01
1.170946434140205383e-01 -7.253260016441345215e-01 -5.463726520538330078e-01
7.438196241855621338e-02 -7.467302680015563965e-01 1.453143507242202759e-01
7.928529381752014160e-02 -7.483107447624206543e-01 1.631016135215759277e-01
6.796405464410781860e-02 -7.379037737846374512e-01 1.638515293598175049e-01
7.287462800741195679e-02 -7.393019795417785645e-01 1.817947924137115479e-01
5.779025331139564514e-02 4.846741557121276855e-01 4.255549311637878418e-01
5.736303701996803284e-02 4.817660450935363770e-01 4.395273327827453613e-01
5.666204914450645447e-02 4.927321672439575195e-01 4.392528235912322998e-01
5.455085262656211853e-02 4.903826415538787842e-01 4.534572958946228027e-01
-3.769159317016601562e-02 4.320887327194213867e-01 -4.209047928452491760e-02
-3.907841071486473083e-02 4.248141348361968994e-01 -2.818839251995086670e-02
-3.236495703458786011e-02 4.359619617462158203e-01 -3.598191589117050171e-02
-3.484597057104110718e-02 4.284942746162414551e-01 -2.179852500557899475e-02
-6.622709333896636963e-02 2.710081636905670166e-01 3.917645215988159180e-01
-6.626151502132415771e-02 2.712711095809936523e-01 4.076973199844360352e-01
-6.869920343160629272e-02 2.794587910175323486e-01 4.044226408004760742e-01
-6.780822575092315674e-02 2.800143957138061523e-01 4.203060269355773926e-01
-1.568211615085601807e-01 2.691445648670196533e-01 -4.968750178813934326e-01
-1.609829366207122803e-01 2.680626213550567627e-01 -4.804617464542388916e-01
-1.558820009231567383e-01 2.771624028682708740e-01 -4.772165417671203613e-01
-1.589593291282653809e-01 2.750980854034423828e-01 -4.588205218315124512e-01
-1.013266108930110931e-02 -3.313532173633575439e-01 -6.731883287429809570e-01
-1.898537576198577881e-02 -3.341280221939086914e-01 -6.607699394226074219e-01
-8.604349568486213684e-03 -3.199467957019805908e-01 -6.669051647186279297e-01
-1.845277845859527588e-02 -3.220299482345581055e-01 -6.549432277679443359e-01
1.871828585863113403e-01 4.899418354034423828e-02 -1.335247308015823364e-01
1.834941059350967407e-01 4.623508080840110779e-02 -1.200571209192276001e-01
1.888353675603866577e-01 5.787910893559455872e-02 -1.235424652695655823e-01
1.847115159034729004e-01 5.512600764632225037e-02 -1.095114946365356445e-01
-1.921189725399017334e-01 2.743861079216003418e-01 -1.480125337839126587e-01
-1.948848515748977661e-01 2.714876234531402588e-01 -1.299404948949813843e-01
-1.926275491714477539e-01 2.833924591541290283e-01 -1.345908939838409424e-01
-1.948089748620986938e-01 2.795040607452392578e-01 -1.171182096004486084e-01
-6.283488124608993530e-02 1.669428050518035889e-01 3.452642261981964111e-01
-5.891130864620208740e-02 1.689416468143463135e-01 3.606806397438049316e-01
-6.500157713890075684e-02 1.790957152843475342e-01 3.571994304656982422e-01
-6.077639013528823853e-02 1.810959577560424805e-01 3.733609616756439209e-01
-9.788396954536437988e-02 -9.316361695528030396e-02 1.009127274155616760e-01
-9.147253632545471191e-02 -8.914500474929809570e-02 1.120072603225708008e-01
-1.039088219404220581e-01 -8.420988917350769043e-02 1.090624406933784485e-01
-9.634495526552200317e-02 -7.983164489269256592e-02 1.202667728066444397e-01
1.170770451426506042e-01 3.465746045112609863e-01 -3.975754082202911377e-01
1.179602220654487610e-01 3.465756177902221680e-01 -3.847875595092773438e-01
1.111916899681091309e-01 3.529518842697143555e-01 -3.874550759792327881e-01
1.121630892157554626e-01 3.528536856174468994e-01 -3.743191957473754883e-01
-8.510443568229675293e-02 -2.384548932313919067e-01 -6.179571151733398438e-01
-8.679185807704925537e-02 -2.393374741077423096e-01 -6.020464897155761719e-01
-9.437873214483261108e-02 -2.294804602861404419e-01 -6.053791642189025879e-01
-9.377684444189071655e-02 -2.295201420783996582e-01 -5.904159545898437500e-01
-1.566638350486755371e-01 -1.103719789534807205e-02 -4.608124792575836182e-01
-1.540558785200119019e-01 -8.570479229092597961e-03 -4.466266036033630371e-01
-1.604379713535308838e-01 1.270132604986429214e-03 -4.512330889701843262e-01
-1.569189578294754028e-01 4.322121385484933853e-03 -4.365530610084533691e-01
3.921077400445938110e-02 4.056923389434814453e-01 -3.861128985881805420e-01
4.406792297959327698e-02 4.085208773612976074e-01 -3.719295859336853027e-01
3.472775220870971680e-02 4.153101444244384766e-01 -3.718458712100982666e-01
4.055955260992050171e-02 4.191782772541046143e-01 -3.587490320205688477e-01
-1.715779006481170654e-01 2.561949491500854492e-01 -3.625757992267608643e-01
-1.728205680847167969e-01 2.533608376979827881e-01 -3.490426242351531982e-01
-1.733730882406234741e-01 2.647524774074554443e-01 -3.512224256992340088e-01
-1.749011874198913574e-01 2.629508972167968750e-01 -3.380047380924224854e-01
-1.948966272175312042e-02 1.894419938325881958e-01 4.329792559146881104e-01
-1.415439415723085403e-02 1.937031447887420654e-01 4.430947005748748779e-01
-2.311398461461067200e-02 1.999551951885223389e-01 4.409546256065368652e-01
-1.741770096123218536e-02 2.033889740705490112e-01 4.513711631298065186e-01
1.415948569774627686e-02 5.004170536994934082e-01 6.186506748199462891e-01
1.651315391063690186e-02 4.992908835411071777e-01 6.338849663734436035e-01
3.537831362336874008e-03 5.054650902748107910e-01 6.297930479049682617e-01
6.172206252813339233e-03 5.054021477699279785e-01 6.444637179374694824e-01
1.854500919580459595e-01 1.347331553697586060e-01 8.675801753997802734e-02
1.822627633810043335e-01 1.311013698577880859e-01 1.014504805207252502e-01
1.831762492656707764e-01 1.410357207059860229e-01 1.027562096714973450e-01
1.787030100822448730e-01 1.375706493854522705e-01 1.184805110096931458e-01
-1.116349995136260986e-01 -1.702856719493865967e-01 -6.001610755920410156e-01
-1.112699583172798157e-01 -1.718997806310653687e-01 -5.865933895111083984e-01
-1.167568415403366089e-01 -1.643797010183334351e-01 -5.910741090774536133e-01
-1.161058172583580017e-01 -1.656876951456069946e-01 -5.777493119239807129e-01
-7.538367807865142822e-02 -2.812528237700462341e-02 -2.527936697006225586e-01
-7.568777352571487427e-02 -3.073132969439029694e-02 -2.388519495725631714e-01
-8.698730170726776123e-02 -2.669073082506656647e-02 -2.458772510290145874e-01
-8.638434112071990967e-02 -2.920247986912727356e-02 -2.312761694192886353e-01
-3.098210692405700684e-02 -4.173110425472259521e-01 -6.729826927185058594e-01
-3.659706562757492065e-02 -4.189755320549011230e-01 -6.610593199729919434e-01
-3.266470506787300110e-02 -4.066039025783538818e-01 -6.646490693092346191e-01
-3.814377635717391968e-02 -4.092392921447753906e-01 -6.535251736640930176e-01
1.237695366144180298e-01 1.340047568082809448e-01 -5.924955010414123535e-01
1.310387402772903442e-01 1.364413350820541382e-01 -5.839176177978515625e-01
1.248354315757751465e-01 1.455771923065185547e-01 -5.860486626625061035e-01
1.323925852775573730e-01 1.482067704200744629e-01 -5.760238766670227051e-01
-1.268889755010604858e-01 -1.729178801178932190e-02 -1.646075546741485596e-01
-1.242006421089172363e-01 -1.875740662217140198e-02 -1.467756181955337524e-01
-1.327784210443496704e-01 -1.340050157159566879e-02 -1.533534079790115356e-01
-1.301646828651428223e-01 -1.544703077524900436e-02 -1.354615390300750732e-01
-1.529434174299240112e-01 2.317563295364379883e-01 2.406402863562107086e-02
-1.547811180353164673e-01 2.252606898546218872e-01 4.212734103202819824e-02
-1.524678468704223633e-01 2.440073341131210327e-01 3.612715005874633789e-02
-1.545998454093933105e-01 2.381583154201507568e-01 5.391690880060195923e-02
-1.161500364542007446e-01 4.185610115528106689e-01 -2.841326892375946045e-01
-1.215560212731361389e-01 4.176640808582305908e-01 -2.687366604804992676e-01
-1.190540194511413574e-01 4.285446703433990479e-01 -2.709672152996063232e-01
-1.235541179776191711e-01 4.265590310096740723e-01 -2.559765875339508057e-01
-2.585978247225284576e-02 -4.468142688274383545e-01 -7.115867733955383301e-01
-3.256737440824508667e-02 -4.512354135513305664e-01 -7.001948952674865723e-01
-3.444127738475799561e-02 -4.376536309719085693e-01 -7.092925906181335449e-01
-4.127414152026176453e-02 -4.418385326862335205e-01 -6.977688074111938477e-01
-6.231510639190673828e-02 -4.343751668930053711e-01 -7.061504721641540527e-01
-6.719127297401428223e-02 -4.365288317203521729e-01 -6.942422986030578613e-01
-6.900646537542343140e-02 -4.287614226341247559e-01 -6.980187892913818359e-01
-7.329899072647094727e-02 -4.304710924625396729e-01 -6.858607530593872070e-01
7.871475815773010254e-02 -2.395114749670028687e-01 -1.741628348827362061e-02
8.532272279262542725e-02 -2.452100813388824463e-01 -8.309960365295410156e-03
7.698669284582138062e-02 -2.305775582790374756e-01 -1.117145083844661713e-02
8.530016988515853882e-02 -2.358665913343429565e-01 -2.392795402556657791e-03
8.402099460363388062e-02 5.570118427276611328e-01 4.407921433448791504e-01
8.316610753536224365e-02 5.546305179595947266e-01 4.562414884567260742e-01
8.599994331598281860e-02 5.658397078514099121e-01 4.522028267383575439e-01
8.425190299749374390e-02 5.635613799095153809e-01 4.682582020759582520e-01
9.264548867940902710e-02 3.334814906120300293e-01 1.538681536912918091e-01
9.042219817638397217e-02 3.282444477081298828e-01 1.683155745267868042e-01
8.272267878055572510e-02 3.370566666126251221e-01 1.660796999931335449e-01
7.894529402256011963e-02 3.324769139289855957e-01 1.795618683099746704e-01
5.438628047704696655e-02 -4.939062297344207764e-01 -6.621137857437133789e-01
4.827411100268363953e-02 -4.973096251487731934e-01 -6.478730440139770508e-01
4.680401086807250977e-02 -4.833170175552368164e-01 -6.552144885063171387e-01
4.128341004252433777e-02 -4.865384101867675781e-01 -6.418823003768920898e-01
1.167373806238174438e-01 -1.603341996669769287e-01 4.722946789115667343e-03
1.239509582519531250e-01 -1.597763001918792725e-01 1.227040123194456100e-02
1.172867938876152039e-01 -1.496788114309310913e-01 8.925975300371646881e-03
1.242670044302940369e-01 -1.490990966558456421e-01 1.661661267280578613e-02
2.174157351255416870e-01 2.013574093580245972e-01 -1.272085756063461304e-01
2.145528644323348999e-01 1.996985375881195068e-01 -1.090814694762229919e-01
2.132027298212051392e-01 2.144746035337448120e-01 -1.153436973690986633e-01
2.098025083541870117e-01 2.140162587165832520e-01 -9.746927022933959961e-02
-7.481995970010757446e-02 -3.754254281520843506e-01 -7.005833387374877930e-01
-7.462144643068313599e-02 -3.774007260799407959e-01 -6.875388026237487793e-01
-7.908969372510910034e-02 -3.655688762664794922e-01 -6.921845078468322754e-01
-7.612274587154388428e-02 -3.679784238338470459e-01 -6.793347597122192383e-01
-7.447420805692672729e-02 -2.172914892435073853e-01 6.029726564884185791e-02
-8.633112162351608276e-02 -2.191972583532333374e-01 6.821437180042266846e-02
-8.038057386875152588e-02 -2.057692110538482666e-01 6.610330939292907715e-02
-9.147596359252929688e-02 -2.079641819000244141e-01 7.466322183609008789e-02
9.643994271755218506e-02 4.844906330108642578e-01 -1.895222514867782593e-01
9.613113105297088623e-02 4.837197661399841309e-01 -1.772317588329315186e-01
9.181769192218780518e-02 4.919731616973876953e-01 -1.801371276378631592e-01
9.146853536367416382e-02 4.910730421543121338e-01 -1.681584566831588745e-01
-2.035150118172168732e-02 6.315659284591674805e-01 5.305154919624328613e-01
-1.853793300688266754e-02 6.233217120170593262e-01 5.416195392608642578e-01
-2.544092573225498199e-02 6.308299899101257324e-01 5.414121150970458984e-01
-2.206914499402046204e-02 6.240321397781372070e-01 5.529736876487731934e-01
-7.269682828336954117e-03 8.854255080223083496e-02 2.935636639595031738e-01
-4.328799434006214142e-03 9.161250293254852295e-02 3.052859008312225342e-01
-1.217258255928754807e-02 9.453765302896499634e-02 3.042009174823760986e-01
-9.260107763111591339e-03 9.759557247161865234e-02 3.157243728637695312e-01
8.487779647111892700e-02 -5.491482615470886230e-01 -6.561068892478942871e-01
7.910155504941940308e-02 -5.532976984977722168e-01 -6.423963904380798340e-01
7.813987880945205688e-02 -5.370344519615173340e-01 -6.499998569488525391e-01
7.187271118164062500e-02 -5.413398146629333496e-01 -6.356516480445861816e-01
3.253973275423049927e-02 -6.120111346244812012e-01 5.742557346820831299e-03
3.298594430088996887e-02 -6.166008114814758301e-01 1.825615204870700836e-02
2.721239812672138214e-02 -6.007377505302429199e-01 7.507165428251028061e-03
2.824622951447963715e-02 -6.051073074340820312e-01 2.083977684378623962e-02
1.284810900688171387e-01 3.887650668621063232e-01 -2.978111505508422852e-01
1.297270059585571289e-01 3.902154862880706787e-01 -2.771567404270172119e-01
1.262502372264862061e-01 4.017761647701263428e-01 -2.854409813880920410e-01
1.278169751167297363e-01 4.025897681713104248e-01 -2.660763859748840332e-01
1.057303398847579956e-01 3.359975814819335938e-01 -4.735521376132965088e-01
1.087180823087692261e-01 3.386093974113464355e-01 -4.604706466197967529e-01
1.001027971506118774e-01 3.443261086940765381e-01 -4.610756635665893555e-01
1.028162688016891479e-01 3.466710746288299561e-01 -4.474998414516448975e-01
-6.989098340272903442e-02 5.177417993545532227e-01 4.352340102195739746e-01
-7.057503610849380493e-02 5.159318447113037109e-01 4.470422863960266113e-01
-7.551412284374237061e-02 5.244674682617187500e-01 4.456325769424438477e-01
-7.609935104846954346e-02 5.230391025543212891e-01 4.578510522842407227e-01
4.248547554016113281e-02 -3.416261672973632812e-01 -7.486170530319213867e-01
3.785644099116325378e-02 -3.488551974296569824e-01 -7.324576377868652344e-01
3.780049830675125122e-02 -3.321128785610198975e-01 -7.409748435020446777e-01
3.378315642476081848e-02 -3.376421332359313965e-01 -7.253492474555969238e-01
5.348916351795196533e-02 2.839632630348205566e-01 2.274309545755386353e-01
5.295151844620704651e-02 2.805604636669158936e-01 2.414708435535430908e-01
4.567437991499900818e-02 2.897116541862487793e-01 2.355945557355880737e-01
4.594242945313453674e-02 2.863651812076568604e-01 2.504874169826507568e-01
-6.426709890365600586e-02 -4.204339087009429932e-01 -7.065210342407226562e-01
-6.926869601011276245e-02 -4.225288629531860352e-01 -6.946333050727844238e-01
-6.940521299839019775e-02 -4.126313626766204834e-01 -6.988727450370788574e-01
-7.380928844213485718e-02 -4.143040180206298828e-01 -6.867563128471374512e-01
-1.826768070459365845e-01 3.005124628543853760e-01 -1.224408298730850220e-01
-1.838682889938354492e-01 2.960426509380340576e-01 -1.050046607851982117e-01
-1.754986643791198730e-01 3.081992268562316895e-01 -1.109023094177246094e-01
-1.760474294424057007e-01 3.028317689895629883e-01 -9.378283470869064331e-02
1.150804534554481506e-01 -1.019628718495368958e-01 1.009247545152902603e-02
1.229071393609046936e-01 -1.018998175859451294e-01 1.970372162759304047e-02
1.162549778819084167e-01 -9.305375814437866211e-02 1.644439995288848877e-02
