-6.565899999999999515e-02 2.828609999999999736e-01 2.337150000000000061e-01
-4.396499999999999714e-02 3.430670000000000108e-01 1.941610000000000003e-01
1.330300000000000059e-02 3.196160000000000112e-01 3.376950000000000229e-01
-6.035399999999999793e-02 -3.586539999999999728e-01 -6.587370000000000170e-01
1.596700000000000064e-01 2.973459999999999992e-01 -3.153139999999999832e-01
5.897100000000000258e-02 1.437599999999999989e-02 -6.217909999999999826e-01
-1.059129999999999933e-01 -6.317209999999999770e-01 2.082799999999999929e-02
-3.091899999999999857e-02 4.984100000000000336e-02 -6.099780000000000202e-01
8.496199999999999586e-02 -6.969090000000000007e-01 3.005999999999999991e-02
-1.672349999999999948e-01 2.375109999999999999e-01 -4.958529999999999882e-01
-3.386000000000000121e-02 -4.600779999999999870e-01 2.405499999999999999e-02
-9.128000000000000697e-03 5.030109999999999859e-01 6.709370000000000056e-01
-4.868399999999999811e-02 -9.480800000000000338e-02 -5.329390000000000516e-01
2.174109999999999931e-01 1.993409999999999904e-01 -1.719670000000000087e-01
9.728000000000000536e-02 6.380339999999999900e-01 3.274900000000000033e-01
-1.159509999999999985e-01 3.763949999999999796e-01 -8.180600000000000371e-02
6.038700000000000317e-02 -6.568009999999999682e-01 7.463200000000000389e-02
7.179399999999999671e-02 5.662509999999999488e-01 5.136039999999999495e-01
-7.690700000000000314e-02 -3.257030000000000203e-01 -7.011030000000000317e-01
-1.270590000000000053e-01 -7.451879999999999615e-01 7.390299999999999647e-02
-1.579460000000000031e-01 8.744999999999999302e-03 -5.563669999999999449e-01
-4.259299999999999892e-02 3.438120000000000065e-01 4.897509999999999919e-01
1.470239999999999880e-01 3.161869999999999958e-01 -3.600269999999999859e-01
-8.756799999999999307e-02 -3.128199999999999731e-02 -2.046949999999999881e-01
5.765599999999999892e-02 5.545529999999999626e-01 5.977390000000000203e-01
6.497300000000000297e-02 3.480139999999999900e-01 1.748260000000000092e-01
1.577530000000000043e-01 7.334000000000000241e-02 -5.579269999999999508e-01
-1.562659999999999882e-01 -7.315199999999999481e-01 -5.242630000000000345e-01
-1.914470000000000061e-01 6.254099999999999937e-02 -1.071580000000000032e-01
5.403100000000000264e-02 -3.685610000000000275e-01 -2.142099999999999907e-02
-8.817500000000000338e-02 -1.368270000000000042e-01 9.752800000000000358e-02
4.358100000000000168e-02 -2.703459999999999752e-01 -6.344220000000000415e-01
-1.726360000000000117e-01 2.805010000000000003e-01 -2.867660000000000209e-01
-5.240899999999999725e-02 -2.816839999999999899e-01 -1.540599999999999956e-02
7.775899999999999479e-02 6.350339999999999874e-01 3.277459999999999818e-01
9.602700000000000125e-02 -2.867300000000000057e-02 -1.923090000000000077e-01
5.716399999999999954e-02 4.573800000000000088e-01 4.248219999999999774e-01
4.020300000000000262e-02 -3.955810000000000159e-01 -6.587469999999999715e-01
7.899100000000000565e-02 -5.846350000000000158e-01 -6.780810000000000448e-01
-8.143499999999999350e-02 -1.227540000000000020e-01 -6.442660000000000053e-01
-6.010000000000000064e-02 -7.231680000000000330e-01 1.354329999999999978e-01
3.561799999999999689e-02 5.967449999999999699e-01 6.259219999999999784e-01
6.537300000000000055e-02 -4.496499999999999941e-01 -6.566220000000000390e-01
1.146820000000000062e-01 1.982319999999999915e-01 2.341799999999999993e-01
-1.312359999999999915e-01 -4.437699999999999978e-02 2.896400000000000016e-02
1.068019999999999942e-01 -1.328840000000000021e-01 2.187999999999999841e-03
6.666099999999999803e-02 -3.429180000000000006e-01 3.761000000000000020e-03
-7.160600000000000298e-02 4.389480000000000048e-01 -7.535400000000000431e-02
-8.765299999999999481e-02 -2.334930000000000061e-01 -6.453680000000000527e-01
1.096759999999999957e-01 3.450940000000000119e-01 7.025000000000000688e-02
-9.962500000000000522e-02 -1.489910000000000123e-01 -3.511999999999999931e-03
3.825900000000000134e-02 -1.944029999999999925e-01 -6.137949999999999795e-01
4.151000000000000176e-03 4.323599999999999666e-02 -6.596769999999999579e-01
-5.094100000000000017e-02 7.204299999999999593e-02 -4.660159999999999858e-01
1.550030000000000019e-01 2.910159999999999969e-01 -4.549480000000000190e-01
-3.379499999999999865e-02 1.038960000000000022e-01 -4.387969999999999926e-01
4.025200000000000305e-02 -1.948680000000000134e-01 -6.082119999999999749e-01
1.256839999999999902e-01 4.055199999999999777e-02 -4.042450000000000210e-01
-1.159209999999999963e-01 -7.155920000000000059e-01 -5.548760000000000359e-01
-2.132290000000000019e-01 1.636559999999999959e-01 -1.130039999999999933e-01
1.752650000000000041e-01 1.066129999999999994e-01 -5.159449999999999870e-01
4.278499999999999664e-02 5.632299999999999807e-02 -4.904240000000000266e-01
-7.384599999999999498e-02 -7.100269999999999637e-01 -6.394680000000000364e-01
1.989700000000000149e-02 1.562800000000000022e-01 -6.094009999999999705e-01
9.914199999999999402e-02 3.285469999999999779e-01 -4.921280000000000099e-01
1.705629999999999924e-01 4.767899999999999916e-02 -4.350749999999999895e-01
4.472299999999999887e-02 -6.076570000000000027e-01 -6.287540000000000351e-01
1.410770000000000080e-01 -1.032320000000000043e-01 -5.594630000000000436e-01
-2.049150000000000138e-01 2.564130000000000020e-01 -1.447370000000000045e-01
1.652379999999999960e-01 2.996570000000000067e-01 -2.902560000000000140e-01
4.502300000000000052e-02 1.622659999999999936e-01 3.762229999999999741e-01
-1.686900000000000066e-01 1.536690000000000000e-01 -3.563859999999999806e-01
-8.843399999999999872e-02 -7.462729999999999642e-01 1.108460000000000001e-01
-1.406380000000000130e-01 2.706660000000000177e-01 1.568180000000000129e-01
1.333479999999999943e-01 3.682750000000000190e-01 -2.881710000000000105e-01
4.433499999999999941e-02 -2.798930000000000029e-01 -1.510000000000000057e-02
3.524000000000000049e-02 4.777830000000000132e-01 -3.388439999999999785e-01
1.758300000000000141e-02 3.943969999999999976e-01 1.598610000000000031e-01
1.155380000000000018e-01 -2.152199999999999946e-02 -1.730480000000000074e-01
-9.031100000000000239e-02 -7.147550000000000292e-01 -5.434879999999999711e-01
2.172800000000000079e-02 5.385700000000000209e-02 -3.863289999999999780e-01
-1.154040000000000066e-01 -6.588540000000000507e-01 4.962199999999999944e-02
-8.616300000000000348e-02 -1.813569999999999904e-01 -1.003599999999999978e-02
1.308350000000000068e-01 -7.464499999999999469e-01 9.140199999999999714e-02
-6.594999999999999474e-02 -1.559059999999999890e-01 -5.438389999999999613e-01
1.325369999999999882e-01 3.800290000000000057e-01 -2.808200000000000141e-01
-1.806190000000000018e-01 7.869900000000000506e-02 -4.670210000000000194e-01
-7.273399999999999310e-02 -3.921160000000000201e-01 -6.962279999999999580e-01
-1.759199999999999930e-01 1.603769999999999918e-01 -1.067700000000000073e-02
1.023229999999999973e-01 -6.652630000000000488e-01 1.302599999999999938e-02
1.661900000000000044e-01 1.258549999999999947e-01 -3.147320000000000118e-01
5.342600000000000127e-02 -9.865999999999999770e-03 1.538039999999999963e-01
1.490120000000000056e-01 2.495020000000000016e-01 -5.191949999999999621e-01
-1.804620000000000113e-01 1.043309999999999932e-01 -2.800039999999999751e-01
5.350099999999999995e-02 -4.133689999999999864e-01 -2.791099999999999831e-02
-6.132499999999999757e-02 -1.783039999999999903e-01 -6.405000000000000103e-03
1.184769999999999990e-01 -1.219900000000000012e-01 -5.970140000000000446e-01
3.937100000000000322e-02 -1.372919999999999974e-01 -5.777269999999999905e-01
1.973789999999999989e-01 1.432769999999999877e-01 -5.401500000000000051e-02
6.600000000000000311e-02 5.182879999999999709e-01 5.000909999999999522e-01
-4.857899999999999718e-02 1.982639999999999958e-01 4.095949999999999869e-01
-9.103799999999999393e-02 -6.016899999999999471e-01 -6.736259999999999470e-01
-1.001829999999999943e-01 -3.061499999999999985e-02 -1.525660000000000072e-01
-1.136209999999999998e-01 -1.409890000000000032e-01 -5.331789999999999585e-01
1.481429999999999969e-01 1.443440000000000001e-01 1.739950000000000108e-01
-1.091519999999999990e-01 6.891700000000000603e-02 -3.653710000000000013e-01
1.235149999999999998e-01 2.762450000000000183e-01 -5.288340000000000263e-01
1.745490000000000097e-01 2.212599999999999983e-02 -4.655150000000000121e-01
-9.977300000000000058e-02 -1.232270000000000032e-01 -6.280850000000000044e-01
1.153769999999999935e-01 3.327629999999999755e-01 7.578000000000000014e-02
-2.009279999999999955e-01 1.943179999999999907e-01 -6.220500000000000335e-02
1.341449999999999865e-01 3.424829999999999819e-01 -3.167380000000000195e-01
1.073800000000000032e-01 -7.467230000000000256e-01 -5.715419999999999945e-01
1.279899999999999927e-01 -7.458050000000000512e-01 -5.650199999999999667e-01
-4.699199999999999905e-02 -5.344680000000000542e-01 -6.470190000000000108e-01
7.787099999999999578e-02 3.606260000000000021e-01 1.345840000000000092e-01
4.675999999999999601e-03 3.328610000000000180e-01 5.039900000000000491e-01
1.645909999999999873e-01 2.469899999999999873e-01 1.087120000000000031e-01
1.372929999999999984e-01 6.954000000000000459e-02 -3.348920000000000230e-01
-7.440299999999999692e-02 -2.122910000000000075e-01 6.933200000000000474e-02
3.778999999999999720e-02 4.332559999999999745e-01 3.879699999999999815e-02
-1.440120000000000011e-01 -6.005300000000000221e-02 -4.715840000000000032e-01
4.840300000000000158e-02 3.375659999999999772e-01 3.728090000000000015e-01
5.401999999999999684e-03 6.310480000000000533e-01 3.540739999999999998e-01
-6.002500000000000197e-02 5.715800000000000047e-02 -4.524960000000000093e-01
1.084539999999999949e-01 -1.829540000000000055e-01 4.872999999999999728e-03
7.752000000000000557e-02 -3.685640000000000027e-01 -6.970039999999999569e-01
-9.845700000000000285e-02 -6.995179999999999731e-01 3.348899999999999794e-02
-9.486300000000000288e-02 -5.654660000000000242e-01 -6.720709999999999740e-01
-6.296000000000000207e-02 -5.450709999999999722e-01 -5.415999999999999807e-03
2.073589999999999878e-01 2.503059999999999730e-01 -1.869290000000000118e-01
5.787099999999999883e-02 -2.581490000000000173e-01 5.578500000000000125e-02
-1.586549999999999905e-01 2.919400000000000120e-02 8.912399999999999489e-02
-1.230389999999999956e-01 -1.013629999999999948e-01 -5.969240000000000101e-01
-5.161500000000000116e-02 3.707579999999999765e-01 4.778149999999999897e-01
-2.180599999999999900e-02 4.066370000000000262e-01 -3.942680000000000073e-01
1.144440000000000041e-01 -1.334909999999999985e-01 -6.005110000000000170e-01
2.077229999999999910e-01 2.270240000000000036e-01 -2.318959999999999910e-01
-1.750099999999999920e-02 -7.119699999999999640e-02 -6.029579999999999940e-01
-8.635500000000000120e-02 -5.882720000000000171e-01 1.119500000000000009e-02
-4.636300000000000143e-02 -6.286009999999999653e-01 -6.190679999999999517e-01
-9.507699999999999485e-02 2.325349999999999917e-01 2.423680000000000001e-01
1.102839999999999931e-01 -2.401700000000000015e-02 -9.731599999999999973e-02
9.842999999999999319e-03 4.340229999999999921e-01 -1.045100000000000022e-02
1.893789999999999918e-01 2.915539999999999798e-01 -1.705069999999999919e-01
-2.002039999999999931e-01 2.676490000000000258e-01 -2.169300000000000117e-01
9.669999999999999429e-02 -1.876240000000000130e-01 7.393500000000000072e-02
-7.154699999999999949e-02 -5.829370000000000385e-01 -6.278200000000000447e-01
9.691900000000000515e-02 -6.945999999999999917e-03 -2.737729999999999886e-01
-2.885700000000000071e-02 1.941700000000000023e-02 2.023230000000000028e-01
-1.054849999999999954e-01 4.492380000000000262e-01 -1.531710000000000016e-01
4.130899999999999850e-02 -6.713599999999999568e-01 2.910400000000000140e-02
7.428700000000000581e-02 -5.801490000000000258e-01 3.570600000000000163e-02
-1.959460000000000091e-01 6.869000000000000106e-02 -1.476999999999999980e-01
-1.159870000000000068e-01 3.981480000000000019e-01 -2.950409999999999977e-01
-1.641000000000000097e-03 1.176939999999999931e-01 -6.783339999999999925e-01
7.825999999999999623e-02 5.597280000000000033e-01 4.283489999999999798e-01
-1.578910000000000036e-01 6.835700000000000109e-02 1.190969999999999945e-01
-4.462300000000000294e-02 5.913479999999999848e-01 3.636229999999999740e-01
8.482399999999999662e-02 -5.092109999999999692e-01 -6.746159999999999934e-01
1.534199999999999973e-02 -3.274099999999999788e-01 -6.664510000000000156e-01
5.661999999999999672e-02 -7.446190000000000309e-01 1.266700000000000048e-01
1.535980000000000123e-01 1.148710000000000009e-01 -3.754609999999999892e-01
-3.064700000000000063e-02 -3.381900000000000184e-02 -2.626740000000000186e-01
1.348080000000000112e-01 -7.322000000000000383e-03 -9.033599999999999963e-02
-1.410909999999999942e-01 1.206359999999999932e-01 -3.571779999999999955e-01
-3.996199999999999752e-02 -2.005429999999999990e-01 -6.114969999999999573e-01
1.290959999999999885e-01 -6.655280000000000085e-01 -6.453919999999999657e-01
1.264800000000000091e-01 -1.711899999999999880e-02 -1.544929999999999914e-01
-1.848999999999999949e-02 -8.316900000000000681e-02 -6.069710000000000383e-01
-6.501400000000000234e-02 -2.298800000000000010e-01 6.330500000000000016e-02
1.150520000000000015e-01 -7.132770000000000499e-01 3.626100000000000156e-02
1.043069999999999969e-01 -2.150710000000000122e-01 5.334300000000000153e-02
4.732100000000000195e-02 1.241339999999999943e-01 -6.235819999999999697e-01
-5.780799999999999828e-02 1.034950000000000037e-01 2.563779999999999948e-01
-8.667700000000000404e-02 3.778090000000000059e-01 -3.639209999999999945e-01
-1.628299999999999886e-02 4.319009999999999794e-01 1.114630000000000065e-01
1.896809999999999885e-01 2.634909999999999752e-01 -8.792700000000000515e-02
5.461599999999999788e-02 8.836800000000000210e-02 -4.499219999999999886e-01
-4.616100000000000064e-02 5.107209999999999805e-01 3.780379999999999852e-01
-9.772200000000000331e-02 -2.860400000000000095e-02 -7.949299999999999422e-02
-1.186549999999999966e-01 -1.558730000000000115e-01 -5.848010000000000153e-01
4.403800000000000076e-02 4.317230000000000234e-01 5.626500000000000251e-02
-9.550799999999999568e-02 -1.696489999999999942e-01 -6.266380000000000283e-01
-6.073100000000000026e-02 -5.811229999999999452e-01 -6.288350000000000328e-01
1.909399999999999986e-02 4.600819999999999910e-01 4.982659999999999867e-01
1.295840000000000047e-01 -1.524149999999999949e-01 3.721300000000000302e-02
5.474500000000000199e-02 2.851629999999999998e-01 4.589960000000000151e-01
-2.076639999999999875e-01 1.134539999999999993e-01 -2.105120000000000047e-01
-1.701360000000000094e-01 2.020569999999999866e-01 -8.175999999999999240e-03
1.238299999999999956e-01 4.187219999999999831e-01 -1.675159999999999982e-01
-3.363000000000000104e-03 2.940749999999999753e-01 4.971269999999999856e-01
1.470770000000000133e-01 2.586700000000000110e-02 1.023339999999999944e-01
-1.270679999999999865e-01 -1.170770000000000005e-01 -5.853749999999999787e-01
-1.104020000000000001e-01 2.160350000000000048e-01 -5.760589999999999877e-01
4.222900000000000265e-02 -1.016709999999999975e-01 5.421900000000000330e-02
-1.378000000000000058e-01 8.968399999999999983e-02 -3.463700000000000112e-01
-1.044920000000000015e-01 3.609299999999999731e-01 -3.702320000000000055e-01
-7.384200000000000486e-02 -4.227620000000000267e-01 -6.861920000000000242e-01
1.751800000000000024e-01 2.896889999999999743e-01 -2.733700000000000019e-01
-1.734499999999999931e-02 -6.000000000000000125e-03 -5.991560000000000219e-01
1.658199999999999952e-01 9.482500000000000651e-02 1.215900000000000036e-01
9.241800000000000015e-02 5.047490000000000032e-01 -2.076139999999999930e-01
5.533400000000000124e-02 5.644090000000000495e-01 3.881109999999999838e-01
-1.448540000000000105e-01 -3.727099999999999858e-02 5.131399999999999850e-02
2.926899999999999988e-02 -5.928790000000000449e-01 3.134200000000000180e-02
1.079679999999999945e-01 -7.328430000000000222e-01 2.026400000000000076e-02
-5.939699999999999841e-02 -5.211099999999999760e-02 -6.297479999999999745e-01
-7.874299999999999355e-02 4.125940000000000163e-01 -5.496600000000000097e-02
-4.186399999999999844e-02 -6.564419999999999700e-01 2.172899999999999832e-02
1.196200000000000041e-01 2.180580000000000018e-01 -5.679570000000000451e-01
-5.285800000000000221e-02 1.170019999999999949e-01 2.937850000000000183e-01
9.743300000000000571e-02 -7.440930000000000044e-01 -6.098609999999999864e-01
2.447099999999999970e-02 -2.858800000000000230e-01 -7.082789999999999919e-01
1.524060000000000137e-01 3.564400000000000207e-02 1.029189999999999966e-01
5.504699999999999871e-02 5.780610000000000470e-01 3.834330000000000238e-01
-4.089799999999999686e-02 -2.407179999999999875e-01 4.637899999999999662e-02
9.915999999999999814e-02 -1.619460000000000066e-01 -5.451279999999999459e-01
4.877000000000000085e-02 3.715979999999999839e-01 -4.496379999999999821e-01
-1.073179999999999967e-01 -1.831409999999999982e-01 4.020000000000000136e-03
9.172299999999999898e-02 -2.500260000000000260e-01 4.602200000000000041e-02
-1.869180000000000008e-01 1.244829999999999964e-01 -4.590949999999999753e-01
-1.321090000000000042e-01 1.130399999999999981e-02 -1.284999999999999901e-03
8.248300000000000076e-02 3.976080000000000170e-01 -3.361999999999999711e-02
3.596699999999999897e-02 -1.780210000000000126e-01 -6.128249999999999531e-01
-2.723199999999999926e-02 -3.051099999999999993e-02 -6.021999999999999575e-03
-1.209709999999999952e-01 3.221060000000000034e-01 1.089799999999999935e-01
-1.382150000000000045e-01 2.552980000000000249e-01 1.777050000000000018e-01
1.097400000000000042e-01 3.676050000000000151e-01 -5.332800000000000040e-02
-3.340599999999999820e-02 -5.913319999999999688e-01 1.237700000000000085e-02
5.696799999999999781e-02 6.329280000000000461e-01 4.054570000000000118e-01
-5.685099999999999876e-02 -2.709329999999999794e-01 -7.003089999999999593e-01
8.686499999999999777e-02 -8.879399999999999793e-02 1.139140000000000014e-01
-4.525099999999999956e-02 2.745870000000000255e-01 2.751330000000000164e-01
-1.221229999999999954e-01 -4.684999999999999928e-03 -4.411700000000000343e-02
-1.291100000000000025e-01 3.185629999999999851e-01 -4.697749999999999981e-01
1.574220000000000064e-01 2.281940000000000079e-01 1.271899999999999940e-02
-1.187219999999999942e-01 -1.908710000000000129e-01 4.737800000000000344e-02
-5.159299999999999997e-02 -3.004470000000000196e-01 -7.170360000000000067e-01
1.612760000000000027e-01 4.663500000000000284e-02 1.157000000000000042e-02
5.997999999999999859e-02 5.445170000000000288e-01 4.042379999999999862e-01
7.514600000000000446e-02 2.513889999999999736e-01 3.099890000000000145e-01
-1.535100000000000076e-01 -7.145799999999999930e-01 -5.850220000000000420e-01
9.735399999999999610e-02 -2.110579999999999956e-01 -5.995230000000000281e-01
-2.850099999999999856e-02 1.053010000000000057e-01 -4.423869999999999747e-01
4.643400000000000305e-02 6.489460000000000228e-01 4.628430000000000044e-01
-7.511999999999999580e-03 5.217880000000000296e-01 6.484410000000000451e-01
5.405000000000000082e-03 2.962560000000000193e-01 -5.851720000000000255e-01
5.215299999999999797e-02 -5.843920000000000226e-01 -6.288700000000000401e-01
1.364219999999999877e-01 2.859970000000000012e-01 5.060599999999999821e-02
2.085909999999999986e-01 1.110720000000000041e-01 -1.973930000000000129e-01
7.701099999999999612e-02 -2.248290000000000011e-01 -6.622639999999999638e-01
-5.457900000000000251e-02 -5.989989999999999482e-01 -6.674299999999999677e-01
-6.342200000000000615e-02 2.450529999999999931e-01 -5.919189999999999729e-01
-1.464229999999999976e-01 -3.592200000000000254e-02 7.138300000000000201e-02
1.534600000000000027e-02 5.155800000000000383e-01 6.588060000000000027e-01
4.764100000000000279e-02 3.535860000000000114e-01 -4.913159999999999750e-01
1.042890000000000067e-01 -7.220609999999999529e-01 2.226099999999999954e-02
-7.522199999999999720e-02 3.740550000000000264e-01 -4.015799999999999925e-01
-1.442100000000000048e-01 2.907970000000000277e-01 -1.051999999999999984e-02
-1.336100000000000065e-01 -5.690999999999999878e-03 -1.939609999999999945e-01
8.209199999999999831e-02 -6.208500000000000130e-02 1.016300000000000016e-02
-8.308100000000000207e-02 3.277559999999999918e-01 1.785029999999999950e-01
1.629819999999999880e-01 2.757589999999999764e-01 -4.487639999999999962e-01
6.791300000000000114e-02 -6.152200000000000030e-02 1.192799999999999937e-02
-1.036199999999999968e-02 1.419080000000000064e-01 -5.945259999999999989e-01
1.941489999999999883e-01 6.731499999999999984e-02 -1.373929999999999874e-01
1.860209999999999919e-01 2.949740000000000140e-01 -2.266189999999999871e-01
1.348000000000000032e-01 -1.010019999999999946e-01 -5.781410000000000160e-01
-1.179110000000000019e-01 1.010049999999999976e-01 2.090960000000000041e-01
-4.481000000000000261e-02 -6.369909999999999739e-01 -6.263840000000000519e-01
1.345550000000000079e-01 -6.894620000000000193e-01 -6.057460000000000067e-01
1.743689999999999962e-01 2.079239999999999977e-01 8.462100000000000177e-02
-4.078299999999999981e-02 1.243829999999999936e-01 3.279000000000000248e-01
1.676599999999999965e-02 5.426320000000000032e-01 -1.386209999999999942e-01
1.642800000000000094e-01 2.125499999999999959e-02 -9.009799999999999753e-02
1.990570000000000117e-01 2.528799999999999937e-01 -2.407169999999999865e-01
1.498990000000000045e-01 4.608799999999999703e-02 -5.690889999999999560e-01
6.813400000000000012e-02 -5.880330000000000279e-01 4.313499999999999973e-02
-1.409249999999999947e-01 2.640899999999999914e-01 -5.193470000000000031e-01
1.442009999999999958e-01 2.864959999999999729e-01 8.759000000000000119e-02
3.255899999999999767e-02 1.146459999999999979e-01 3.209790000000000143e-01
-7.978899999999999881e-02 -7.055970000000000297e-01 2.103199999999999861e-02
-8.862000000000000433e-02 -1.233240000000000031e-01 1.026920000000000055e-01
-1.781750000000000000e-01 1.998389999999999889e-01 -3.416919999999999957e-01
-3.998299999999999771e-02 -2.933600000000000096e-01 4.327500000000000097e-02
-9.370100000000000651e-02 -7.186759999999999815e-01 -5.185849999999999627e-01
-1.102360000000000007e-01 1.292929999999999913e-01 2.247240000000000071e-01
8.826799999999999924e-02 6.221370000000000511e-01 3.603120000000000211e-01
1.827239999999999975e-01 1.159039999999999931e-01 9.944100000000000161e-02
2.994099999999999887e-02 -5.634999999999999731e-02 7.156200000000000061e-02
-6.437800000000000467e-02 3.324750000000000205e-01 4.459310000000000218e-01
-4.545699999999999741e-02 5.439439999999999831e-01 -1.722029999999999950e-01
7.419099999999999306e-02 1.275560000000000027e-01 2.508580000000000254e-01
1.878869999999999985e-01 1.256379999999999997e-01 7.878999999999999893e-02
2.003959999999999908e-01 2.313399999999999901e-01 -2.505339999999999789e-01
-3.283599999999999713e-02 -4.528100000000000180e-02 -5.413409999999999611e-01
1.432539999999999925e-01 9.930300000000000238e-02 1.542630000000000112e-01
1.190559999999999952e-01 3.484519999999999840e-01 -4.503000000000000058e-02
5.900999999999999995e-02 -7.454439999999999955e-01 1.107120000000000049e-01
-1.464920000000000111e-01 -4.136800000000000199e-02 6.218200000000000116e-02
5.205400000000000305e-02 -5.816090000000000426e-01 -6.706729999999999636e-01
1.720309999999999895e-01 1.123299999999999993e-02 -5.095800000000000329e-01
6.008999999999999758e-02 3.978209999999999802e-01 4.461019999999999985e-01
-1.313699999999999868e-01 -1.200269999999999948e-01 -5.294250000000000345e-01
1.173500000000000064e-02 -3.525789999999999758e-01 6.838000000000000328e-03
-2.916300000000000142e-02 -6.077699999999999769e-02 -6.225399999999999823e-01
-2.763099999999999931e-02 -4.711699999999999916e-02 -1.266039999999999943e-01
6.229900000000000021e-02 5.214290000000000314e-01 -1.597810000000000064e-01
1.548799999999999899e-01 2.994399999999999840e-01 -4.225909999999999944e-01
-1.713200000000000001e-01 2.088009999999999866e-01 6.894500000000000628e-02
2.001600000000000046e-01 2.548019999999999730e-01 -1.072779999999999984e-01
-6.050599999999999729e-02 5.680159999999999654e-01 5.280780000000000474e-01
-7.829999999999999504e-04 2.658749999999999725e-01 -6.138789999999999525e-01
1.493200000000000083e-02 -4.351729999999999765e-01 1.959299999999999931e-02
-1.075040000000000023e-01 7.052000000000000109e-03 -2.910280000000000089e-01
3.565900000000000319e-02 -4.373070000000000013e-01 -2.753799999999999998e-02
7.142099999999999838e-02 6.140339999999999687e-01 4.904979999999999896e-01
-1.258509999999999907e-01 7.605000000000000648e-02 -3.537390000000000256e-01
7.481400000000000550e-02 1.560280000000000000e-01 2.923000000000000043e-01
5.633099999999999913e-02 -4.823040000000000105e-01 -9.275000000000000258e-03
-1.974029999999999951e-01 1.049479999999999996e-01 -2.400599999999999956e-01
-2.999699999999999936e-02 1.231100000000000076e-02 1.959420000000000051e-01
6.210000000000000242e-03 1.249539999999999956e-01 -5.674879999999999924e-01
1.051330000000000042e-01 -1.217300000000000049e-01 2.915000000000000056e-03
-7.749999999999999728e-04 -4.017580000000000040e-01 -4.930999999999999620e-03
1.137370000000000048e-01 -1.246040000000000064e-01 -6.041879999999999473e-01
-1.260229999999999961e-01 1.633099999999999830e-02 -4.135989999999999944e-01
-5.718299999999999772e-02 2.135340000000000016e-01 -6.049299999999999677e-01
-3.938799999999999940e-02 4.306380000000000208e-01 3.795859999999999790e-01
-2.152399999999999869e-01 1.912149999999999961e-01 -2.233070000000000055e-01
-3.157299999999999690e-02 -4.028769999999999851e-01 3.902400000000000313e-02
4.816100000000000242e-02 -1.776510000000000034e-01 7.212999999999999967e-02
1.043820000000000026e-01 3.639899999999999802e-01 4.045599999999999891e-02
-1.783799999999999969e-02 3.030660000000000021e-01 4.968210000000000126e-01
-7.094200000000000506e-02 2.708450000000000024e-01 3.935810000000000142e-01
6.804899999999999838e-02 4.327099999999999697e-02 -6.227350000000000385e-01
-1.164599999999999941e-01 -1.168470000000000064e-01 -5.077829999999999844e-01
6.126000000000000195e-02 3.497330000000000161e-01 -4.880939999999999723e-01
-1.521810000000000107e-01 -7.438940000000000552e-01 -5.266100000000000225e-01
8.081199999999999495e-02 -1.400480000000000058e-01 9.653499999999999581e-02
4.114700000000000302e-02 3.230800000000000338e-02 -6.167409999999999837e-01
-5.712500000000000216e-02 -6.896240000000000148e-01 3.807800000000000074e-02
1.092039999999999955e-01 -1.186700000000000081e-02 -2.995599999999999999e-02
1.706380000000000119e-01 -7.311109999999999554e-01 -5.224109999999999587e-01
-1.735499999999999890e-02 -6.911299999999999388e-02 -5.955059999999999798e-01
2.017180000000000084e-01 2.340139999999999998e-01 -8.904700000000000115e-02
-1.437070000000000014e-01 5.680099999999999733e-02 -3.132150000000000212e-01
-2.067170000000000119e-01 1.682470000000000077e-01 -7.713200000000000611e-02
-1.002370000000000066e-01 1.682120000000000004e-01 -5.984399999999999720e-01
-1.538190000000000113e-01 2.193110000000000059e-01 -5.312580000000000080e-01
5.350300000000000195e-02 2.346940000000000137e-01 -5.988090000000000357e-01
1.453520000000000090e-01 1.233159999999999951e-01 -3.496710000000000096e-01
-1.494560000000000055e-01 8.798000000000000265e-02 -5.694510000000000405e-01
-1.396540000000000004e-01 3.283840000000000092e-01 -3.513930000000000109e-01
1.708600000000000119e-01 2.519299999999999873e-01 -4.631930000000000214e-01
-2.153190000000000104e-01 1.386439999999999895e-01 -1.452279999999999960e-01
5.339399999999999702e-02 -3.985750000000000126e-01 3.157200000000000284e-02
-5.625100000000000239e-02 -6.358350000000000390e-01 5.091000000000000039e-03
2.097630000000000050e-01 1.902320000000000122e-01 -2.404540000000000011e-01
5.670100000000000140e-02 -7.385150000000000325e-01 -6.165410000000000057e-01
6.412600000000000244e-02 2.754510000000000014e-01 2.418430000000000024e-01
-2.777200000000000155e-02 6.463759999999999506e-01 4.203049999999999842e-01
1.031760000000000038e-01 -7.447089999999999543e-01 -6.051130000000000120e-01
-2.810199999999999851e-02 2.682840000000000225e-01 -5.995719999999999938e-01
4.753600000000000186e-02 -1.717269999999999908e-01 -5.804529999999999967e-01
-9.631000000000000671e-02 1.178600000000000064e-01 2.270240000000000036e-01
6.035999999999999699e-02 -3.864609999999999990e-01 -2.155899999999999830e-02
6.268500000000000461e-02 -4.472209999999999797e-01 -6.556619999999999671e-01
5.950199999999999934e-02 5.853120000000000545e-01 5.247950000000000115e-01
6.172400000000000109e-02 4.649630000000000152e-01 -9.087199999999999445e-02
5.591999999999999749e-02 1.233270000000000061e-01 2.979439999999999866e-01
1.080180000000000029e-01 -1.202010000000000023e-01 -5.059679999999999733e-01
-7.778500000000000691e-02 4.007390000000000119e-01 1.570999999999999914e-03
-1.040429999999999966e-01 3.008319999999999883e-01 1.837679999999999869e-01
-3.908899999999999875e-02 -2.433049999999999935e-01 4.190599999999999881e-02
1.996749999999999914e-01 9.965100000000000346e-02 -2.265169999999999961e-01
-6.399100000000000621e-02 4.509219999999999895e-01 -3.336649999999999894e-01
-1.600930000000000131e-01 -7.250020000000000353e-01 1.366890000000000049e-01
5.542799999999999810e-02 2.782160000000000188e-01 3.110060000000000047e-01
-2.130799999999999916e-01 1.774260000000000004e-01 -2.309329999999999994e-01
-1.868799999999999975e-02 1.093959999999999932e-01 -4.507470000000000088e-01
-1.189600000000000032e-02 -3.877789999999999848e-01 2.930500000000000119e-02
-4.824900000000000022e-02 -3.732539999999999747e-01 -7.251729999999999565e-01
-1.858110000000000039e-01 1.657109999999999972e-01 -2.651999999999999844e-02
5.837300000000000127e-02 4.127439999999999998e-01 4.554849999999999732e-01
-6.270900000000000085e-02 -2.476599999999999913e-01 -6.098649999999999904e-01
8.655100000000000293e-02 -6.770119999999999472e-01 1.060000000000000005e-02
-3.645099999999999729e-02 4.026770000000000072e-01 1.400409999999999988e-01
1.164670000000000011e-01 1.424080000000000068e-01 2.254780000000000117e-01
-1.458669999999999967e-01 -3.197799999999999948e-02 -4.496089999999999809e-01
-4.227999999999999814e-02 -6.045399999999999663e-01 5.951999999999999826e-03
-6.899700000000000277e-02 -7.009779999999999900e-01 -5.953629999999999756e-01
6.211799999999999961e-02 -3.389759999999999995e-01 -6.577899999999999858e-01
1.325639999999999874e-01 -7.183049999999999713e-01 -6.328399999999999581e-01
-1.428659999999999930e-01 -1.181600000000000011e-02 5.025199999999999806e-02
-1.579939999999999956e-01 6.828900000000000248e-02 1.189599999999999963e-01
1.527449999999999919e-01 3.048569999999999891e-01 -5.968500000000000194e-02
8.089000000000000357e-02 -2.457179999999999920e-01 -1.124999999999999958e-02
2.731499999999999900e-02 8.695200000000000151e-02 -6.101090000000000124e-01
-1.288499999999999923e-01 2.675469999999999793e-01 1.841990000000000016e-01
5.923599999999999699e-02 5.363179999999999614e-01 4.073649999999999771e-01
4.175500000000000045e-02 -7.892799999999999816e-02 7.230200000000000515e-02
-2.425700000000000078e-02 1.944259999999999877e-01 -6.138839999999999852e-01
7.581400000000000639e-02 -5.789990000000000414e-01 -6.301510000000000167e-01
1.308789999999999953e-01 3.194119999999999737e-01 -4.637859999999999761e-01
5.479400000000000243e-02 -3.037699999999999845e-01 4.431100000000000316e-02
-8.538900000000000656e-02 -5.874500000000000277e-01 2.725400000000000045e-02
-2.191299999999999845e-02 2.797760000000000247e-01 4.885539999999999883e-01
-4.666200000000000209e-02 -7.193239999999999634e-01 7.614100000000000035e-02
1.756389999999999896e-01 4.087999999999999967e-02 -4.787819999999999854e-01
2.931100000000000025e-02 -4.706599999999999673e-02 -1.258430000000000104e-01
-4.554799999999999821e-02 -5.647000000000000110e-03 -5.032560000000000366e-01
4.185999999999999617e-03 5.048000000000000403e-03 1.946140000000000092e-01
-8.237600000000000477e-02 3.314019999999999744e-01 1.746630000000000127e-01
1.384099999999999914e-02 -5.930000000000000375e-03 1.829830000000000068e-01
1.846909999999999941e-01 7.867000000000000381e-02 -4.681199999999999944e-02
-6.693999999999999950e-02 -3.238050000000000095e-01 -5.146999999999999666e-03
-1.143419999999999992e-01 -7.427369999999999806e-01 -6.437389999999999501e-01
1.782569999999999988e-01 4.869500000000000217e-02 -2.095090000000000008e-01
7.652599999999999680e-02 2.416480000000000017e-01 3.628919999999999924e-01
1.009540000000000021e-01 -1.870399999999999840e-02 -2.423600000000000060e-02
3.751299999999999774e-02 2.916019999999999723e-01 3.133670000000000067e-01
5.833800000000000097e-02 5.102330000000000476e-01 4.279859999999999776e-01
1.536339999999999928e-01 1.587419999999999942e-01 -5.559910000000000130e-01
-7.496300000000000185e-02 4.547579999999999956e-01 -9.712200000000000000e-02
-2.374899999999999928e-02 5.273919999999999719e-01 5.809269999999999712e-01
7.144100000000000450e-02 2.743570000000000175e-01 3.861370000000000080e-01
2.643900000000000070e-02 5.513479999999999492e-01 -1.645020000000000093e-01
1.162149999999999989e-01 -1.603860000000000008e-01 -5.882049999999999779e-01
-8.522599999999999620e-02 -1.051310000000000022e-01 -4.943500000000000116e-01
-6.476500000000000312e-02 3.463040000000000007e-01 4.337529999999999997e-01
1.059670000000000056e-01 -1.583950000000000080e-01 3.629999999999999872e-04
3.159900000000000209e-02 3.141999999999999828e-03 -5.297960000000000447e-01
6.070099999999999801e-02 -1.433699999999999974e-01 -5.412959999999999994e-01
4.337099999999999983e-02 6.486410000000000231e-01 4.485689999999999955e-01
9.985900000000000332e-02 8.597899999999999987e-02 -6.123340000000000449e-01
2.148509999999999864e-01 1.433450000000000002e-01 -2.009479999999999877e-01
4.343700000000000339e-02 5.983249999999999957e-01 5.331289999999999640e-01
-7.402499999999999358e-02 -3.915219999999999811e-01 -6.737800000000000455e-01
4.138000000000000012e-02 5.052259999999999529e-01 3.722429999999999906e-01
1.805900000000000005e-01 6.400000000000000133e-02 -2.391830000000000067e-01
2.167840000000000045e-01 1.774409999999999876e-01 -1.373439999999999939e-01
6.994899999999999729e-02 6.510799999999999921e-02 -4.290640000000000009e-01
3.373199999999999810e-02 -3.282039999999999957e-01 -7.392720000000000402e-01
7.675200000000000078e-02 6.002039999999999598e-01 4.484299999999999953e-01
-7.764000000000000068e-02 -7.464720000000000244e-01 1.072589999999999932e-01
4.792799999999999838e-02 -7.406899999999999595e-02 -5.230700000000000349e-01
-4.188999999999999668e-02 -1.732640000000000013e-01 6.156699999999999673e-02
1.341930000000000067e-01 2.946019999999999750e-01 3.869600000000000123e-02
-1.267629999999999868e-01 -1.052040000000000058e-01 -5.902399999999999869e-01
-1.700790000000000080e-01 1.720180000000000042e-01 -5.273309999999999942e-01
-8.561799999999999966e-02 -1.551210000000000089e-01 -6.482400000000000384e-01
1.771000000000000005e-03 -5.025600000000000206e-02 -1.619819999999999871e-01
1.106449999999999934e-01 -1.025500000000000023e-02 -2.877499999999999850e-02
1.480300000000000019e-02 3.254630000000000023e-01 2.191990000000000050e-01
-2.126840000000000119e-01 1.881549999999999889e-01 -1.099440000000000001e-01
3.210099999999999759e-02 9.809199999999999864e-02 -4.941639999999999922e-01
-1.457130000000000092e-01 -8.949000000000000010e-02 -5.088669999999999582e-01
-1.044540000000000052e-01 1.401099999999999915e-02 -6.096289999999999765e-01
-6.798999999999999488e-02 -3.890300000000000008e-02 -2.014920000000000044e-01
7.906900000000000039e-02 -4.820479999999999765e-01 -6.779079999999999551e-01
7.230200000000000515e-02 -1.257580000000000087e-01 -5.173539999999999806e-01
2.028459999999999985e-01 1.160100000000000020e-01 -8.514299999999999646e-02
1.781050000000000133e-01 7.501599999999999935e-02 -2.656709999999999905e-01
2.513100000000000056e-02 -7.264199999999999824e-02 -5.696290000000000520e-01
-1.403270000000000073e-01 3.212900000000000200e-01 -4.159959999999999769e-01
1.126670000000000033e-01 -6.353900000000000103e-01 -6.614210000000000367e-01
1.003499999999999948e-01 -7.095749999999999558e-01 -5.564850000000000074e-01
2.729799999999999935e-02 3.569330000000000003e-01 1.891950000000000021e-01
-9.806800000000000239e-02 -1.970750000000000002e-01 -6.244619999999999616e-01
2.207800000000000040e-02 -2.725999999999999951e-02 -1.703500000000000153e-02
7.342999999999999527e-02 5.372249999999999526e-01 5.043189999999999618e-01
-9.422700000000000520e-02 5.074400000000000022e-01 -2.325689999999999980e-01
8.758000000000000507e-02 6.259540000000000104e-01 3.181069999999999731e-01
-3.796800000000000175e-02 -2.353089999999999904e-01 1.250800000000000002e-02
1.286930000000000018e-01 -7.238500000000000489e-02 9.926799999999999513e-02
3.683100000000000263e-02 -1.291789999999999883e-01 -5.784010000000000540e-01
1.341579999999999995e-01 2.527499999999999747e-01 1.878650000000000042e-01
1.022900000000000059e-01 3.988490000000000091e-01 -8.086200000000000332e-02
-9.039200000000000013e-02 -6.057500000000000107e-01 -6.216369999999999951e-01
1.774519999999999986e-01 1.302830000000000099e-01 -5.126760000000000206e-01
-1.224309999999999982e-01 -1.807360000000000078e-01 4.584300000000000180e-02
-1.136970000000000064e-01 -1.435999999999999950e-02 9.261000000000000135e-03
-1.069470000000000004e-01 -2.333700000000000011e-02 -1.944379999999999997e-01
-1.464229999999999976e-01 9.655299999999999994e-02 -5.731810000000000516e-01
-5.056999999999999863e-03 5.171149999999999913e-01 5.871950000000000225e-01
-6.914700000000000013e-02 6.034599999999999964e-01 3.422580000000000067e-01
7.551000000000000420e-03 2.933999999999999976e-03 -3.252840000000000176e-01
-4.540299999999999891e-02 3.044589999999999796e-01 3.421939999999999982e-01
1.226799999999999939e-02 -3.518149999999999888e-01 -3.173000000000000039e-03
7.916600000000000026e-02 2.608989999999999920e-01 -5.760119999999999685e-01
-1.385019999999999862e-01 3.172130000000000227e-01 -4.490199999999999747e-02
-1.350459999999999994e-01 2.089299999999999838e-02 1.176849999999999979e-01
5.800199999999999800e-02 5.304309999999999858e-01 -1.669789999999999885e-01
1.616000000000000032e-03 1.109870000000000023e-01 3.377180000000000182e-01
-4.726999999999999952e-02 5.578739999999999810e-01 3.759210000000000051e-01
-1.072749999999999954e-01 -6.819520000000000026e-01 -5.901450000000000307e-01
5.136899999999999800e-02 -7.011180000000000190e-01 6.539200000000000568e-02
-1.067730000000000068e-01 3.518419999999999881e-01 6.592000000000000637e-02
-3.161200000000000121e-02 -5.406630000000000047e-01 -3.397999999999999979e-03
-1.355540000000000078e-01 1.727110000000000034e-01 2.133500000000000119e-01
-7.483900000000000274e-02 -2.506599999999999939e-01 -6.713789999999999480e-01
-3.196000000000000230e-02 4.365649999999999809e-01 4.735600000000000226e-02
-8.779299999999999604e-02 6.353299999999999503e-01 3.497540000000000093e-01
-1.218110000000000026e-01 -1.016500000000000042e-02 -6.174600000000000227e-02
-8.630400000000000571e-02 3.693480000000000096e-01 -3.939730000000000176e-01
5.923099999999999893e-02 5.443689999999999918e-01 -2.016890000000000072e-01
1.187359999999999943e-01 -6.889699999999999991e-02 -6.076730000000000187e-01
1.480300000000000019e-02 -2.706000000000000072e-03 -5.707750000000000323e-01
-4.681699999999999751e-02 -7.178830000000000489e-01 7.480499999999999650e-02
7.028800000000000325e-02 3.053099999999999911e-02 -4.406479999999999841e-01
6.031899999999999762e-02 -1.833249999999999880e-01 -5.670950000000000157e-01
4.996600000000000347e-02 -4.761299999999999977e-01 -6.503440000000000332e-01
-7.085800000000000431e-02 -3.194199999999999817e-01 -7.053070000000000173e-01
-2.079999999999999905e-02 6.435530000000000417e-01 5.268680000000000030e-01
8.444699999999999429e-02 1.951189999999999869e-01 2.908359999999999834e-01
-1.421479999999999966e-01 -2.756000000000000203e-03 -5.801770000000000538e-01
-1.297790000000000055e-01 3.207860000000000156e-01 -1.288300000000000035e-02
-1.143949999999999967e-01 -4.777800000000000102e-02 1.191360000000000058e-01
-7.039999999999999817e-04 -4.394599999999999895e-02 -1.023909999999999959e-01
8.193899999999999795e-02 3.921370000000000133e-01 6.384599999999999997e-02
1.872520000000000018e-01 1.497890000000000055e-01 -4.751170000000000115e-01
-6.117500000000000021e-02 -3.355730000000000102e-01 2.757899999999999935e-02
-1.277649999999999897e-01 -7.365589999999999637e-01 4.217800000000000021e-02
-4.219500000000000334e-02 -3.647400000000000087e-01 3.337799999999999795e-02
-1.444979999999999876e-01 2.762780000000000236e-01 1.130800000000000034e-02
-4.619999999999999801e-02 4.294680000000000164e-01 6.559099999999999653e-02
7.250000000000000368e-03 2.740480000000000138e-01 4.899049999999999794e-01
-1.473700000000000010e-01 6.010000000000000064e-02 -5.731579999999999453e-01
-4.269699999999999884e-02 -8.068999999999999784e-02 5.208399999999999835e-02
-1.722509999999999875e-01 2.474689999999999945e-01 -4.665139999999999842e-01
4.793900000000000244e-02 -2.126790000000000069e-01 3.449999999999999833e-04
-6.892800000000000316e-02 -1.054459999999999981e-01 -6.431700000000000195e-01
-1.565249999999999975e-01 2.969430000000000125e-01 -4.106139999999999790e-01
1.054820000000000063e-01 3.589019999999999988e-01 5.330000000000000016e-02
-1.648979999999999890e-01 7.065000000000000446e-02 -3.314000000000000105e-03
-4.809200000000000280e-02 -3.061760000000000037e-01 4.259899999999999798e-02
7.761500000000000343e-02 -4.273099999999999815e-02 -4.662000000000000345e-03
1.497899999999999926e-02 1.112240000000000034e-01 -4.538130000000000219e-01
-4.725599999999999939e-02 -3.638819999999999832e-01 -6.560489999999999933e-01
9.686599999999999377e-02 -7.263330000000000064e-01 1.447400000000000075e-02
-2.596800000000000150e-02 4.194049999999999723e-01 4.975530000000000230e-01
1.529210000000000014e-01 2.568700000000000150e-02 -4.478700000000000042e-02
5.779200000000000309e-02 -7.346979999999999622e-01 1.467759999999999898e-01
1.219940000000000052e-01 -2.297700000000000090e-02 -4.334640000000000160e-01
-5.988799999999999679e-02 -7.430069999999999730e-01 1.448059999999999903e-01
7.278300000000000047e-02 3.605099999999999971e-01 1.455279999999999907e-01
-1.096739999999999937e-01 4.083109999999999795e-01 -2.995689999999999742e-01
7.116899999999999615e-02 -6.870370000000000088e-01 -5.918280000000000207e-01
1.709110000000000074e-01 8.917600000000000526e-02 1.131830000000000058e-01
-1.798579999999999901e-01 1.718129999999999935e-01 6.475200000000000400e-02
-4.951200000000000045e-02 4.486080000000000068e-01 -6.349100000000000577e-02
-2.012309999999999932e-01 1.942389999999999950e-01 -6.303699999999999581e-02
-1.685079999999999911e-01 5.131499999999999950e-02 -2.499770000000000048e-01
-1.606769999999999865e-01 2.965920000000000223e-01 -3.094060000000000143e-01
7.293399999999999883e-02 -4.927710000000000146e-01 -6.549749999999999739e-01
1.104399999999999965e-01 3.495889999999999831e-01 5.403800000000000270e-02
-1.741129999999999900e-01 1.311779999999999891e-01 -3.883940000000000170e-01
1.163069999999999937e-01 3.418229999999999880e-01 8.477000000000000160e-03
9.887899999999999467e-02 2.056399999999999895e-02 -6.148409999999999709e-01
-1.860650000000000082e-01 4.961100000000000232e-02 -1.312530000000000086e-01
-1.105059999999999931e-01 3.550969999999999960e-01 -8.651999999999999968e-03
1.031019999999999992e-01 3.663879999999999915e-01 -3.524379999999999735e-01
-1.625320000000000098e-01 2.939069999999999738e-01 -3.037790000000000212e-01
3.443299999999999833e-02 -4.516120000000000134e-01 -6.664369999999999461e-01
-1.534860000000000113e-01 1.996979999999999866e-01 1.728270000000000084e-01
-4.461099999999999788e-02 -2.265830000000000066e-01 -6.146920000000000162e-01
-8.292700000000000071e-02 1.875219999999999942e-01 2.955590000000000162e-01
-1.436919999999999864e-01 3.364980000000000193e-01 -8.594200000000000450e-02
1.252929999999999877e-01 -1.115099999999999945e-02 -7.886600000000000554e-02
1.441719999999999946e-01 -2.861999999999999961e-03 4.774199999999999972e-02
8.745500000000000496e-02 8.349800000000000277e-02 -6.173870000000000191e-01
3.850200000000000150e-02 3.434300000000000130e-01 4.924720000000000208e-01
4.602500000000000341e-02 5.576349999999999918e-01 -2.229720000000000035e-01
-1.089040000000000008e-01 4.602200000000000180e-01 -1.810090000000000032e-01
-1.645200000000000135e-02 -3.863579999999999792e-01 -7.116730000000000000e-01
-1.245290000000000008e-01 1.408399999999999930e-02 1.354380000000000028e-01
-1.768579999999999874e-01 1.148969999999999991e-01 -4.104180000000000050e-01
3.007999999999999910e-02 -2.512329999999999841e-01 -6.914709999999999468e-01
2.072900000000000090e-02 2.987170000000000103e-01 2.438599999999999934e-01
6.985700000000000243e-02 -3.820290000000000075e-01 -7.040610000000000479e-01
7.060199999999999809e-02 -2.865690000000000182e-01 4.480499999999999761e-02
9.753299999999999470e-02 -7.155010000000000536e-01 -6.544879999999999587e-01
-5.603299999999999947e-02 4.225650000000000239e-01 3.234599999999999975e-02
1.870729999999999893e-01 5.576699999999999713e-02 -1.659259999999999902e-01
-8.814600000000000213e-02 5.159759999999999902e-01 -2.282140000000000002e-01
5.729299999999999671e-02 -7.016300000000000314e-02 -6.344579999999999664e-01
1.386749999999999927e-01 3.766289999999999916e-01 -1.479219999999999979e-01
-6.773500000000000354e-02 -3.514799999999999869e-02 -5.765399999999999692e-02
1.619180000000000064e-01 -7.264810000000000434e-01 1.342140000000000000e-01
7.216599999999999404e-02 -4.560580000000000189e-01 -6.632390000000000230e-01
2.860400000000000095e-02 -5.670009999999999772e-01 2.525700000000000167e-02
1.712809999999999888e-01 1.411810000000000009e-01 1.256379999999999997e-01
-1.155930000000000013e-01 1.448149999999999993e-01 -5.946329999999999671e-01
-3.924600000000000311e-02 5.854059999999999819e-01 6.409270000000000245e-01
9.021400000000000252e-02 2.805630000000000068e-01 2.183489999999999875e-01
-1.745420000000000027e-01 1.283070000000000044e-01 -2.984499999999999931e-01
1.005429999999999935e-01 -1.204900000000000068e-02 -2.527110000000000190e-01
-7.178700000000000359e-02 -4.261469999999999980e-01 -6.909840000000000426e-01
1.245290000000000008e-01 -8.219899999999999429e-02 1.005309999999999954e-01
-5.380599999999999966e-02 3.993900000000000228e-01 4.701279999999999903e-01
-2.788500000000000006e-02 2.782200000000000228e-01 -5.916130000000000555e-01
2.163130000000000053e-01 2.056719999999999937e-01 -1.574540000000000106e-01
-6.137800000000000200e-02 -9.722500000000000586e-02 -5.133820000000000050e-01
1.987600000000000131e-02 -5.024900000000000200e-02 -1.706149999999999889e-01
-6.686200000000000476e-02 -2.110859999999999959e-01 -1.178000000000000054e-02
-1.316789999999999905e-01 -7.100959999999999495e-01 8.561900000000000066e-02
2.948000000000000100e-03 2.423510000000000109e-01 4.766429999999999834e-01
1.777960000000000096e-01 3.926000000000000323e-02 -9.758000000000000007e-02
5.964300000000000157e-02 3.944750000000000201e-01 4.269549999999999734e-01
-6.042600000000000054e-02 2.638340000000000130e-01 4.342889999999999806e-01
9.047499999999999987e-02 -3.537699999999999873e-02 -1.326829999999999954e-01
1.066700000000000009e-01 -2.210409999999999875e-01 1.637999999999999873e-02
1.192000000000000004e-01 4.484710000000000085e-01 -2.101609999999999867e-01
-8.057599999999999485e-02 -1.239699999999999969e-01 -5.102480000000000349e-01
-1.410199999999999995e-02 1.880340000000000067e-01 -6.547899999999999832e-01
5.918000000000000344e-02 8.146599999999999675e-02 -4.426439999999999819e-01
8.044999999999999374e-02 5.703559999999999741e-01 4.317739999999999911e-01
-1.816349999999999909e-01 1.077120000000000022e-01 2.658299999999999899e-02
-5.881900000000000323e-02 -2.429399999999999962e-02 -2.730179999999999829e-01
-5.488900000000000029e-02 -1.939760000000000095e-01 -6.752909999999999746e-01
-1.508230000000000126e-01 1.072310000000000069e-01 -3.807499999999999774e-01
1.689779999999999893e-01 2.901799999999999935e-01 -7.467600000000000626e-02
1.271200000000000108e-01 3.086360000000000214e-01 -4.905109999999999748e-01
-1.324950000000000017e-01 -1.371199999999999919e-01 3.746300000000000324e-02
8.961399999999999921e-02 -1.218499999999999965e-02 -4.405890000000000084e-01
