1.801743805408477783e-01 7.660840451717376709e-02 -2.962317466735839844e-01
1.920101344585418701e-01 8.094142377376556396e-02 -2.730458676815032959e-01
1.722413897514343262e-01 8.903598040342330933e-02 -2.736305296421051025e-01
1.848843246698379517e-01 9.333758056163787842e-02 -2.496669292449951172e-01
-4.204870015382766724e-02 -9.471237659454345703e-02 4.516526460647583008e-01
-5.655125156044960022e-02 -1.017285734415054321e-01 4.661664068698883057e-01
-4.951590672135353088e-02 -8.004816621541976929e-02 4.553298354148864746e-01
-6.514928489923477173e-02 -8.637122809886932373e-02 4.688312411308288574e-01
7.049098610877990723e-01 -1.706759333610534668e-01 2.643812000751495361e-01
6.928034424781799316e-01 -1.756235510110855103e-01 2.853604853153228760e-01
6.937320828437805176e-01 -1.503678858280181885e-01 2.751257419586181641e-01
6.821027994155883789e-01 -1.541058868169784546e-01 2.951607108116149902e-01
4.078339636325836182e-01 -7.352028787136077881e-02 4.371457397937774658e-01
4.037533700466156006e-01 -8.654499053955078125e-02 4.604392349720001221e-01
3.980530500411987305e-01 -6.858026981353759766e-02 4.562743008136749268e-01
4.003109335899353027e-01 -8.103395998477935791e-02 4.794510900974273682e-01
5.397108197212219238e-01 6.743878871202468872e-02 9.260054677724838257e-02
5.475760102272033691e-01 6.594918668270111084e-02 1.208352223038673401e-01
5.337316393852233887e-01 8.152738213539123535e-02 1.126324683427810669e-01
5.410466790199279785e-01 7.998599857091903687e-02 1.421048641204833984e-01
6.453688740730285645e-01 -2.102439701557159424e-01 4.477913379669189453e-01
6.550895571708679199e-01 -2.136303335428237915e-01 4.686523377895355225e-01
6.407272219657897949e-01 -2.067109197378158569e-01 4.756103754043579102e-01
6.500041484832763672e-01 -2.097750902175903320e-01 4.974473118782043457e-01
2.804199457168579102e-01 8.937780559062957764e-02 2.302988320589065552e-01
2.835658788681030273e-01 8.446504175662994385e-02 2.534382939338684082e-01
2.737037539482116699e-01 9.812490642070770264e-02 2.413250505924224854e-01
2.770938575267791748e-01 9.204835444688796997e-02 2.641648650169372559e-01
-2.755643054842948914e-02 2.898768782615661621e-01 -1.805932968854904175e-01
-1.577867008745670319e-02 2.930884361267089844e-01 -1.535307466983795166e-01
-3.222056478261947632e-02 3.208068609237670898e-01 -1.708446741104125977e-01
-2.089672721922397614e-02 3.228713572025299072e-01 -1.431034952402114868e-01
7.617890238761901855e-01 -2.078852206468582153e-01 -4.081805944442749023e-01
7.707359194755554199e-01 -2.076816260814666748e-01 -3.820604979991912842e-01
7.500233650207519531e-01 -1.996926516294479370e-01 -3.930168151855468750e-01
7.589700222015380859e-01 -1.990275681018829346e-01 -3.664769828319549561e-01
-1.760338991880416870e-01 -1.381319761276245117e-01 5.752380490303039551e-01
-1.652453243732452393e-01 -1.393422186374664307e-01 6.060634851455688477e-01
-1.884607374668121338e-01 -1.361559331417083740e-01 6.005684733390808105e-01
-1.771778017282485962e-01 -1.366879940032958984e-01 6.301974058151245117e-01
-1.812483370304107666e-01 -2.186703532934188843e-01 -4.672726094722747803e-01
-1.962746232748031616e-01 -2.182810157537460327e-01 -4.514247477054595947e-01
-1.884924620389938354e-01 -2.002502232789993286e-01 -4.562348425388336182e-01
-2.071546912193298340e-01 -1.997126191854476929e-01 -4.410245716571807861e-01
-1.993811503052711487e-02 1.221875101327896118e-01 3.286953866481781006e-01
-6.930746138095855713e-03 1.216315105557441711e-01 3.507249951362609863e-01
-2.972152084112167358e-02 1.233395189046859741e-01 3.562262952327728271e-01
-1.676623895764350891e-02 1.231857836246490479e-01 3.790404200553894043e-01
8.080380558967590332e-01 -1.552024632692337036e-01 2.466700822114944458e-01
8.112600445747375488e-01 -1.575509458780288696e-01 2.682645618915557861e-01
7.970812320709228516e-01 -1.456957161426544189e-01 2.620730698108673096e-01
8.013169765472412109e-01 -1.483793854713439941e-01 2.838754951953887939e-01
6.747745275497436523e-01 -1.649257093667984009e-01 2.749837934970855713e-01
6.628928780555725098e-01 -1.705820113420486450e-01 2.959610819816589355e-01
6.628150939941406250e-01 -1.518651545047760010e-01 2.876805961132049561e-01
6.513393521308898926e-01 -1.581417620182037354e-01 3.086413443088531494e-01
6.217086911201477051e-01 -1.883111000061035156e-01 2.927477359771728516e-01
6.138243675231933594e-01 -1.966883838176727295e-01 3.182082772254943848e-01
6.049498319625854492e-01 -1.753341406583786011e-01 3.010211884975433350e-01
5.987409949302673340e-01 -1.839817315340042114e-01 3.256129920482635498e-01
7.552640438079833984e-01 -2.109857052564620972e-01 -1.886179111897945404e-02
7.638737559318542480e-01 -2.115471512079238892e-01 2.235824707895517349e-03
7.425661087036132812e-01 -2.039515376091003418e-01 -2.890318632125854492e-03
7.493158578872680664e-01 -2.058791369199752808e-01 1.828019134700298309e-02
-3.882319927215576172e-01 1.230089291930198669e-01 -4.249938204884529114e-02
-3.809343576431274414e-01 1.171960085630416870e-01 -1.497489213943481445e-02
-4.000511765480041504e-01 1.322295665740966797e-01 -1.574434526264667511e-02
-3.908850848674774170e-01 1.250334084033966064e-01 1.157458499073982239e-02
-1.259625609964132309e-02 2.308029532432556152e-01 1.301915198564529419e-01
-2.705596573650836945e-02 2.277260273694992065e-01 1.462072432041168213e-01
-1.725175604224205017e-02 2.517655193805694580e-01 1.412130594253540039e-01
-3.341384232044219971e-02 2.494863420724868774e-01 1.576541960239410400e-01
-5.057874321937561035e-01 1.152661070227622986e-02 2.744518220424652100e-01
-4.957678020000457764e-01 8.885866962373256683e-03 3.006908297538757324e-01
-5.100430846214294434e-01 2.947303466498851776e-02 2.871166765689849854e-01
-5.009356737136840820e-01 2.734352275729179382e-02 3.136800229549407959e-01
-6.427236199378967285e-01 -1.453619450330734253e-01 3.106841146945953369e-01
-6.325314640998840332e-01 -1.437376290559768677e-01 3.338905572891235352e-01
-6.510422229766845703e-01 -1.452630460262298584e-01 3.333374261856079102e-01
-6.411087512969970703e-01 -1.429919451475143433e-01 3.561428785324096680e-01
4.582338035106658936e-02 1.307104527950286865e-01 -4.575074836611747742e-02
4.618809372186660767e-02 1.243577152490615845e-01 -2.440555766224861145e-02
4.170166701078414917e-02 1.447713524103164673e-01 -2.709338814020156860e-02
3.860160335898399353e-02 1.387196928262710571e-01 -4.790117964148521423e-03
-3.326533436775207520e-01 1.058000028133392334e-01 2.791253626346588135e-01
-3.187519311904907227e-01 1.047708988189697266e-01 3.049591183662414551e-01
-3.383209705352783203e-01 1.152609288692474365e-01 3.045029044151306152e-01
-3.253701627254486084e-01 1.136236712336540222e-01 3.316420316696166992e-01
8.083258569240570068e-02 9.619969874620437622e-02 4.306488335132598877e-01
7.683547586202621460e-02 8.697734028100967407e-02 4.486551582813262939e-01
5.944132059812545776e-02 9.957307577133178711e-02 4.378564059734344482e-01
5.720850825309753418e-02 8.993162214756011963e-02 4.569784402847290039e-01
-4.524491727352142334e-02 -1.459696590900421143e-01 5.427522659301757812e-01
-4.188044741749763489e-02 -1.457269787788391113e-01 5.643644332885742188e-01
-5.731617286801338196e-02 -1.444883495569229126e-01 5.612384676933288574e-01
-5.330184102058410645e-02 -1.438031941652297974e-01 5.825951695442199707e-01
8.205572366714477539e-01 -1.375163793563842773e-01 4.682773947715759277e-01
8.182607889175415039e-01 -1.404612809419631958e-01 4.988206028938293457e-01
8.094918727874755859e-01 -1.256455183029174805e-01 4.956058859825134277e-01
8.026160001754760742e-01 -1.297004222869873047e-01 5.241451859474182129e-01
5.443073436617851257e-02 7.680780440568923950e-02 -1.672545671463012695e-01
6.029824540019035339e-02 7.847676426172256470e-02 -1.442566514015197754e-01
3.731960058212280273e-02 8.043042570352554321e-02 -1.523739397525787354e-01
4.358955472707748413e-02 8.164262026548385620e-02 -1.304169148206710815e-01
1.657044291496276855e-01 -2.107662856578826904e-01 5.205051898956298828e-01
1.733184307813644409e-01 -2.077549099922180176e-01 5.431916117668151855e-01
1.534248143434524536e-01 -2.046695947647094727e-01 5.406613349914550781e-01
1.607399284839630127e-01 -2.019873261451721191e-01 5.634258985519409180e-01
1.578992456197738647e-01 1.195458993315696716e-01 9.690992534160614014e-02
1.673114001750946045e-01 1.259696781635284424e-01 1.148485988378524780e-01
1.562973558902740479e-01 1.326536536216735840e-01 1.151303276419639587e-01
1.657670140266418457e-01 1.415257900953292847e-01 1.317918151617050171e-01
2.806971967220306396e-01 8.902414888143539429e-02 -3.293020129203796387e-01
2.927699387073516846e-01 1.004171073436737061e-01 -3.107161223888397217e-01
2.657500505447387695e-01 1.056123301386833191e-01 -3.084912300109863281e-01
2.737584412097930908e-01 1.166818141937255859e-01 -2.895712554454803467e-01
-4.492310583591461182e-01 1.212498024106025696e-01 -2.731410562992095947e-01
-4.376730322837829590e-01 1.196393072605133057e-01 -2.506431639194488525e-01
-4.573254883289337158e-01 1.210279464721679688e-01 -2.467622756958007812e-01
-4.451889991760253906e-01 1.193586587905883789e-01 -2.258585542440414429e-01
7.259727716445922852e-01 -6.604402512311935425e-02 1.942813582718372345e-02
7.252168059349060059e-01 -7.018232345581054688e-02 4.601906239986419678e-02
7.172199487686157227e-01 -4.996044933795928955e-02 3.619048744440078735e-02
7.156519293785095215e-01 -5.463830009102821350e-02 6.331288814544677734e-02
2.941079437732696533e-01 8.061814308166503906e-02 1.975983977317810059e-01
2.977963685989379883e-01 7.856645435094833374e-02 2.224285304546356201e-01
2.825058102607727051e-01 8.592289686203002930e-02 2.131471931934356689e-01
2.865082025527954102e-01 8.295308798551559448e-02 2.367577701807022095e-01
9.594118595123291016e-02 -1.458576619625091553e-01 -5.761786699295043945e-01
1.023276746273040771e-01 -1.521967053413391113e-01 -5.519087314605712891e-01
9.175856411457061768e-02 -1.397627592086791992e-01 -5.571334362030029297e-01
9.927751868963241577e-02 -1.459663659334182739e-01 -5.322748422622680664e-01
-7.758055925369262695e-01 -2.053746581077575684e-01 2.438462674617767334e-01
-7.651984095573425293e-01 -2.056332975625991821e-01 2.702722251415252686e-01
-7.901915311813354492e-01 -1.905872374773025513e-01 2.582912445068359375e-01
-7.785604000091552734e-01 -1.936721950769424438e-01 2.851659655570983887e-01
-8.712767809629440308e-02 -1.603347957134246826e-01 -6.410110592842102051e-01
-9.794426709413528442e-02 -1.688669472932815552e-01 -6.249914765357971191e-01
-1.010913476347923279e-01 -1.473735868930816650e-01 -6.303505897521972656e-01
-1.146588549017906189e-01 -1.557393074035644531e-01 -6.150978803634643555e-01
5.401933789253234863e-01 -1.166403014212846756e-02 -3.507963716983795166e-01
5.491971373558044434e-01 -5.892401095479726791e-03 -3.270261287689208984e-01
5.334421396255493164e-01 4.936139564961194992e-03 -3.324765264987945557e-01
5.449549555778503418e-01 1.186349801719188690e-02 -3.121202588081359863e-01
3.539608120918273926e-01 -4.877940192818641663e-02 -4.629781842231750488e-01
3.484023213386535645e-01 -5.374523252248764038e-02 -4.462845623493194580e-01
3.622453808784484863e-01 -3.960612043738365173e-02 -4.450702965259552002e-01
3.560652732849121094e-01 -4.538616538047790527e-02 -4.272778928279876709e-01
1.261964626610279083e-02 8.130937069654464722e-02 1.128057688474655151e-01
2.003770321607589722e-02 8.229810744524002075e-02 1.416390240192413330e-01
1.270120032131671906e-03 9.030123800039291382e-02 1.418198198080062866e-01
1.033063419163227081e-02 9.096033126115798950e-02 1.704491376876831055e-01
-5.336861610412597656e-01 -6.683589518070220947e-02 -2.602671384811401367e-01
-5.418235063552856445e-01 -7.128565758466720581e-02 -2.339818328619003296e-01
-5.426006913185119629e-01 -4.788647219538688660e-02 -2.414901852607727051e-01
-5.477896928787231445e-01 -5.355702713131904602e-02 -2.150397747755050659e-01
-5.401028990745544434e-01 -6.587211042642593384e-02 2.717451155185699463e-01
-5.306448936462402344e-01 -7.064604759216308594e-02 2.949058115482330322e-01
-5.379804968833923340e-01 -5.028951168060302734e-02 2.891289591789245605e-01
-5.295727849006652832e-01 -5.377915501594543457e-02 3.146625757217407227e-01
-7.138656377792358398e-01 -1.471794396638870239e-01 -3.327642083168029785e-01
-7.137751579284667969e-01 -1.548142135143280029e-01 -3.027251958847045898e-01
-7.218435406684875488e-01 -1.345445066690444946e-01 -3.097666501998901367e-01
-7.205697298049926758e-01 -1.418811827898025513e-01 -2.801232933998107910e-01
-2.986938655376434326e-01 9.006964415311813354e-02 1.465626060962677002e-01
-2.875455617904663086e-01 8.466760814189910889e-02 1.721249818801879883e-01
-3.106597065925598145e-01 9.139227867126464844e-02 1.649962216615676880e-01
-3.002854585647583008e-01 8.803858608007431030e-02 1.902142018079757690e-01
-5.983449816703796387e-01 -2.084245085716247559e-01 -4.653877019882202148e-01
-5.954988598823547363e-01 -2.129807025194168091e-01 -4.396952688694000244e-01
-6.118570566177368164e-01 -2.013394534587860107e-01 -4.511139988899230957e-01
-6.093188524246215820e-01 -2.062662988901138306e-01 -4.240494370460510254e-01
-4.553955793380737305e-01 -2.129157483577728271e-01 -4.940041899681091309e-01
-4.473448097705841064e-01 -2.128577679395675659e-01 -4.669550359249114990e-01
-4.688678979873657227e-01 -2.098107337951660156e-01 -4.780471920967102051e-01
-4.605812132358551025e-01 -2.089922875165939331e-01 -4.498570263385772705e-01
1.581666022539138794e-01 8.988431841135025024e-02 -1.290307492017745972e-01
1.659838557243347168e-01 9.060470759868621826e-02 -1.090824231505393982e-01
1.515180915594100952e-01 9.722956269979476929e-02 -1.125817298889160156e-01
1.570300906896591187e-01 9.689952433109283447e-02 -9.227885305881500244e-02
7.101893424987792969e-01 -1.706995666027069092e-01 2.415665425360202789e-03
7.125266194343566895e-01 -1.750621795654296875e-01 2.484774962067604065e-02
6.949473023414611816e-01 -1.614463180303573608e-01 1.934289000928401947e-02
6.976245045661926270e-01 -1.662052124738693237e-01 4.214294999837875366e-02
7.090512663125991821e-04 2.747006714344024658e-01 -2.289541065692901611e-01
-1.919606700539588928e-02 2.646476626396179199e-01 -2.158127278089523315e-01
-2.337820827960968018e-02 2.897401154041290283e-01 -2.220266014337539673e-01
-3.320857882499694824e-02 2.857148349285125732e-01 -2.031305879354476929e-01
-4.564091265201568604e-01 -1.079824715852737427e-01 3.716334104537963867e-01
-4.502928555011749268e-01 -1.181000024080276489e-01 3.902156352996826172e-01
-4.667590856552124023e-01 -1.042770668864250183e-01 3.822427392005920410e-01
-4.619427025318145752e-01 -1.154857054352760315e-01 4.008281826972961426e-01
-2.201359868049621582e-01 -1.471597850322723389e-01 5.447193980216979980e-01
-2.077693492174148560e-01 -1.496866643428802490e-01 5.724269747734069824e-01
-2.267853915691375732e-01 -1.370440274477005005e-01 5.605328083038330078e-01
-2.141454964876174927e-01 -1.388000547885894775e-01 5.902574658393859863e-01
3.174548447132110596e-01 -2.061775922775268555e-01 -6.275117397308349609e-01
3.101167976856231689e-01 -2.169603109359741211e-01 -6.067292094230651855e-01
3.103382289409637451e-01 -1.984049081802368164e-01 -6.181211471557617188e-01
3.029404282569885254e-01 -2.088742256164550781e-01 -5.972898602485656738e-01
3.841493129730224609e-01 1.097807511687278748e-01 -8.907438814640045166e-02
3.941318690776824951e-01 1.094611510634422302e-01 -6.057624518871307373e-02
3.755763471126556396e-01 1.111293286085128784e-01 -6.477387994527816772e-02
3.868939280509948730e-01 1.107372343540191650e-01 -3.438521176576614380e-02
2.482088059186935425e-01 -2.131106406450271606e-01 -6.086916327476501465e-01
2.500685751438140869e-01 -2.176847904920578003e-01 -5.844246149063110352e-01
2.400272041559219360e-01 -2.069502025842666626e-01 -5.915921330451965332e-01
2.449430823326110840e-01 -2.087026387453079224e-01 -5.658074617385864258e-01
6.115205287933349609e-01 -2.065427452325820923e-01 -6.061460375785827637e-01
6.119423508644104004e-01 -2.151751965284347534e-01 -5.809765458106994629e-01
5.883547663688659668e-01 -1.960601806640625000e-01 -5.976290702819824219e-01
5.891855359077453613e-01 -2.022983133792877197e-01 -5.718038678169250488e-01
-2.868406660854816437e-02 9.472902864217758179e-03 -4.943051934242248535e-01
-1.685768365859985352e-02 9.032395668327808380e-03 -4.774767458438873291e-01
-3.472753986716270447e-02 3.170816227793693542e-02 -4.881607890129089355e-01
-2.175312489271163940e-02 3.800655528903007507e-02 -4.689749181270599365e-01
5.784465074539184570e-01 -1.337043792009353638e-01 -3.532096147537231445e-01
5.791891813278198242e-01 -1.337810009717941284e-01 -3.330365121364593506e-01
5.720187425613403320e-01 -1.219521015882492065e-01 -3.365768790245056152e-01
5.734562873840332031e-01 -1.211039721965789795e-01 -3.157513141632080078e-01
-5.196377169340848923e-03 8.044847846031188965e-02 -2.138719260692596436e-01
1.814589137211441994e-03 8.088464289903640747e-02 -1.902325749397277832e-01
-2.100355923175811768e-02 8.305854350328445435e-02 -1.931100785732269287e-01
-1.410578098148107529e-02 8.458144962787628174e-02 -1.722198724746704102e-01
6.115943193435668945e-01 -1.179713904857635498e-01 4.653617143630981445e-01
6.117663979530334473e-01 -1.222470700740814209e-01 4.898009896278381348e-01
5.990203022956848145e-01 -1.058871075510978699e-01 4.813877046108245850e-01
5.941851139068603516e-01 -1.113768219947814941e-01 5.044649839401245117e-01
8.607900738716125488e-01 -1.796104460954666138e-01 2.291403412818908691e-01
8.595376610755920410e-01 -1.823299378156661987e-01 2.489369958639144897e-01
8.509404659271240234e-01 -1.726058125495910645e-01 2.424618452787399292e-01
8.500735759735107422e-01 -1.750322878360748291e-01 2.624671459197998047e-01
2.468613088130950928e-01 7.927505299448966980e-03 2.882758080959320068e-01
2.308000624179840088e-01 1.828028820455074310e-03 3.024162948131561279e-01
2.334832698106765747e-01 2.404865808784961700e-02 2.961371839046478271e-01
2.176264673471450806e-01 1.843506097793579102e-02 3.113831281661987305e-01
1.894389390945434570e-01 7.906029373407363892e-02 -1.013525500893592834e-01
2.013409435749053955e-01 7.847974449396133423e-02 -8.064145594835281372e-02
1.782101541757583618e-01 8.682777732610702515e-02 -7.769744098186492920e-02
1.902870535850524902e-01 8.610107749700546265e-02 -5.524470657110214233e-02
2.826803922653198242e-01 -1.758910268545150757e-01 -6.422676444053649902e-01
2.750240862369537354e-01 -1.831753700971603394e-01 -6.280009150505065918e-01
2.696885466575622559e-01 -1.650520563125610352e-01 -6.343959569931030273e-01
2.653770744800567627e-01 -1.692814826965332031e-01 -6.202250123023986816e-01
7.048992812633514404e-02 8.576623350381851196e-02 2.474076598882675171e-01
8.052199333906173706e-02 8.634178340435028076e-02 2.720872759819030762e-01
6.002353131771087646e-02 9.074276685714721680e-02 2.719879150390625000e-01
7.058670371770858765e-02 9.081095457077026367e-02 2.964529991149902344e-01
1.065954566001892090e-01 3.007636964321136475e-01 -1.768479943275451660e-01
1.093027442693710327e-01 2.937434315681457520e-01 -1.473443210124969482e-01
8.226759731769561768e-02 3.053662180900573730e-01 -1.567935645580291748e-01
8.636809140443801880e-02 2.974582910537719727e-01 -1.268856227397918701e-01
-5.910124629735946655e-02 2.837075591087341309e-01 1.590678244829177856e-01
-7.509267330169677734e-02 2.819004356861114502e-01 1.769787222146987915e-01
-6.898345798254013062e-02 2.981485426425933838e-01 1.735731214284896851e-01
-8.506313711404800415e-02 2.942741513252258301e-01 1.932375878095626831e-01
-3.169521689414978027e-01 2.532438337802886963e-01 -7.770082354545593262e-02
-3.210226297378540039e-01 2.490257173776626587e-01 -5.120544880628585815e-02
-3.263356089591979980e-01 2.738654911518096924e-01 -5.737703666090965271e-02
-3.299464285373687744e-01 2.696078717708587646e-01 -2.757949940860271454e-02
-4.057873487472534180e-01 1.076031550765037537e-01 2.544468045234680176e-01
-3.936615288257598877e-01 1.062992662191390991e-01 2.788075208663940430e-01
-4.255129396915435791e-01 1.153513863682746887e-01 2.741910815238952637e-01
-4.145741462707519531e-01 1.129736080765724182e-01 3.009804785251617432e-01
3.600228726863861084e-01 -1.490322649478912354e-01 4.463734328746795654e-01
3.550841808319091797e-01 -1.630293130874633789e-01 4.607802927494049072e-01
3.466650843620300293e-01 -1.374583095312118530e-01 4.484912455081939697e-01
3.434468507766723633e-01 -1.508284658193588257e-01 4.650564789772033691e-01
-5.311242938041687012e-01 -1.364960968494415283e-01 2.323568761348724365e-01
-5.285731554031372070e-01 -1.501389741897583008e-01 2.551651000976562500e-01
-5.260455608367919922e-01 -1.276601254940032959e-01 2.520764768123626709e-01
-5.224426388740539551e-01 -1.404625177383422852e-01 2.752654552459716797e-01
-4.725755751132965088e-02 8.183852583169937134e-02 2.359493076801300049e-01
-3.891871124505996704e-02 8.244615793228149414e-02 2.617063522338867188e-01
-6.039543822407722473e-02 8.303803205490112305e-02 2.545829117298126221e-01
-5.220840126276016235e-02 8.332888036966323853e-02 2.804486155509948730e-01
3.194311857223510742e-01 -8.916065096855163574e-02 -3.957208096981048584e-01
3.105008304119110107e-01 -9.515931457281112671e-02 -3.769738376140594482e-01
3.215367794036865234e-01 -7.462398707866668701e-02 -3.861340880393981934e-01
3.088634908199310303e-01 -8.030365407466888428e-02 -3.682255446910858154e-01
7.112790346145629883e-01 -1.495331227779388428e-01 -3.627074062824249268e-01
7.186498641967773438e-01 -1.468501836061477661e-01 -3.393137454986572266e-01
6.898033618927001953e-01 -1.388634443283081055e-01 -3.471634685993194580e-01
6.958061456680297852e-01 -1.366894692182540894e-01 -3.240341842174530029e-01
-8.766108751296997070e-02 7.642555236816406250e-02 8.660668879747390747e-02
-7.392878085374832153e-02 7.746770977973937988e-02 1.104066446423530579e-01
-9.402415901422500610e-02 7.898843288421630859e-02 1.092372611165046692e-01
-7.998993992805480957e-02 7.953768968582153320e-02 1.339926421642303467e-01
7.184805870056152344e-01 -2.031595259904861450e-01 -4.428205490112304688e-01
7.264505028724670410e-01 -2.042628824710845947e-01 -4.160689115524291992e-01
7.043412923812866211e-01 -1.954551637172698975e-01 -4.180393815040588379e-01
7.121487259864807129e-01 -1.959112137556076050e-01 -3.929334580898284912e-01
-4.903419613838195801e-01 1.188432127237319946e-01 2.253652513027191162e-01
-4.775486588478088379e-01 1.158042922616004944e-01 2.487161457538604736e-01
-5.041300058364868164e-01 1.193402409553527832e-01 2.447244524955749512e-01
-4.915995597839355469e-01 1.161870062351226807e-01 2.702578902244567871e-01
-1.291370540857315063e-01 -1.250580847263336182e-01 4.934834837913513184e-01
-1.423182785511016846e-01 -1.333786100149154663e-01 5.034843087196350098e-01
-1.383960545063018799e-01 -1.101602986454963684e-01 4.971348941326141357e-01
-1.523310840129852295e-01 -1.188802048563957214e-01 5.064192414283752441e-01
2.930613048374652863e-02 -1.820263415575027466e-01 4.175583124160766602e-01
1.331885345280170441e-02 -1.867757588624954224e-01 4.407733976840972900e-01
1.049999427050352097e-02 -1.614894419908523560e-01 4.251956045627593994e-01
-4.580215550959110260e-03 -1.674045324325561523e-01 4.473767280578613281e-01
-3.604758977890014648e-01 2.018433809280395508e-01 2.324521727859973907e-02
-3.610626459121704102e-01 2.000018954277038574e-01 5.230545252561569214e-02
-3.664100766181945801e-01 2.181200981140136719e-01 4.286364093422889709e-02
-3.659928739070892334e-01 2.153933048248291016e-01 7.074830681085586548e-02
5.638879165053367615e-02 -1.232624873518943787e-01 4.543321132659912109e-01
4.319126531481742859e-02 -1.315238475799560547e-01 4.735946953296661377e-01
4.142841324210166931e-02 -1.139261648058891296e-01 4.633344113826751709e-01
2.907702885568141937e-02 -1.214589849114418030e-01 4.838224053382873535e-01
3.287045061588287354e-01 -2.043779939413070679e-01 -4.364908933639526367e-01
3.258011341094970703e-01 -2.107034772634506226e-01 -4.143126606941223145e-01
3.313605189323425293e-01 -1.962912678718566895e-01 -4.107113778591156006e-01
3.289619982242584229e-01 -2.022178322076797485e-01 -3.884716033935546875e-01
5.395356193184852600e-02 2.623080909252166748e-01 -1.454301625490188599e-01
5.018008872866630554e-02 2.534106671810150146e-01 -1.159385591745376587e-01
4.112396389245986938e-02 2.747056484222412109e-01 -1.227746605873107910e-01
3.725737333297729492e-02 2.658623158931732178e-01 -9.268796443939208984e-02
5.424783825874328613e-01 -2.458400279283523560e-02 -4.172005653381347656e-01
5.510302782058715820e-01 -2.390745282173156738e-02 -3.875772655010223389e-01
5.297390818595886230e-01 -2.098417095839977264e-02 -4.010070562362670898e-01
5.375541448593139648e-01 -1.936704292893409729e-02 -3.736137747764587402e-01
4.690510630607604980e-01 7.952271401882171631e-02 -2.543165981769561768e-01
4.789703190326690674e-01 7.887253910303115845e-02 -2.349131554365158081e-01
4.565222263336181641e-01 8.263604342937469482e-02 -2.397986650466918945e-01
4.659542739391326904e-01 8.270097523927688599e-02 -2.207770645618438721e-01
1.782025843858718872e-01 -1.913083046674728394e-01 5.190696716308593750e-01
1.859795004129409790e-01 -1.887256503105163574e-01 5.416800379753112793e-01
1.623144000768661499e-01 -1.882723718881607056e-01 5.374011397361755371e-01
1.697030067443847656e-01 -1.865687668323516846e-01 5.598289370536804199e-01
-5.100805163383483887e-01 -1.001608669757843018e-01 2.592670321464538574e-01
-5.022122263908386230e-01 -1.109466329216957092e-01 2.811858654022216797e-01
-5.056775808334350586e-01 -8.906667679548263550e-02 2.812893986701965332e-01
-4.959126710891723633e-01 -9.620020538568496704e-02 3.038596212863922119e-01
-6.410317420959472656e-01 -1.459195613861083984e-01 2.890443429350852966e-02
-6.372056007385253906e-01 -1.519969403743743896e-01 5.669642984867095947e-02
-6.500743031501770020e-01 -1.325318068265914917e-01 4.237642884254455566e-02
-6.433533430099487305e-01 -1.375086158514022827e-01 6.940516084432601929e-02
-2.529602050781250000e-01 -2.091304510831832886e-01 4.987198114395141602e-01
-2.483779191970825195e-01 -2.077295035123825073e-01 5.216658711433410645e-01
-2.653563618659973145e-01 -2.086770832538604736e-01 5.214224457740783691e-01
-2.610476016998291016e-01 -2.070069611072540283e-01 5.436736941337585449e-01
4.174199998378753662e-01 -2.152730822563171387e-01 5.109050273895263672e-01
4.230969846248626709e-01 -2.144765555858612061e-01 5.389323234558105469e-01
4.001245796680450439e-01 -2.089435309171676636e-01 5.296429395675659180e-01
4.077250659465789795e-01 -2.072590142488479614e-01 5.586823225021362305e-01
-3.847153782844543457e-01 -1.849980652332305908e-01 6.233215332031250000e-01
-3.768482804298400879e-01 -1.809638291597366333e-01 6.405241489410400391e-01
-3.948664665222167969e-01 -1.710595339536666870e-01 6.309260129928588867e-01
-3.860592544078826904e-01 -1.686508357524871826e-01 6.487427949905395508e-01
-3.327808156609535217e-02 7.679004967212677002e-02 1.155823543667793274e-01
-2.213369496166706085e-02 7.723502069711685181e-02 1.402676999568939209e-01
-3.873046115040779114e-02 7.952687144279479980e-02 1.378620266914367676e-01
-2.797763049602508545e-02 8.114501088857650757e-02 1.660178154706954956e-01
7.985808700323104858e-02 1.507596522569656372e-01 -2.224945276975631714e-02
7.699063420295715332e-02 1.425404250621795654e-01 2.974038943648338318e-04
7.704030722379684448e-02 1.709502488374710083e-01 -9.749723598361015320e-03
7.282454520463943481e-02 1.626787781715393066e-01 1.412959769368171692e-02
7.030128836631774902e-01 -1.528308540582656860e-02 -2.717780172824859619e-01
7.075974345207214355e-01 -1.668563485145568848e-02 -2.448633611202239990e-01
6.928116083145141602e-01 4.459881223738193512e-03 -2.567809522151947021e-01
6.968041658401489258e-01 3.499366808682680130e-03 -2.301191240549087524e-01
3.798108696937561035e-01 -2.170511186122894287e-01 5.575543642044067383e-01
3.887129127979278564e-01 -2.146668583154678345e-01 5.881341099739074707e-01
3.724621534347534180e-01 -2.074430435895919800e-01 5.859566926956176758e-01
3.793863654136657715e-01 -2.040551900863647461e-01 6.171669363975524902e-01
3.676340878009796143e-01 9.950941056013107300e-02 -6.579007953405380249e-02
3.791137039661407471e-01 9.938223659992218018e-02 -3.517991304397583008e-02
3.627117574214935303e-01 1.053957492113113403e-01 -4.804085940122604370e-02
3.772224783897399902e-01 1.043902784585952759e-01 -1.749666407704353333e-02
-3.710460066795349121e-01 9.713703393936157227e-02 -3.163414299488067627e-01
-3.581770062446594238e-01 9.359025210142135620e-02 -2.878005802631378174e-01
-3.790208697319030762e-01 1.024849563837051392e-01 -2.946945130825042725e-01
-3.672667443752288818e-01 9.937290847301483154e-02 -2.673796117305755615e-01
6.178013682365417480e-01 7.919953018426895142e-02 -2.394239008426666260e-01
6.217364668846130371e-01 7.663344591856002808e-02 -2.135795801877975464e-01
6.143211126327514648e-01 8.780835568904876709e-02 -2.131556272506713867e-01
6.184033155441284180e-01 8.489327132701873779e-02 -1.854996681213378906e-01
-6.361584663391113281e-01 -2.030536532402038574e-01 2.072829604148864746e-01
-6.220604181289672852e-01 -2.050841599702835083e-01 2.356131672859191895e-01
-6.437995433807373047e-01 -1.982084214687347412e-01 2.313313931226730347e-01
-6.284840703010559082e-01 -1.999446451663970947e-01 2.604011297225952148e-01
-3.283122181892395020e-01 -2.027729153633117676e-01 -5.618433952331542969e-01
-3.209402263164520264e-01 -2.051489800214767456e-01 -5.427233576774597168e-01
-3.376573622226715088e-01 -1.985387504100799561e-01 -5.491300821304321289e-01
-3.303462564945220947e-01 -2.014020532369613647e-01 -5.297300815582275391e-01
-4.547019600868225098e-01 1.133085191249847412e-01 -2.223538905382156372e-01
-4.433863461017608643e-01 1.132344678044319153e-01 -2.003922015428543091e-01
-4.646402299404144287e-01 1.115248128771781921e-01 -1.919306665658950806e-01
-4.526567161083221436e-01 1.110640317201614380e-01 -1.667643040418624878e-01
-5.969682335853576660e-01 -3.624903783202171326e-02 -1.166832968592643738e-01
-6.013180017471313477e-01 -3.929584473371505737e-02 -9.103327989578247070e-02
-6.048595905303955078e-01 -1.622730679810047150e-02 -1.016122326254844666e-01
-6.087524890899658203e-01 -1.902640610933303833e-02 -7.620248943567276001e-02
6.768615245819091797e-01 -1.419005692005157471e-01 5.550541281700134277e-01
6.642956137657165527e-01 -1.489640176296234131e-01 5.733503103256225586e-01
6.579403877258300781e-01 -1.301026493310928345e-01 5.608670115470886230e-01
6.474323272705078125e-01 -1.372385621070861816e-01 5.796409845352172852e-01
-4.929731190204620361e-01 -1.094223931431770325e-01 3.466453552246093750e-01
-4.818914830684661865e-01 -1.155892163515090942e-01 3.642057478427886963e-01
-5.020735263824462891e-01 -1.027294099330902100e-01 3.538632690906524658e-01
-4.914803504943847656e-01 -1.091246753931045532e-01 3.721658587455749512e-01
-1.758163720369338989e-01 -3.467086702585220337e-02 4.923258125782012939e-01
-1.888253837823867798e-01 -4.144256189465522766e-02 5.024641156196594238e-01
-1.879574209451675415e-01 -2.045183070003986359e-02 4.965378940105438232e-01
-2.023503482341766357e-01 -2.761246636509895325e-02 5.072015523910522461e-01
-4.834737181663513184e-01 1.097206026315689087e-01 -2.293754220008850098e-01
-4.716082811355590820e-01 1.090300530195236206e-01 -2.043020129203796387e-01
-4.944697618484497070e-01 1.125842928886413574e-01 -1.983059048652648926e-01
-4.816956222057342529e-01 1.132170185446739197e-01 -1.715375483036041260e-01
-2.881537377834320068e-02 -1.473185122013092041e-01 6.619580984115600586e-01
-4.376994073390960693e-02 -1.528918296098709106e-01 6.816063523292541504e-01
-4.171793907880783081e-02 -1.352323293685913086e-01 6.698607802391052246e-01
-5.752048641443252563e-02 -1.409414708614349365e-01 6.893709897994995117e-01
-7.644797861576080322e-02 -3.575064241886138916e-03 -4.950765967369079590e-01
-9.216034412384033203e-02 -1.603562198579311371e-02 -4.858216047286987305e-01
-9.213243424892425537e-02 1.599115505814552307e-02 -4.933525025844573975e-01
-1.085423305630683899e-01 3.952805418521165848e-03 -4.848037660121917725e-01
6.320077776908874512e-01 5.542622506618499756e-02 -1.327221840620040894e-01
6.360600590705871582e-01 5.070718377828598022e-02 -1.037078127264976501e-01
6.157664060592651367e-01 6.626828014850616455e-02 -1.180531382560729980e-01
6.235002279281616211e-01 6.212822347879409790e-02 -8.939121663570404053e-02
1.748540103435516357e-01 -1.540745049715042114e-01 -3.467780351638793945e-01
1.852485388517379761e-01 -1.525944471359252930e-01 -3.263676166534423828e-01
1.646385341882705688e-01 -1.344304680824279785e-01 -3.380859196186065674e-01
1.765855997800827026e-01 -1.340548396110534668e-01 -3.179865777492523193e-01
1.619726866483688354e-01 8.032029867172241211e-02 -2.851564586162567139e-01
1.751667410135269165e-01 8.448502421379089355e-02 -2.604728341102600098e-01
1.560435444116592407e-01 9.378602355718612671e-02 -2.588126361370086670e-01
1.693636924028396606e-01 9.772358089685440063e-02 -2.338270545005798340e-01
-3.713768720626831055e-01 -1.763347238302230835e-01 5.741871595382690430e-01
-3.663330078125000000e-01 -1.781983822584152222e-01 5.960943698883056641e-01
-3.824808895587921143e-01 -1.719613522291183472e-01 5.903959870338439941e-01
-3.762993812561035156e-01 -1.736537516117095947e-01 6.110903024673461914e-01
-4.813347458839416504e-01 2.896965295076370239e-02 3.072263300418853760e-01
-4.714944064617156982e-01 2.601329982280731201e-02 3.307399153709411621e-01
-4.801679849624633789e-01 4.792879894375801086e-02 3.204471170902252197e-01
-4.709746241569519043e-01 4.581695422530174255e-02 3.475913107395172119e-01
2.916147410869598389e-01 8.638586103916168213e-02 -1.633144468069076538e-01
2.999410927295684814e-01 8.742464333772659302e-02 -1.371370404958724976e-01
2.762334346771240234e-01 8.723349124193191528e-02 -1.403005123138427734e-01
2.854209542274475098e-01 8.628349006175994873e-02 -1.142503172159194946e-01
7.546463608741760254e-01 -1.308579742908477783e-01 3.901537507772445679e-02
7.563070654869079590e-01 -1.341269612312316895e-01 6.352884322404861450e-02
7.428480982780456543e-01 -1.222763210535049438e-01 6.030168384313583374e-02
7.433987259864807129e-01 -1.260514110326766968e-01 8.449715375900268555e-02
8.317295908927917480e-01 -2.022022604942321777e-01 8.505611121654510498e-02
8.405320048332214355e-01 -2.063810825347900391e-01 1.065464168787002563e-01
8.248357772827148438e-01 -1.987637579441070557e-01 1.020758450031280518e-01
8.343308568000793457e-01 -2.016702145338058472e-01 1.234693229198455811e-01
-3.229362964630126953e-01 -1.879968941211700439e-01 5.230975151062011719e-01
-3.168127536773681641e-01 -1.910251080989837646e-01 5.454962849617004395e-01
-3.303543329238891602e-01 -1.816991120576858521e-01 5.403098464012145996e-01
-3.248339891433715820e-01 -1.848895847797393799e-01 5.635321140289306641e-01
7.790706306695938110e-02 2.410299479961395264e-01 3.410305455327033997e-02
7.487158477306365967e-02 2.342677861452102661e-01 5.944059044122695923e-02
6.817223131656646729e-02 2.543298900127410889e-01 4.952755197882652283e-02
6.429037451744079590e-02 2.475980818271636963e-01 7.605674862861633301e-02
2.744625508785247803e-01 -1.432553082704544067e-01 4.945730268955230713e-01
2.843584716320037842e-01 -1.423951834440231323e-01 5.189298987388610840e-01
2.613533139228820801e-01 -1.402675509452819824e-01 5.181005001068115234e-01
2.708668112754821777e-01 -1.400699615478515625e-01 5.420376062393188477e-01
5.721558630466461182e-02 -2.730736881494522095e-02 -4.610067009925842285e-01
6.641370803117752075e-02 -3.692093491554260254e-02 -4.487873613834381104e-01
4.463749006390571594e-02 -7.032616995275020599e-03 -4.565383195877075195e-01
6.028125807642936707e-02 -1.224457379430532455e-02 -4.438670277595520020e-01
6.643288582563400269e-02 -1.415418833494186401e-01 4.928966462612152100e-01
6.522357463836669922e-02 -1.456371247768402100e-01 5.162766575813293457e-01
5.305857583880424500e-02 -1.383863985538482666e-01 5.044404864311218262e-01
5.227731168270111084e-02 -1.413115113973617554e-01 5.286611914634704590e-01
-7.097058296203613281e-01 -1.680888086557388306e-01 -3.975795209407806396e-01
-7.132236361503601074e-01 -1.753492802381515503e-01 -3.664071261882781982e-01
-7.235809564590454102e-01 -1.525892168283462524e-01 -3.789070248603820801e-01
-7.250589728355407715e-01 -1.593419611454010010e-01 -3.487514853477478027e-01
-3.500743806362152100e-01 8.378092944622039795e-02 1.412996500730514526e-01
-3.427202701568603516e-01 8.227099478244781494e-02 1.650499105453491211e-01
-3.599186241626739502e-01 8.581261336803436279e-02 1.634094864130020142e-01
-3.531217277050018311e-01 8.530740439891815186e-02 1.870373934507369995e-01
-3.951572477817535400e-01 5.422782897949218750e-02 3.702841103076934814e-01
-3.819690942764282227e-01 5.169126018881797791e-02 3.872309029102325439e-01
-3.985261321067810059e-01 7.425361126661300659e-02 3.792241215705871582e-01
-3.852707743644714355e-01 7.109189778566360474e-02 3.963345885276794434e-01
1.067618280649185181e-01 1.131303682923316956e-01 -8.349030464887619019e-02
1.146021112799644470e-01 1.119566708803176880e-01 -5.785752087831497192e-02
1.033422052860260010e-01 1.194889396429061890e-01 -5.703838169574737549e-02
1.125369295477867126e-01 1.179729402065277100e-01 -3.147841617465019226e-02
1.362341791391372681e-01 1.353781521320343018e-01 1.350436508655548096e-01
1.455001980066299438e-01 1.467031240463256836e-01 1.497972756624221802e-01
1.277776360511779785e-01 1.550205647945404053e-01 1.480391919612884521e-01
1.374100744724273682e-01 1.663726419210433960e-01 1.624741852283477783e-01
3.510111570358276367e-01 -2.114769667387008667e-01 5.887548923492431641e-01
3.562382161617279053e-01 -2.084392309188842773e-01 6.182063221931457520e-01
3.381752073764801025e-01 -1.969256848096847534e-01 6.078287363052368164e-01
3.421171307563781738e-01 -1.953334361314773560e-01 6.374348402023315430e-01
-4.587828516960144043e-01 -9.696856886148452759e-02 3.410058319568634033e-01
-4.455873668193817139e-01 -9.860716015100479126e-02 3.584870994091033936e-01
-4.544628560543060303e-01 -8.035209774971008301e-02 3.515946865081787109e-01
-4.412043094635009766e-01 -8.117499947547912598e-02 3.698614537715911865e-01
-5.406014919281005859e-01 -2.098502069711685181e-01 -3.424046337604522705e-01
-5.312089323997497559e-01 -2.087366580963134766e-01 -3.197052776813507080e-01
-5.559151768684387207e-01 -2.072743922472000122e-01 -3.203579783439636230e-01
-5.462561845779418945e-01 -2.064101099967956543e-01 -2.984651327133178711e-01
5.799551606178283691e-01 1.015236452221870422e-01 1.623881906270980835e-01
5.884039402008056641e-01 9.522035717964172363e-02 1.924943178892135620e-01
5.685748457908630371e-01 1.118672564625740051e-01 1.830108016729354858e-01
5.774251818656921387e-01 1.042023301124572754e-01 2.141739875078201294e-01
2.885247766971588135e-01 -2.098481804132461548e-01 -5.340222120285034180e-01
2.966902852058410645e-01 -2.118636518716812134e-01 -5.091528892517089844e-01
2.816931307315826416e-01 -2.032453715801239014e-01 -5.074940323829650879e-01
2.925707399845123291e-01 -2.047403901815414429e-01 -4.824610054492950439e-01
6.681865453720092773e-01 -1.448172926902770996e-01 -5.622826218605041504e-01
6.732785701751708984e-01 -1.437547802925109863e-01 -5.326006412506103516e-01
6.554511189460754395e-01 -1.284641176462173462e-01 -5.442836284637451172e-01
6.605807542800903320e-01 -1.285860836505889893e-01 -5.148726105690002441e-01
-4.784184396266937256e-01 8.502426743507385254e-02 1.749839037656784058e-01
-4.700719118118286133e-01 8.437719196081161499e-02 1.974102854728698730e-01
-4.810565710067749023e-01 9.192527830600738525e-02 1.906636506319046021e-01
-4.724201560020446777e-01 9.166443347930908203e-02 2.133756577968597412e-01
3.504875898361206055e-01 -5.215741693973541260e-02 -4.069562256336212158e-01
3.427122533321380615e-01 -5.808248370885848999e-02 -3.875904679298400879e-01
3.565129041671752930e-01 -4.037969559431076050e-02 -3.869857490062713623e-01
3.481482267379760742e-01 -4.630871862173080444e-02 -3.678970932960510254e-01
2.316096872091293335e-01 7.584497332572937012e-02 1.687537133693695068e-01
2.370730638504028320e-01 7.745554298162460327e-02 1.955381333827972412e-01
2.147237062454223633e-01 8.216593414545059204e-02 1.858444511890411377e-01
2.210852950811386108e-01 8.212653547525405884e-02 2.142871469259262085e-01
3.488740324974060059e-01 1.928938925266265869e-02 3.124046921730041504e-01
3.320404589176177979e-01 7.315151393413543701e-03 3.303323984146118164e-01
3.340902924537658691e-01 3.527239337563514709e-02 3.180163800716400146e-01
3.200607895851135254e-01 2.200349047780036926e-02 3.343426585197448730e-01
-5.309598445892333984e-01 1.150081306695938110e-01 2.676320448517799377e-02
-5.193316340446472168e-01 1.105312183499336243e-01 5.646057426929473877e-02
-5.341187119483947754e-01 1.199234500527381897e-01 5.697023123502731323e-02
-5.256028175354003906e-01 1.118139028549194336e-01 8.713784813880920410e-02
4.958214163780212402e-01 -6.227280572056770325e-02 3.329840600490570068e-01
5.025190114974975586e-01 -6.593450903892517090e-02 3.578968048095703125e-01
4.871138632297515869e-01 -5.290638655424118042e-02 3.592406809329986572e-01
4.939347207546234131e-01 -5.593189597129821777e-02 3.844836056232452393e-01
6.453384757041931152e-01 -1.156242787837982178e-01 -6.489592790603637695e-01
6.493369340896606445e-01 -1.162682548165321350e-01 -6.249101758003234863e-01
6.309378147125244141e-01 -9.781342744827270508e-02 -6.309084892272949219e-01
6.357801556587219238e-01 -9.527386724948883057e-02 -6.058197021484375000e-01
-6.066818833351135254e-01 -2.027442902326583862e-01 -2.221788316965103149e-01
-6.025464534759521484e-01 -2.012066245079040527e-01 -2.016427963972091675e-01
-6.103231906890869141e-01 -1.905856728553771973e-01 -1.988219022750854492e-01
-6.103882193565368652e-01 -1.926055550575256348e-01 -1.759888082742691040e-01
-6.218410730361938477e-01 -2.090291678905487061e-01 3.841660916805267334e-01
-6.163282394409179688e-01 -2.072341740131378174e-01 4.132277667522430420e-01
-6.414125561714172363e-01 -1.964613199234008789e-01 4.017347991466522217e-01
-6.355372071266174316e-01 -1.956009566783905029e-01 4.295253753662109375e-01
1.285147219896316528e-01 -1.981692314147949219e-01 3.605886399745941162e-01
1.130031272768974304e-01 -2.035065591335296631e-01 3.860423564910888672e-01
1.115653589367866516e-01 -1.842910796403884888e-01 3.779043853282928467e-01
9.515281766653060913e-02 -1.891359090805053711e-01 4.009657800197601318e-01
-3.165275752544403076e-01 -8.592028170824050903e-03 4.638501107692718506e-01
-3.026781976222991943e-01 -1.071756053715944290e-02 4.758683145046234131e-01
-3.261629939079284668e-01 9.144933894276618958e-03 4.635645449161529541e-01
-3.130826354026794434e-01 6.078702397644519806e-03 4.765145480632781982e-01
2.727834582328796387e-01 7.416149973869323730e-02 1.724569797515869141e-01
2.781012058258056641e-01 7.562185078859329224e-02 1.993938535451889038e-01
2.540028989315032959e-01 7.661034166812896729e-02 1.922419518232345581e-01
2.593760490417480469e-01 7.566095143556594849e-02 2.187643200159072876e-01
9.460113942623138428e-02 -1.521889120340347290e-01 -3.932512402534484863e-01
1.064258590340614319e-01 -1.483660340309143066e-01 -3.814730048179626465e-01
8.957397937774658203e-02 -1.303675323724746704e-01 -3.891891241073608398e-01
1.010935753583908081e-01 -1.272526532411575317e-01 -3.780266940593719482e-01
-1.039031520485877991e-01 -2.004502713680267334e-01 4.943903386592864990e-01
-9.951680898666381836e-02 -2.027895003557205200e-01 5.206880569458007812e-01
-1.200823262333869934e-01 -1.913295239210128784e-01 5.099777579307556152e-01
-1.134628579020500183e-01 -1.904601454734802246e-01 5.370644330978393555e-01
4.276459515094757080e-01 1.110711395740509033e-01 -1.301454156637191772e-01
4.357192516326904297e-01 1.099824309349060059e-01 -1.057349070906639099e-01
4.117184579372406006e-01 1.144576221704483032e-01 -1.076429784297943115e-01
4.203491806983947754e-01 1.142518222332000732e-01 -8.062306046485900879e-02
2.683210670948028564e-01 -1.565831452608108521e-01 3.780270814895629883e-01
2.616039216518402100e-01 -1.656031757593154907e-01 4.047964811325073242e-01
2.593133747577667236e-01 -1.355250179767608643e-01 3.954287171363830566e-01
2.505727112293243408e-01 -1.449095755815505981e-01 4.198389351367950439e-01
2.918624281883239746e-01 2.069629542529582977e-02 3.148379623889923096e-01
2.747031152248382568e-01 1.292573101818561554e-02 3.265900313854217529e-01
2.706429660320281982e-01 3.704439848661422729e-02 3.189591765403747559e-01
2.551590502262115479e-01 2.966479025781154633e-02 3.326026797294616699e-01
-3.445898294448852539e-01 1.677048765122890472e-02 -4.121833741664886475e-01
-3.588634431362152100e-01 1.449866686016321182e-02 -3.973606228828430176e-01
-3.535126745700836182e-01 3.274019435048103333e-02 -3.997903168201446533e-01
-3.676478266716003418e-01 3.153860196471214294e-02 -3.866736888885498047e-01
-6.506245732307434082e-01 -2.024535387754440308e-01 -2.816641032695770264e-01
-6.445832252502441406e-01 -2.017238587141036987e-01 -2.580184042453765869e-01
-6.617352366447448730e-01 -1.955356746912002563e-01 -2.567411661148071289e-01
-6.560159921646118164e-01 -1.951868832111358643e-01 -2.321939766407012939e-01
4.678120017051696777e-01 -7.647506147623062134e-02 3.994465768337249756e-01
4.643095433712005615e-01 -8.330661058425903320e-02 4.208602905273437500e-01
4.543785750865936279e-01 -6.429532170295715332e-02 4.109417796134948730e-01
4.474762082099914551e-01 -7.240253686904907227e-02 4.304170012474060059e-01
-5.564973354339599609e-01 -1.238899119198322296e-02 2.593934535980224609e-01
-5.461707115173339844e-01 -1.336673181504011154e-02 2.812976241111755371e-01
-5.520926117897033691e-01 1.372754015028476715e-02 2.694254815578460693e-01
-5.415487885475158691e-01 1.316754147410392761e-02 2.943030893802642822e-01
-3.785927295684814453e-01 7.935161888599395752e-02 1.012514010071754456e-01
-3.704576194286346436e-01 7.915559411048889160e-02 1.230000331997871399e-01
-3.906333148479461670e-01 8.158367872238159180e-02 1.188227906823158264e-01
-3.829587101936340332e-01 8.126206696033477783e-02 1.402497589588165283e-01
-5.603509545326232910e-01 -1.359625905752182007e-01 -2.901445627212524414e-01
-5.704484581947326660e-01 -1.388897299766540527e-01 -2.684707641601562500e-01
-5.715516209602355957e-01 -1.191522255539894104e-01 -2.618882358074188232e-01
-5.813215374946594238e-01 -1.226654127240180969e-01 -2.390373200178146362e-01
-2.557340264320373535e-01 4.033802449703216553e-02 -4.550956487655639648e-01
-2.711446583271026611e-01 3.800649940967559814e-02 -4.341776967048645020e-01
-2.717764973640441895e-01 5.454174801707267761e-02 -4.426117241382598877e-01
-2.847338914871215820e-01 5.157542973756790161e-02 -4.167700707912445068e-01
1.731946170330047607e-01 1.713141426444053650e-02 3.511707186698913574e-01
1.590376496315002441e-01 1.152649801224470139e-02 3.706644177436828613e-01
1.556876897811889648e-01 2.933691628277301788e-02 3.602501153945922852e-01
1.413451582193374634e-01 2.308575250208377838e-02 3.813480436801910400e-01
5.821815729141235352e-01 5.591063946485519409e-02 -1.049063727259635925e-01
5.901645421981811523e-01 5.379914864897727966e-02 -7.863777875900268555e-02
5.751440525054931641e-01 6.469137221574783325e-02 -8.505471050739288330e-02
5.821280479431152344e-01 6.278604269027709961e-02 -5.770475417375564575e-02
-2.904428839683532715e-01 8.504059165716171265e-02 -2.414713203907012939e-01
-2.823325097560882568e-01 8.395622670650482178e-02 -2.165754586458206177e-01
-2.999859750270843506e-01 9.052548557519912720e-02 -2.204813659191131592e-01
-2.932742536067962646e-01 9.012312442064285278e-02 -1.979714632034301758e-01
6.848475933074951172e-01 3.189404495060443878e-03 2.833419442176818848e-01
6.741808056831359863e-01 -3.881623968482017517e-03 3.105476796627044678e-01
6.712790131568908691e-01 1.968478597700595856e-02 2.992191612720489502e-01
