-2.033439999999999970e-01 1.605719999999999925e-01 1.751399999999999901e-01
7.589970000000000327e-01 -1.656269999999999964e-01 5.668689999999999563e-01
-5.284189999999999721e-01 -1.171169999999999989e-01 -2.412439999999999862e-01
2.632630000000000248e-01 -2.087450000000000139e-01 4.809100000000000041e-01
-2.545599999999999946e-02 -2.087450000000000139e-01 -6.038280000000000314e-01
8.535299999999999832e-02 -1.518879999999999952e-01 3.972240000000000215e-01
4.710030000000000050e-01 1.252600000000000102e-01 -1.629639999999999977e-01
4.897619999999999751e-01 -5.471600000000000075e-02 4.357920000000000127e-01
-6.327000000000000159e-03 -2.087450000000000139e-01 5.679880000000000484e-01
-1.986809999999999965e-01 1.252600000000000102e-01 3.385509999999999908e-01
6.950460000000000527e-01 -8.687000000000000277e-02 2.001630000000000076e-01
-5.296959999999999447e-01 1.172460000000000030e-01 -2.516169999999999796e-01
-2.662640000000000007e-01 8.072600000000000608e-02 -1.530229999999999924e-01
6.775579999999999936e-01 3.720099999999999796e-02 2.291719999999999868e-01
-3.982740000000000169e-01 -1.304760000000000086e-01 3.805609999999999826e-01
-3.934849999999999737e-01 8.072600000000000608e-02 -1.083999999999999894e-03
-1.249699999999999978e-01 7.961100000000000121e-02 -4.347619999999999818e-01
6.489749999999999686e-01 6.423700000000000243e-02 -2.577220000000000066e-01
-3.662110000000000087e-01 2.560810000000000031e-01 -3.292500000000000288e-02
-3.462900000000000006e-02 1.549069999999999891e-01 -1.446030000000000093e-01
7.693990000000000551e-01 -1.772610000000000019e-01 4.512630000000000252e-01
-6.598990000000000133e-01 -1.875890000000000057e-01 -2.568710000000000160e-01
3.824659999999999727e-01 -1.084650000000000059e-01 -5.881549999999999834e-01
2.354209999999999914e-01 8.072600000000000608e-02 -6.363999999999999865e-03
1.256720000000000059e-01 1.024699999999999916e-02 -3.657779999999999920e-01
1.660939999999999916e-01 -1.419439999999999868e-01 -5.960900000000000087e-01
4.666710000000000025e-01 -8.689000000000000543e-03 -4.344609999999999861e-01
-3.841680000000000095e-01 -1.480680000000000052e-01 3.895939999999999959e-01
1.071700000000000014e-01 -1.515859999999999985e-01 -3.789910000000000223e-01
5.033549999999999969e-01 -1.158299999999999955e-02 -6.022309999999999608e-01
6.967659999999999965e-01 -9.264899999999999525e-02 -9.866600000000000370e-02
-1.027389999999999970e-01 8.162899999999999323e-02 4.971300000000000163e-01
-6.479600000000000637e-02 1.233950000000000047e-01 -4.329330000000000123e-01
1.879589999999999872e-01 8.072600000000000608e-02 -1.030250000000000055e-01
-3.964389999999999858e-01 1.252600000000000102e-01 -3.463700000000000112e-01
1.175640000000000018e-01 1.418300000000000116e-01 1.476320000000000132e-01
-5.989900000000000224e-01 2.273599999999999927e-02 -1.037300000000000028e-02
2.752789999999999959e-01 -1.419439999999999868e-01 -4.725579999999999781e-01
3.865859999999999852e-01 -1.044350000000000001e-01 -6.073309999999999542e-01
7.535960000000000436e-01 -2.087450000000000139e-01 -5.196629999999999860e-01
4.366110000000000269e-01 1.252600000000000102e-01 -6.728499999999999759e-02
-1.209260000000000057e-01 -2.087450000000000139e-01 -5.309230000000000338e-01
-4.546600000000000086e-01 -2.087450000000000139e-01 4.697720000000000229e-01
8.133890000000000287e-01 -1.419439999999999868e-01 2.020119999999999971e-01
-3.782699999999999951e-01 -2.004100000000000048e-01 6.403459999999999708e-01
3.438200000000000145e-01 -1.660179999999999989e-01 -4.108970000000000122e-01
-5.666980000000000350e-01 -2.087450000000000139e-01 4.124160000000000048e-01
2.756190000000000029e-01 -4.661300000000000165e-02 3.364539999999999753e-01
7.614809999999999635e-01 -1.419439999999999868e-01 2.037899999999999989e-01
7.075479999999999547e-01 -2.087450000000000139e-01 -2.897900000000000129e-02
6.001260000000000483e-01 9.678799999999999903e-02 -2.159659999999999913e-01
5.676109999999999767e-01 -4.252000000000000224e-02 -2.870199999999999974e-01
3.139230000000000076e-01 -2.299299999999999955e-02 -3.315540000000000154e-01
4.133729999999999905e-01 -5.665599999999999803e-02 3.364539999999999753e-01
-3.846419999999999839e-01 5.699999999999999772e-04 4.411399999999999766e-01
7.396359999999999602e-01 -1.419439999999999868e-01 -3.774159999999999737e-01
8.548109999999999875e-01 -2.071919999999999873e-01 4.362199999999999966e-01
4.511140000000000150e-01 -8.500599999999999823e-02 4.589230000000000254e-01
-5.074459999999999527e-01 8.072600000000000608e-02 1.139690000000000009e-01
-3.947370000000000045e-01 -1.165080000000000005e-01 -4.306940000000000213e-01
-1.943870000000000042e-01 1.331749999999999878e-01 -1.728919999999999901e-01
1.110599999999999955e-02 8.072600000000000608e-02 -2.231299999999999950e-01
-4.957299999999999901e-02 2.791719999999999757e-01 -2.234200000000000075e-01
-5.818750000000000311e-01 -2.087440000000000129e-01 2.557949999999999946e-01
-4.285599999999999965e-01 1.252600000000000102e-01 -1.793679999999999997e-01
-1.296430000000000082e-01 3.145290000000000030e-01 2.028510000000000035e-01
5.775700000000000278e-02 2.323010000000000075e-01 -1.410420000000000007e-01
8.242380000000000262e-01 -1.419439999999999868e-01 4.778500000000000109e-02
1.517219999999999958e-01 -1.488220000000000098e-01 5.330139999999999878e-01
-4.102700000000000097e-02 -7.838100000000000622e-02 -4.879279999999999728e-01
-5.717969999999999997e-01 -7.242700000000000526e-02 -2.561740000000000128e-01
7.173469999999999569e-01 -2.087450000000000139e-01 -5.557670000000000110e-01
3.011719999999999953e-01 -1.005420000000000064e-01 -4.771650000000000058e-01
3.248399999999999899e-02 1.575850000000000029e-01 5.021199999999999969e-02
-5.626710000000000322e-01 1.252600000000000102e-01 -2.316199999999999856e-02
6.584470000000000045e-01 -2.087450000000000139e-01 -2.917600000000000193e-01
-6.306840000000000224e-01 -2.922500000000000098e-02 1.178089999999999971e-01
3.325130000000000030e-01 -1.350570000000000104e-01 4.385820000000000274e-01
6.869020000000000126e-01 -5.988199999999999773e-02 2.574150000000000049e-01
3.373300000000000187e-01 -1.329220000000000124e-01 2.920059999999999878e-01
5.525170000000000359e-01 1.147939999999999933e-01 2.197890000000000121e-01
5.434369999999999479e-01 -9.972200000000000508e-02 -5.769579999999999709e-01
-3.018910000000000204e-01 1.252600000000000102e-01 3.012279999999999958e-01
4.225189999999999779e-01 1.508199999999999992e-02 3.364539999999999753e-01
-9.251700000000000201e-02 1.211969999999999992e-01 -4.485020000000000118e-01
5.186290000000000067e-01 -8.561699999999999866e-02 3.485400000000000165e-01
-6.184110000000000440e-01 -1.580900000000000014e-02 1.608870000000000022e-01
-5.079700000000000326e-01 -1.419439999999999868e-01 3.953539999999999832e-01
4.884560000000000013e-01 -1.419439999999999868e-01 5.930590000000000028e-01
4.253339999999999899e-01 8.072600000000000608e-02 -2.643900000000000139e-01
1.655790000000000040e-01 1.030549999999999938e-01 -3.681459999999999733e-01
3.723139999999999783e-01 -1.402210000000000123e-01 5.034560000000000146e-01
6.436100000000000154e-01 -1.092390000000000028e-01 3.364539999999999753e-01
3.284139999999999837e-01 8.072600000000000608e-02 -2.321840000000000015e-01
-4.407280000000000086e-01 -8.451999999999999444e-03 3.484220000000000095e-01
-5.828379999999999672e-01 7.361600000000000088e-02 -2.307490000000000097e-01
-2.738860000000000183e-01 1.224179999999999990e-01 1.287850000000000106e-01
7.965849999999999875e-01 -1.419439999999999868e-01 1.986690000000000123e-01
1.659210000000000129e-01 -1.107930000000000026e-01 -3.326910000000000145e-01
-5.496700000000000197e-02 8.072600000000000608e-02 3.421919999999999962e-01
5.545599999999999835e-02 8.072600000000000608e-02 -7.275199999999999723e-02
3.070559999999999956e-01 9.519800000000000484e-02 3.219819999999999904e-01
6.052300000000000041e-02 8.072600000000000608e-02 -1.288899999999999942e-02
1.491999999999999993e-01 1.809900000000000050e-02 -4.041399999999999992e-01
2.370109999999999995e-01 -1.419439999999999868e-01 -3.931709999999999927e-01
-1.008509999999999962e-01 -2.087450000000000139e-01 -5.884840000000000071e-01
2.044690000000000119e-01 -2.087450000000000139e-01 -5.755350000000000188e-01
-3.323789999999999800e-01 -2.146400000000000044e-02 -4.126170000000000115e-01
-1.343810000000000004e-01 8.072600000000000608e-02 -3.464590000000000169e-01
2.737099999999999950e-02 8.072600000000000608e-02 3.947289999999999965e-01
7.980399999999999994e-02 8.072600000000000608e-02 2.535939999999999861e-01
-2.695270000000000166e-01 1.252600000000000102e-01 -3.252189999999999803e-01
8.147550000000000070e-01 -1.465770000000000128e-01 -4.572240000000000193e-01
-1.675020000000000120e-01 8.072600000000000608e-02 3.671630000000000171e-01
-4.482439999999999758e-01 -1.753879999999999884e-01 3.416379999999999972e-01
6.559399999999999675e-01 -2.087450000000000139e-01 -3.415529999999999955e-01
-2.686000000000000054e-01 2.845770000000000244e-01 -1.847890000000000088e-01
-3.903490000000000015e-01 -1.385230000000000072e-01 3.857499999999999818e-01
-2.256469999999999865e-01 2.711569999999999814e-01 2.121629999999999905e-01
-2.009930000000000050e-01 1.021439999999999987e-01 -1.707690000000000041e-01
-7.151570000000000427e-01 -2.087450000000000139e-01 -8.916100000000000414e-02
-2.363570000000000115e-01 -6.893599999999999728e-02 4.492499999999999827e-01
2.750310000000000255e-01 -2.087450000000000139e-01 -5.731220000000000203e-01
5.553109999999999991e-01 -2.087450000000000139e-01 4.650469999999999882e-01
-7.782000000000000028e-02 -1.020619999999999999e-01 4.988190000000000124e-01
8.329130000000000145e-01 -2.087450000000000139e-01 2.704989999999999895e-01
8.071300000000000141e-01 -1.419439999999999868e-01 6.948999999999999622e-02
-4.504580000000000251e-01 4.149400000000000310e-02 3.394880000000000120e-01
-5.975150000000000183e-01 -3.657000000000000094e-03 4.578299999999999731e-02
5.701939999999999786e-01 -2.585900000000000004e-02 -2.870199999999999974e-01
-5.995420000000000194e-01 -2.087450000000000139e-01 3.028980000000000006e-01
5.158859999999999557e-01 -5.590000000000000351e-04 2.919200000000000128e-01
7.447479999999999656e-01 -1.046210000000000057e-01 -9.915899999999999714e-02
-2.593139999999999890e-01 -1.703800000000000106e-02 4.895610000000000239e-01
1.259240000000000081e-01 -3.119900000000000104e-02 4.245499999999999829e-01
1.248709999999999959e-01 -2.087450000000000139e-01 -5.002480000000000260e-01
1.852300000000000058e-01 2.372539999999999927e-01 -2.226400000000000046e-01
6.024180000000000090e-01 -2.051530000000000020e-01 -5.453559999999999519e-01
-3.678020000000000178e-01 1.893309999999999993e-01 -4.183400000000000313e-02
4.776799999999999935e-01 -9.551999999999999727e-03 -4.441229999999999900e-01
1.622929999999999928e-01 -2.087440000000000129e-01 3.572899999999999965e-01
3.120029999999999748e-01 1.355059999999999876e-01 2.377670000000000061e-01
1.011569999999999969e-01 4.254299999999999748e-02 3.874799999999999911e-01
-7.763759999999999550e-01 -1.961160000000000125e-01 -2.450759999999999883e-01
-5.062950000000000506e-01 1.252600000000000102e-01 -2.914800000000000030e-02
-6.174429999999999641e-01 9.316599999999999882e-02 1.225849999999999995e-01
-5.647670000000000190e-01 4.932999999999999885e-02 1.773349999999999926e-01
-1.698820000000000052e-01 -4.835799999999999821e-02 5.019909999999999650e-01
4.206230000000000246e-01 -1.899109999999999965e-01 4.589230000000000254e-01
8.548109999999999875e-01 -1.574859999999999871e-01 2.312680000000000013e-01
-3.751240000000000130e-01 1.259480000000000044e-01 9.314799999999999469e-02
-7.262140000000000262e-01 -2.087450000000000139e-01 -1.586450000000000082e-01
-5.873509999999999565e-01 1.198160000000000058e-01 -1.114720000000000016e-01
-1.673550000000000038e-01 1.296960000000000057e-01 1.839530000000000054e-01
-4.345660000000000078e-01 -2.087450000000000139e-01 3.796189999999999842e-01
8.287090000000000289e-01 -1.419439999999999868e-01 1.998030000000000084e-01
7.428999999999999840e-03 8.072600000000000608e-02 -4.905999999999999944e-02
1.364529999999999910e-01 -2.547500000000000112e-02 -4.130639999999999867e-01
4.215380000000000238e-01 -1.507299999999999959e-02 -4.079130000000000256e-01
3.264199999999999741e-02 2.367319999999999980e-01 -4.390999999999999764e-02
4.712089999999999890e-01 1.252600000000000102e-01 -6.634900000000000519e-02
3.911390000000000144e-01 6.923899999999999499e-02 2.874530000000000141e-01
2.552110000000000212e-01 1.239259999999999945e-01 -2.719759999999999955e-01
5.799119999999999830e-01 -2.087450000000000139e-01 4.860530000000000128e-01
6.375979999999999981e-01 7.376800000000000024e-02 -9.351099999999999690e-02
1.190260000000000068e-01 -1.754840000000000011e-01 6.096549999999999470e-01
-3.083699999999999775e-01 2.281690000000000107e-01 7.855700000000000183e-02
-3.227470000000000061e-01 2.367529999999999912e-01 -2.600799999999999987e-02
-6.275279999999999747e-01 -2.087450000000000139e-01 -1.267010000000000081e-01
7.555600000000000094e-01 -2.087450000000000139e-01 -6.864699999999999969e-02
-5.696919999999999762e-01 1.012500000000000032e-02 -2.600640000000000174e-01
-6.177240000000000508e-01 5.238999999999999733e-03 -1.573690000000000089e-01
6.991969999999999574e-01 -1.134639999999999954e-01 2.762959999999999861e-01
2.893000000000000085e-02 1.350959999999999939e-01 -2.332299999999999929e-01
3.460199999999999942e-01 8.072600000000000608e-02 7.839000000000000135e-02
-8.244799999999999351e-02 8.072600000000000608e-02 1.300060000000000104e-01
6.281710000000000349e-01 2.389000000000000151e-02 9.996700000000000030e-02
-1.581680000000000030e-01 -9.511999999999999622e-03 -4.533039999999999847e-01
-1.993129999999999902e-01 -4.769999999999999934e-04 -4.950979999999999825e-01
2.176980000000000026e-01 1.252600000000000102e-01 7.352400000000000602e-02
7.294299999999999395e-02 -1.419420000000000126e-01 5.069339999999999957e-01
2.661490000000000244e-01 -1.923000000000000057e-02 3.364539999999999753e-01
-6.118670000000000497e-01 1.298799999999999955e-02 -1.739610000000000045e-01
-7.269910000000000538e-01 -1.901960000000000039e-01 -2.438500000000000112e-01
4.973520000000000163e-01 1.240170000000000022e-01 1.054110000000000047e-01
-6.123349999999999627e-01 -2.087450000000000139e-01 -4.364999999999999956e-03
7.392990000000000395e-01 -2.087450000000000139e-01 3.491580000000000239e-01
-7.189000000000000078e-03 5.973300000000000137e-02 4.376700000000000035e-01
-5.356680000000000330e-01 -2.054400000000000115e-01 -2.297669999999999990e-01
6.952450000000000019e-01 -2.087450000000000139e-01 3.619169999999999887e-01
4.648439999999999794e-01 8.072600000000000608e-02 2.868000000000000063e-02
4.099530000000000118e-01 8.072600000000000608e-02 -1.794590000000000074e-01
-2.829690000000000261e-01 8.072600000000000608e-02 3.671280000000000099e-01
-8.014069999999999805e-01 -1.419439999999999868e-01 1.615759999999999974e-01
-4.908000000000000140e-01 1.252600000000000102e-01 -1.777330000000000021e-01
-5.390329999999999844e-01 1.226649999999999963e-01 2.061129999999999907e-01
6.143340000000000467e-01 -7.608800000000000285e-02 3.364539999999999753e-01
6.302750000000000297e-01 -1.031839999999999979e-01 3.364539999999999753e-01
3.960989999999999789e-01 1.252600000000000102e-01 2.329519999999999924e-01
3.165099999999999858e-02 -5.359200000000000075e-02 4.718600000000000017e-01
4.379239999999999799e-01 3.812000000000000111e-02 -3.315540000000000154e-01
4.436799999999999772e-02 -1.419439999999999868e-01 5.404219999999999580e-01
7.227139999999999675e-01 -1.682990000000000042e-01 5.092649999999999677e-01
4.357039999999999802e-01 -8.044199999999999962e-02 -3.861370000000000080e-01
8.270800000000000374e-02 1.186709999999999987e-01 4.040929999999999800e-01
-3.692719999999999891e-01 5.406699999999999701e-02 -3.936660000000000159e-01
2.659650000000000070e-01 1.880199999999999927e-01 1.558340000000000003e-01
-1.804679999999999895e-01 -2.087450000000000139e-01 -6.164009999999999767e-01
-5.985719999999999930e-01 -5.496999999999999803e-02 2.634699999999999889e-02
4.596149999999999958e-01 -7.717400000000000648e-02 -3.884150000000000102e-01
7.214230000000000365e-01 -1.501510000000000067e-01 -5.789830000000000254e-01
2.431460000000000010e-01 -2.087450000000000139e-01 -4.070440000000000169e-01
-6.695130000000000248e-01 -2.002319999999999933e-01 4.327610000000000068e-01
-6.359770000000000145e-01 -1.419439999999999868e-01 -3.441290000000000182e-01
-1.155889999999999973e-01 2.083460000000000034e-01 2.307960000000000012e-01
-5.806379999999999875e-01 -1.115509999999999974e-01 1.328129999999999866e-01
8.548109999999999875e-01 -1.982130000000000003e-01 1.361320000000000030e-01
6.001910000000000300e-01 -1.739570000000000005e-01 -2.997929999999999762e-01
1.615209999999999979e-01 6.136899999999999994e-02 -3.366709999999999980e-01
-4.732910000000000172e-01 8.072600000000000608e-02 2.562159999999999993e-01
4.115340000000000109e-01 8.072600000000000608e-02 -1.553889999999999993e-01
2.920360000000000178e-01 -1.167849999999999999e-01 -4.310930000000000040e-01
-4.585600000000000093e-02 -1.232899999999999968e-02 4.483650000000000135e-01
7.438679999999999737e-01 -9.977099999999999858e-02 8.126500000000000390e-02
7.029279999999999973e-01 -1.909939999999999971e-01 2.449399999999999841e-02
-5.490000000000000088e-04 -1.067479999999999957e-01 4.823740000000000250e-01
8.548109999999999875e-01 -1.641269999999999951e-01 2.054189999999999905e-01
-6.366159999999999597e-01 -1.198170000000000068e-01 8.694200000000000539e-02
-4.513710000000000222e-01 1.252600000000000102e-01 2.109640000000000126e-01
1.234460000000000002e-01 -1.419459999999999888e-01 5.443780000000000285e-01
6.882120000000000459e-01 2.463399999999999965e-02 2.456900000000000056e-02
1.512390000000000123e-01 8.072600000000000608e-02 2.242299999999999849e-02
-5.322999999999999607e-03 -1.419439999999999868e-01 -5.790199999999999791e-01
7.147790000000000532e-01 -1.419439999999999868e-01 3.275930000000000231e-01
-4.703609999999999736e-01 -1.363169999999999937e-01 -3.769750000000000045e-01
-5.843289999999999873e-01 3.338900000000000201e-02 2.395430000000000059e-01
2.171339999999999937e-01 1.252600000000000102e-01 2.902759999999999785e-01
-3.984940000000000149e-01 -1.450849999999999917e-01 5.805919999999999970e-01
-5.775780000000000358e-01 7.759099999999999331e-02 9.297800000000000509e-02
7.941199999999999648e-02 2.853160000000000140e-01 2.281060000000000032e-01
5.599100000000000188e-01 -1.109379999999999949e-01 -5.817099999999999493e-01
2.406999999999999851e-03 8.072600000000000608e-02 -1.168460000000000054e-01
8.064080000000000137e-01 -2.087450000000000139e-01 4.451330000000000009e-01
-6.189419999999999922e-01 -2.087450000000000139e-01 -8.486999999999999753e-03
2.936079999999999801e-01 8.072600000000000608e-02 7.259300000000000475e-02
-5.747980000000000311e-01 1.247619999999999979e-01 4.834999999999999715e-02
1.448939999999999950e-01 2.029809999999999948e-01 -2.260830000000000062e-01
-1.874280000000000113e-01 -2.087450000000000139e-01 5.081080000000000041e-01
-2.815500000000000225e-01 -1.260519999999999974e-01 -4.322480000000000211e-01
-1.795249999999999901e-01 1.219810000000000061e-01 4.499699999999999811e-01
-6.153290000000000148e-01 -2.137100000000000111e-02 1.692259999999999875e-01
-5.708050000000000068e-01 1.252600000000000102e-01 -2.633800000000000030e-02
-3.241919999999999802e-01 1.252600000000000102e-01 -2.741660000000000208e-01
6.813460000000000072e-01 -1.381699999999999873e-01 -2.865840000000000054e-01
-2.392700000000000035e-02 8.072600000000000608e-02 -3.889469999999999872e-01
-2.073039999999999883e-01 -5.589199999999999724e-02 4.538159999999999972e-01
6.055599999999999872e-01 -1.023669999999999997e-01 3.364539999999999753e-01
7.447759999999999936e-01 -1.419439999999999868e-01 -3.463089999999999780e-01
-4.368509999999999893e-01 1.252600000000000102e-01 -2.438899999999999957e-01
5.287399999999999878e-01 -8.993299999999999905e-02 -5.368969999999999576e-01
5.515930000000000000e-01 -1.040530000000000066e-01 -3.310239999999999849e-01
3.729569999999999830e-01 1.252600000000000102e-01 1.580560000000000020e-01
-3.261859999999999760e-01 9.821199999999999375e-02 1.147000000000000016e-03
8.548109999999999875e-01 -1.496909999999999907e-01 -2.695790000000000131e-01
6.543419999999999792e-01 -1.419439999999999868e-01 5.400019999999999820e-01
-3.772539999999999782e-01 -1.419439999999999868e-01 6.036700000000000399e-01
3.944550000000000001e-01 -9.845099999999999685e-02 3.144959999999999978e-01
-5.458720000000000239e-01 1.252600000000000102e-01 -1.018290000000000028e-01
-8.216440000000000410e-01 -2.027829999999999910e-01 4.751099999999999768e-02
3.410460000000000158e-01 7.396099999999999897e-02 3.300330000000000208e-01
2.170999999999999874e-01 -2.087450000000000139e-01 4.943020000000000191e-01
3.604950000000000099e-01 -2.087450000000000139e-01 4.994910000000000183e-01
-3.844150000000000067e-01 -2.032690000000000052e-01 5.060959999999999903e-01
5.716900000000000315e-01 6.013899999999999801e-02 2.044860000000000011e-01
-5.691330000000000000e-01 -2.087450000000000139e-01 -2.936010000000000009e-01
5.381209999999999605e-01 -3.037899999999999975e-02 -2.870199999999999974e-01
-1.707680000000000031e-01 2.318969999999999920e-01 2.281380000000000075e-01
8.157050000000000134e-01 -2.087450000000000139e-01 -3.689819999999999767e-01
-2.662990000000000079e-01 1.607139999999999957e-01 -1.916730000000000100e-01
5.539300000000000335e-01 1.144949999999999996e-01 1.412029999999999952e-01
-2.925400000000000222e-01 -1.321269999999999945e-01 4.332739999999999925e-01
-6.179210000000000536e-01 -1.419439999999999868e-01 3.492399999999999949e-01
3.360369999999999746e-01 -6.063000000000000334e-02 -4.562120000000000064e-01
2.397029999999999994e-01 1.935350000000000126e-01 2.309140000000000081e-01
5.297199999999999687e-01 -5.894100000000000034e-02 -6.321579999999999977e-01
-5.995610000000000106e-01 -2.085420000000000051e-01 1.389999999999999905e-04
1.651080000000000048e-01 -1.963119999999999865e-01 6.478230000000000377e-01
-3.602529999999999899e-01 2.708899999999999850e-02 4.037620000000000098e-01
5.534300000000000330e-02 1.252600000000000102e-01 3.434530000000000083e-01
-4.079990000000000006e-01 -1.127979999999999955e-01 3.741450000000000053e-01
-7.098520000000000385e-01 -1.419459999999999888e-01 -2.685620000000000229e-01
-4.354709999999999970e-01 5.434100000000000041e-02 -3.477919999999999900e-01
1.718599999999999989e-02 1.050309999999999994e-01 9.068600000000000272e-02
1.304520000000000124e-01 -1.949879999999999947e-01 6.523999999999999799e-01
-9.704500000000000626e-02 1.252600000000000102e-01 2.977549999999999919e-01
4.037089999999999845e-01 1.252600000000000102e-01 9.232200000000000129e-02
4.652919999999999834e-01 -1.177580000000000016e-01 4.589230000000000254e-01
5.423050000000000370e-01 2.150900000000000034e-02 2.919200000000000128e-01
-2.431460000000000010e-01 -2.087450000000000139e-01 -5.295879999999999477e-01
-6.847539999999999738e-01 -2.087450000000000139e-01 -2.986039999999999806e-01
-1.786419999999999952e-01 8.072600000000000608e-02 -3.237439999999999762e-01
3.042070000000000052e-01 -9.244199999999999640e-02 -3.315540000000000154e-01
5.442430000000000323e-01 -2.087450000000000139e-01 5.682460000000000289e-01
-1.415109999999999979e-01 1.226030000000000036e-01 4.485430000000000250e-01
5.971699999999999925e-02 2.138319999999999943e-01 -9.987699999999999356e-02
-2.590910000000000157e-01 8.072600000000000608e-02 -2.698349999999999915e-01
-3.329759999999999942e-01 -1.419439999999999868e-01 -5.947820000000000329e-01
-7.587599999999999900e-02 2.977300000000000085e-02 -4.936519999999999797e-01
-4.748499999999999943e-02 1.252600000000000102e-01 -3.655740000000000101e-01
3.294150000000000134e-01 8.855799999999999783e-02 -3.195819999999999772e-01
6.604529999999999568e-01 -1.185300000000000069e-02 -7.038899999999999324e-02
4.266300000000000092e-01 5.255000000000000122e-03 -2.870199999999999974e-01
-1.637369999999999937e-01 1.252600000000000102e-01 4.232659999999999756e-01
5.522770000000000179e-01 6.865400000000000669e-02 -1.486190000000000011e-01
3.816800000000000193e-01 5.375300000000000217e-02 -2.870199999999999974e-01
3.784000000000000037e-03 7.920900000000000163e-02 4.167939999999999978e-01
-4.936380000000000212e-01 -1.419439999999999868e-01 -4.862349999999999728e-01
6.667520000000000113e-01 -1.839339999999999864e-01 2.919200000000000128e-01
4.953690000000000038e-01 7.952399999999999747e-02 -1.973870000000000069e-01
7.019840000000000524e-01 -1.322790000000000077e-01 4.289099999999999857e-02
2.043679999999999941e-01 -1.321819999999999939e-01 3.628000000000000114e-01
-7.017500000000000127e-02 1.206890000000000046e-01 4.519920000000000049e-01
7.385890000000000510e-01 -7.637399999999999745e-02 1.304839999999999889e-01
-7.577310000000000434e-01 -2.087450000000000139e-01 -3.108800000000000105e-02
4.315510000000000179e-01 -8.105999999999999317e-02 3.866809999999999969e-01
-4.351979999999999738e-01 -2.087450000000000139e-01 -4.566470000000000251e-01
-3.939399999999999846e-02 1.955709999999999948e-01 -2.263390000000000124e-01
-5.223780000000000090e-01 7.699100000000000388e-02 3.235439999999999983e-01
-1.374400000000000066e-01 -2.087450000000000139e-01 -6.210139999999999549e-01
7.712290000000000534e-01 -1.698270000000000057e-01 4.713600000000000012e-01
-1.965890000000000137e-01 8.072600000000000608e-02 -2.306060000000000054e-01
-4.519130000000000091e-01 -1.419439999999999868e-01 4.303679999999999728e-01
6.943510000000000515e-01 -2.087450000000000139e-01 2.494989999999999986e-01
8.000220000000000109e-01 -2.087450000000000139e-01 1.716270000000000018e-01
6.460749999999999549e-01 -1.318719999999999892e-01 -2.870199999999999974e-01
1.374509999999999899e-01 2.621700000000000072e-02 -4.122970000000000246e-01
3.125020000000000020e-01 -2.087450000000000139e-01 5.217570000000000263e-01
2.554339999999999944e-01 3.376500000000000334e-02 -3.322609999999999730e-01
1.948699999999999877e-01 -1.419439999999999868e-01 -4.511930000000000107e-01
2.025540000000000118e-01 -2.087450000000000139e-01 6.142630000000000035e-01
-2.016419999999999879e-01 3.953999999999999876e-02 -4.947960000000000136e-01
-1.588920000000000055e-01 1.252600000000000102e-01 -3.766550000000000176e-01
-2.745679999999999787e-01 2.262339999999999907e-01 -1.233869999999999967e-01
-2.300480000000000025e-01 1.252600000000000102e-01 3.737039999999999806e-01
3.646409999999999929e-01 -3.782200000000000145e-02 -5.192560000000000509e-01
-1.490819999999999923e-01 7.791599999999999915e-02 4.450290000000000079e-01
-1.360719999999999985e-01 -1.833609999999999962e-01 -6.321579999999999977e-01
-7.288419999999999899e-01 -1.419439999999999868e-01 -1.871559999999999890e-01
2.178410000000000069e-01 8.072600000000000608e-02 -2.685150000000000037e-01
-2.779960000000000209e-01 1.511409999999999976e-01 1.248530000000000056e-01
-1.871400000000000008e-01 8.072600000000000608e-02 2.180610000000000048e-01
5.352069999999999883e-01 7.304099999999999482e-02 1.942020000000000135e-01
7.837749999999999995e-01 -2.087450000000000139e-01 6.374599999999999711e-02
-5.988090000000000357e-01 -1.900030000000000052e-01 5.072750000000000314e-01
1.264800000000000091e-01 1.282619999999999871e-01 2.477610000000000090e-01
-2.310900000000000107e-02 1.252600000000000102e-01 -3.813639999999999808e-01
7.632349999999999968e-01 -2.087450000000000139e-01 -2.423369999999999969e-01
-9.164400000000000324e-02 8.072600000000000608e-02 1.808099999999999985e-01
6.552240000000000286e-01 -5.762999999999999894e-03 2.727769999999999917e-01
8.102810000000000290e-01 -2.087450000000000139e-01 3.535340000000000149e-01
1.517390000000000128e-01 2.124759999999999982e-01 -2.257520000000000082e-01
2.008439999999999948e-01 8.793999999999999734e-03 -3.058810000000000140e-01
5.190600000000000075e-02 8.072600000000000608e-02 3.434070000000000178e-01
-3.018600000000000172e-01 -2.087450000000000139e-01 -5.558870000000000200e-01
8.313399999999999956e-02 1.705619999999999914e-01 -3.542200000000000210e-02
8.466799999999999327e-02 8.072600000000000608e-02 -2.403599999999999903e-01
2.955199999999999841e-02 2.253130000000000133e-01 -5.360899999999999693e-02
-3.100149999999999850e-01 -8.533399999999999319e-02 4.744680000000000009e-01
-3.730879999999999752e-01 8.072600000000000608e-02 2.183430000000000093e-01
-4.135280000000000067e-01 -2.001979999999999871e-01 5.472599999999999687e-01
-4.911599999999999855e-01 1.252600000000000102e-01 4.079200000000000187e-02
-1.348360000000000114e-01 8.072600000000000608e-02 -3.037150000000000127e-01
6.312539999999999818e-01 -1.100420000000000009e-01 -2.870199999999999974e-01
-3.681510000000000060e-01 4.925800000000000317e-02 3.991500000000000048e-01
-1.859760000000000024e-01 -1.419439999999999868e-01 5.460970000000000546e-01
7.612599999999999922e-02 1.926100000000000034e-01 -5.981600000000000111e-02
6.524410000000000487e-01 -1.300030000000000074e-01 -3.808830000000000271e-01
-3.847880000000000189e-01 -2.087450000000000139e-01 -4.851289999999999769e-01
6.968309999999999782e-01 -9.282700000000000673e-02 3.527399999999999980e-02
7.987159999999999815e-01 -2.087450000000000139e-01 4.649599999999999844e-01
-6.435799999999999854e-02 8.072600000000000608e-02 -1.864220000000000044e-01
-3.793349999999999778e-01 -1.984710000000000085e-01 -3.877079999999999971e-01
2.778930000000000011e-01 -1.419439999999999868e-01 -4.362309999999999799e-01
-4.990269999999999984e-01 4.219699999999999840e-02 2.882939999999999947e-01
-7.281269999999999687e-01 -2.009360000000000035e-01 -2.042059999999999986e-01
1.045819999999999944e-01 -2.087450000000000139e-01 -5.191559999999999508e-01
-6.021410000000000373e-01 -2.087450000000000139e-01 -3.820270000000000055e-01
2.854100000000000040e-02 2.875110000000000166e-01 -6.182700000000000001e-02
3.361620000000000164e-01 -2.045820000000000138e-01 -6.025380000000000180e-01
2.721310000000000118e-01 -1.419439999999999868e-01 -4.595589999999999953e-01
6.949539999999999607e-01 -8.663999999999999480e-02 -1.860209999999999919e-01
3.262539999999999885e-01 8.072600000000000608e-02 3.554100000000000315e-02
-5.363269999999999982e-01 8.072600000000000608e-02 -1.494799999999999948e-02
2.360800000000000051e-02 -1.419439999999999868e-01 5.911359999999999948e-01
2.165050000000000030e-01 -1.419439999999999868e-01 6.005859999999999532e-01
5.395990000000000508e-01 8.902400000000000591e-02 -3.178679999999999839e-01
5.252280000000000282e-01 -6.474199999999999400e-02 4.675989999999999869e-01
-1.509669999999999901e-01 8.072600000000000608e-02 -3.575380000000000225e-01
4.591149999999999953e-01 5.356899999999999856e-02 3.364539999999999753e-01
1.499510000000000010e-01 -1.576510000000000133e-01 -3.472299999999999831e-01
-3.368929999999999980e-01 -8.236899999999999777e-02 4.642379999999999840e-01
-1.923700000000000132e-01 2.781779999999999808e-01 2.223440000000000139e-01
2.339950000000000085e-01 1.252600000000000102e-01 1.123159999999999992e-01
-5.881560000000000121e-01 9.087099999999999345e-02 2.107670000000000099e-01
8.548109999999999875e-01 -1.936309999999999976e-01 3.228500000000000120e-02
-3.209159999999999791e-01 2.404560000000000031e-01 -1.377410000000000023e-01
-1.187160000000000021e-01 -1.057990000000000042e-01 5.024990000000000290e-01
-7.301210000000000200e-01 -2.028220000000000023e-01 -2.094189999999999940e-01
-7.623499999999999721e-02 2.116590000000000138e-01 2.306789999999999952e-01
-3.195819999999999772e-01 7.348499999999999477e-02 4.680759999999999921e-01
5.588349999999999707e-01 6.118500000000000327e-02 3.326620000000000132e-01
-4.546239999999999726e-01 -1.035200000000000009e-02 3.947149999999999825e-01
5.139439999999999564e-01 1.226759999999999934e-01 -2.525569999999999760e-01
2.761250000000000093e-01 -2.087450000000000139e-01 -4.131409999999999805e-01
2.145579999999999987e-01 8.072600000000000608e-02 3.002600000000000061e-02
-2.266549999999999954e-01 1.819240000000000024e-01 -1.598169999999999868e-01
5.518800000000000372e-01 -1.419439999999999868e-01 5.731619999999999493e-01
2.863530000000000242e-01 -1.916279999999999928e-01 6.318110000000000115e-01
-2.544599999999999987e-02 -1.419439999999999868e-01 5.045209999999999972e-01
-2.139909999999999868e-01 1.177979999999999999e-01 4.602919999999999789e-01
-3.748349999999999738e-01 8.072600000000000608e-02 -3.428660000000000041e-01
5.625010000000000288e-01 1.119949999999999973e-01 -1.832719999999999905e-01
2.995689999999999742e-01 1.400839999999999863e-01 -1.424630000000000063e-01
4.756429999999999825e-01 -1.866299999999999903e-02 2.919200000000000128e-01
3.378570000000000184e-01 -1.648499999999999965e-02 -3.315540000000000154e-01
8.062489999999999934e-01 -1.419439999999999868e-01 -2.488470000000000126e-01
-2.812870000000000092e-01 7.165199999999999347e-02 4.313159999999999772e-01
7.029269999999999685e-01 -1.732090000000000019e-01 5.940000000000000184e-04
-1.738369999999999915e-01 -1.896589999999999943e-01 -6.321579999999999977e-01
-6.522240000000000260e-01 -2.087450000000000139e-01 -4.692500000000000143e-02
2.188400000000000067e-01 -1.419439999999999868e-01 -6.072779999999999845e-01
-3.542850000000000166e-01 -2.036679999999999879e-01 -5.844880000000000075e-01
-5.934859999999999580e-01 -2.087440000000000129e-01 2.642729999999999801e-01
1.052850000000000036e-01 -1.164440000000000058e-01 3.849250000000000171e-01
-3.146950000000000025e-01 1.013109999999999983e-01 -5.939699999999999841e-02
-9.457400000000000528e-02 8.072600000000000608e-02 -3.835899999999999865e-01
-8.500599999999999823e-02 8.384000000000000827e-03 -4.948400000000000021e-01
-6.078980000000000494e-01 -2.087450000000000139e-01 8.474399999999999988e-02
4.762199999999999767e-01 -8.873999999999999944e-03 -3.775060000000000082e-01
-3.096599999999999908e-01 1.249030000000000001e-01 -7.280499999999999472e-02
5.056310000000000526e-01 -8.222799999999999554e-02 -3.776909999999999989e-01
4.927200000000000329e-02 1.252600000000000102e-01 2.945260000000000100e-01
-1.897179999999999978e-01 1.606210000000000138e-01 1.791739999999999999e-01
5.767400000000000304e-02 5.841299999999999965e-02 4.117770000000000041e-01
1.912030000000000118e-01 -1.847469999999999946e-01 3.172409999999999952e-01
-3.183590000000000031e-01 1.245659999999999962e-01 5.375300000000000217e-02
8.519200000000000383e-02 1.800609999999999988e-01 1.303299999999999945e-02
1.269919999999999938e-01 -2.087420000000000109e-01 6.224579999999999558e-01
-2.367259999999999920e-01 -1.419439999999999868e-01 5.638680000000000359e-01
-4.318899999999999961e-01 -1.293900000000000050e-01 4.114849999999999897e-01
4.754999999999999782e-01 -2.087450000000000139e-01 5.975249999999999728e-01
2.954789999999999917e-01 1.252600000000000102e-01 -1.211180000000000034e-01
-7.004050000000000553e-01 -1.419439999999999868e-01 -3.436500000000000110e-01
-6.273969999999999825e-01 -2.087450000000000139e-01 -3.297829999999999928e-01
-2.343379999999999908e-01 8.372799999999999687e-02 1.606950000000000045e-01
-5.628840000000000510e-01 -2.087450000000000139e-01 -3.032650000000000068e-01
7.272920000000000496e-01 -2.087450000000000139e-01 -2.622100000000000125e-02
1.349970000000000059e-01 -1.419439999999999868e-01 4.785920000000000174e-01
1.784920000000000118e-01 -2.087450000000000139e-01 -6.079980000000000384e-01
-6.005639999999999867e-01 9.730400000000000160e-02 1.677349999999999952e-01
1.158700000000000008e-02 -1.419439999999999868e-01 -5.899560000000000359e-01
1.759999999999999954e-04 1.252600000000000102e-01 3.779839999999999867e-01
-3.534689999999999777e-01 -2.087450000000000139e-01 -5.956399999999999473e-01
3.687190000000000190e-01 8.072600000000000608e-02 2.594090000000000007e-01
6.267319999999999558e-01 -1.419439999999999868e-01 4.597629999999999773e-01
-3.002340000000000009e-01 -6.994200000000000417e-02 4.304310000000000080e-01
-4.691449999999999787e-01 -1.419439999999999868e-01 4.213959999999999928e-01
4.917839999999999989e-01 7.980900000000000494e-02 -3.496300000000000102e-02
1.090000000000000067e-04 8.072600000000000608e-02 1.268910000000000038e-01
5.891309999999999603e-01 -1.419439999999999868e-01 5.093490000000000517e-01
9.153699999999999337e-02 8.072600000000000608e-02 -6.491700000000000248e-02
1.130250000000000005e-01 7.757200000000000206e-02 4.281349999999999878e-01
-6.572609999999999841e-01 -1.419439999999999868e-01 3.859659999999999758e-01
-6.224999999999999631e-03 8.072600000000000608e-02 -2.177810000000000024e-01
4.378340000000000010e-01 -2.410199999999999843e-02 -2.870199999999999974e-01
-1.565459999999999907e-01 1.252600000000000102e-01 -4.114220000000000099e-01
6.326260000000000217e-01 2.028100000000000042e-02 5.635699999999999737e-02
-7.820040000000000324e-01 -1.772749999999999881e-01 2.350220000000000087e-01
-1.998070000000000124e-01 -1.689299999999999968e-01 -6.321579999999999977e-01
-6.155570000000000208e-01 -1.419439999999999868e-01 2.331969999999999876e-01
-2.738889999999999936e-01 1.242219999999999991e-01 4.200470000000000037e-01
-7.880859999999999532e-01 -1.419439999999999868e-01 -4.187699999999999756e-02
5.436630000000000074e-01 1.065220000000000056e-01 -2.984879999999999756e-01
-1.333429999999999893e-01 -8.966399999999999371e-02 -4.535440000000000027e-01
2.706400000000000125e-02 2.246380000000000043e-01 -2.253269999999999995e-01
-3.078929999999999723e-01 1.456919999999999882e-01 -7.430599999999999705e-02
-3.553129999999999900e-01 1.252600000000000102e-01 -1.153030000000000027e-01
3.939429999999999876e-01 -9.907299999999999440e-02 4.481370000000000076e-01
-3.160470000000000224e-01 -2.038989999999999969e-01 -6.321579999999999977e-01
-5.416790000000000216e-01 -2.087450000000000139e-01 3.249690000000000079e-01
-6.432590000000000252e-01 -1.849200000000000149e-02 -2.252300000000000135e-02
-4.118379999999999819e-01 -1.013300000000000034e-01 -4.198950000000000182e-01
-3.241930000000000089e-01 2.389900000000000080e-01 2.292800000000000046e-02
7.079870000000000330e-01 -1.419439999999999868e-01 5.690319999999999823e-01
3.193150000000000155e-01 5.326899999999999691e-02 3.364539999999999753e-01
2.578520000000000256e-01 8.072600000000000608e-02 6.986699999999999855e-02
-3.268249999999999766e-01 1.873730000000000118e-01 1.894000000000000067e-03
-8.024599999999999789e-02 -2.087450000000000139e-01 -5.597889999999999810e-01
-2.710210000000000119e-01 -2.087450000000000139e-01 -6.076449999999999907e-01
2.465579999999999994e-01 -1.419439999999999868e-01 4.918969999999999732e-01
-8.704999999999999197e-03 2.639000000000000234e-01 -1.210790000000000061e-01
-3.250600000000000156e-01 -1.419439999999999868e-01 6.479510000000000547e-01
7.018269999999999786e-01 -1.996279999999999999e-01 2.732530000000000237e-01
1.924029999999999907e-01 -1.940830000000000055e-01 5.719290000000000207e-01
-3.119970000000000243e-01 2.018490000000000006e-01 1.550149999999999861e-01
-9.028600000000000514e-02 -2.087450000000000139e-01 6.760990000000000055e-01
-2.823459999999999859e-01 -1.218869999999999953e-01 -4.319100000000000161e-01
2.854559999999999875e-01 8.072600000000000608e-02 3.004499999999999879e-02
-6.469049999999999523e-01 -1.419439999999999868e-01 3.410320000000000018e-01
9.202499999999999569e-02 -1.419439999999999868e-01 -4.708789999999999920e-01
2.820259999999999989e-01 5.542300000000000004e-02 -3.315540000000000154e-01
4.455800000000000038e-02 1.851369999999999960e-01 2.316050000000000053e-01
3.803839999999999999e-01 -6.101999999999999785e-03 -3.315540000000000154e-01
4.714760000000000062e-01 1.136049999999999977e-01 -3.000630000000000241e-01
-5.243029999999999635e-01 -1.913320000000000021e-01 5.645329999999999515e-01
-1.271239999999999870e-01 -1.775960000000000039e-01 6.821089999999999653e-01
6.085200000000000331e-02 -1.073390000000000039e-01 -4.549139999999999850e-01
-4.257059999999999733e-01 -1.936930000000000041e-01 6.207949999999999857e-01
7.340729999999999755e-01 -8.506500000000000172e-02 2.970019999999999882e-01
4.905630000000000268e-01 1.245109999999999967e-01 -2.080390000000000017e-01
7.896039999999999726e-01 -2.087450000000000139e-01 4.189869999999999983e-01
5.022950000000000470e-01 -1.124600000000000079e-02 -6.055099999999999927e-01
-4.988040000000000251e-01 1.252600000000000102e-01 1.105010000000000020e-01
4.452570000000000139e-01 -9.104500000000000093e-02 4.589230000000000254e-01
7.055080000000000240e-01 1.479999999999999925e-04 2.286350000000000049e-01
-3.178730000000000167e-01 -1.434179999999999899e-01 -6.321579999999999977e-01
1.694150000000000100e-01 -7.200600000000000056e-02 -3.887430000000000052e-01
7.029279999999999973e-01 -2.075359999999999983e-01 5.990199999999999692e-02
-7.815250000000000252e-01 -1.419439999999999868e-01 -9.215900000000000480e-02
4.041270000000000140e-01 6.474699999999999900e-02 2.893140000000000156e-01
2.253239999999999965e-01 -1.419439999999999868e-01 4.237460000000000115e-01
3.761450000000000071e-01 3.251400000000000123e-02 2.919200000000000128e-01
8.233340000000000103e-01 -1.419439999999999868e-01 -2.189750000000000030e-01
-6.640949999999999909e-01 -2.087450000000000139e-01 -2.820210000000000217e-01
-4.503909999999999858e-01 8.072600000000000608e-02 1.489640000000000131e-01
-1.071619999999999934e-01 -4.157799999999999691e-02 -4.968299999999999939e-01
-4.670300000000000146e-02 7.569700000000000040e-02 4.896499999999999742e-01
3.601499999999999840e-02 -1.474310000000000065e-01 -6.321579999999999977e-01
1.433329999999999882e-01 2.663799999999999848e-02 -3.526020000000000265e-01
4.358159999999999812e-01 -8.043000000000000149e-02 -5.448180000000000245e-01
-6.897060000000000413e-01 -2.087450000000000139e-01 3.108839999999999937e-01
-6.026979999999999560e-01 2.105699999999999933e-02 -1.959710000000000063e-01
-5.217479999999999896e-01 -2.087450000000000139e-01 3.153329999999999744e-01
3.202639999999999931e-01 -2.087450000000000139e-01 4.468429999999999902e-01
-3.259040000000000270e-01 2.979680000000000106e-01 1.328239999999999976e-01
4.958800000000000013e-02 -9.043800000000000450e-02 -4.596750000000000003e-01
-1.736379999999999868e-01 -1.419439999999999868e-01 6.056409999999999849e-01
-2.623489999999999989e-01 1.252600000000000102e-01 -4.012370000000000103e-01
1.639470000000000094e-01 -1.479560000000000042e-01 5.353179999999999605e-01
-2.657439999999999802e-01 -1.469920000000000115e-01 6.712329999999999686e-01
-1.711030000000000051e-01 1.827950000000000130e-01 1.836109999999999964e-01
1.818619999999999959e-01 -1.636819999999999942e-01 -5.878579999999999917e-01
7.969699999999999562e-01 -1.419439999999999868e-01 4.332659999999999845e-01
-2.203569999999999973e-01 1.252600000000000102e-01 2.493019999999999958e-01
2.915989999999999971e-01 1.811629999999999907e-01 1.699519999999999920e-01
-1.828879999999999950e-01 1.265400000000000032e-02 -4.968759999999999843e-01
-6.818589999999999929e-01 -1.854320000000000135e-01 -1.800549999999999928e-01
-1.038540000000000019e-01 5.357499999999999762e-02 -4.520029999999999881e-01
1.289490000000000081e-01 -2.087450000000000139e-01 5.384170000000000345e-01
3.824420000000000042e-01 5.903200000000000114e-02 2.916830000000000256e-01
1.385669999999999957e-01 8.072600000000000608e-02 1.331559999999999966e-01
5.732599999999999918e-01 -3.766699999999999909e-02 -4.111159999999999815e-01
-2.894760000000000111e-01 -2.087450000000000139e-01 -5.615339999999999776e-01
-1.886569999999999914e-01 -1.786470000000000002e-01 -4.516839999999999744e-01
-5.018600000000000144e-02 -2.087450000000000139e-01 -5.107779999999999543e-01
7.925100000000000200e-02 -2.087450000000000139e-01 4.586049999999999849e-01
3.523100000000000120e-01 -1.445849999999999913e-01 -4.903379999999999961e-01
-1.905789999999999984e-01 1.363240000000000007e-01 1.789189999999999947e-01
-7.326460000000000194e-01 -1.419439999999999868e-01 3.401060000000000194e-01
8.115879999999999761e-01 -2.087450000000000139e-01 -2.415450000000000097e-01
7.301600000000000312e-01 -2.087450000000000139e-01 -8.941599999999999548e-02
-3.508919999999999817e-01 8.072600000000000608e-02 2.879320000000000213e-01
1.168919999999999959e-01 -9.743400000000000671e-02 4.303640000000000243e-01
-1.249030000000000001e-01 6.605099999999999860e-02 -4.964069999999999871e-01
-2.406949999999999923e-01 9.899399999999999866e-02 4.782080000000000219e-01
1.924490000000000089e-01 1.252600000000000102e-01 9.153000000000000025e-02
-2.225459999999999938e-01 1.252600000000000102e-01 3.625349999999999961e-01
1.241960000000000008e-01 -2.087450000000000139e-01 -4.496510000000000229e-01
7.039600000000000302e-01 -2.087440000000000129e-01 -4.337300000000000044e-01
4.031930000000000236e-01 -9.511699999999999322e-02 -4.043399999999999772e-01
5.664930000000000243e-01 -1.185709999999999958e-01 3.301080000000000125e-01
7.284019999999999939e-01 -4.506799999999999695e-02 9.431599999999999706e-02
2.404469999999999941e-01 4.676999999999999734e-03 3.401509999999999811e-01
3.545070000000000165e-01 -1.404199999999999893e-01 -5.480920000000000236e-01
5.625000000000000000e-01 -1.153959999999999986e-01 3.924079999999999790e-01
5.199820000000000553e-01 1.166279999999999956e-01 -2.909849999999999937e-01
-5.626839999999999620e-01 -1.888859999999999983e-01 -1.770780000000000132e-01
-1.078400000000000053e-01 2.094189999999999940e-01 1.822799999999999976e-01
-6.131969999999999921e-01 -1.419439999999999868e-01 3.353760000000000074e-01
-5.636400000000000299e-01 -1.345900000000000048e-02 -2.696959999999999913e-01
-1.532669999999999866e-01 -1.419439999999999868e-01 -5.680180000000000229e-01
-3.050579999999999958e-01 -2.104400000000000021e-02 4.761980000000000102e-01
1.258940000000000059e-01 1.473200000000000065e-01 1.497310000000000030e-01
7.543090000000000073e-01 -2.087450000000000139e-01 -2.607479999999999798e-01
2.270590000000000108e-01 -1.237840000000000051e-01 -2.933899999999999841e-01
-5.791299999999999920e-02 2.543739999999999890e-01 -1.588670000000000082e-01
-8.907400000000000040e-02 7.858400000000000107e-02 4.404919999999999947e-01
-5.976080000000000281e-01 -1.226160000000000028e-01 -4.103199999999999903e-02
8.131070000000000242e-01 -2.087450000000000139e-01 -5.445900000000000046e-02
-3.364539999999999753e-01 8.072600000000000608e-02 -2.816060000000000230e-01
5.469899999999999762e-02 8.072600000000000608e-02 3.263460000000000250e-01
3.508330000000000060e-01 -1.497070000000000067e-01 4.230039999999999911e-01
-7.879000000000000586e-03 1.276279999999999915e-01 1.258749999999999869e-01
-4.944470000000000254e-01 8.072600000000000608e-02 1.511929999999999941e-01
3.359170000000000211e-01 -2.053989999999999982e-01 -5.373480000000000478e-01
5.313309999999999977e-01 -2.452000000000000186e-03 3.364539999999999753e-01
-8.024799999999999989e-02 7.711600000000000399e-02 -4.377579999999999805e-01
-5.947909999999999586e-01 -1.991509999999999947e-01 6.536200000000000343e-02
2.043409999999999949e-01 -7.684599999999999764e-02 3.628799999999999804e-01
-2.872460000000000013e-01 8.072600000000000608e-02 -1.942570000000000130e-01
5.818759999999999488e-01 -1.419439999999999868e-01 5.660309999999999508e-01
-3.224060000000000259e-01 2.318669999999999898e-01 -1.362140000000000017e-01
-2.493889999999999996e-01 -1.419439999999999868e-01 -6.087930000000000286e-01
-6.466769999999999463e-01 -1.419439999999999868e-01 -2.546849999999999947e-01
-1.250060000000000060e-01 -3.070000000000000159e-02 -4.531259999999999732e-01
-1.016599999999999969e-02 2.538369999999999793e-01 1.285050000000000081e-01
1.739999999999999880e-01 1.252600000000000102e-01 1.961800000000000002e-02
9.893899999999999917e-02 1.290040000000000076e-01 2.459210000000000007e-01
-1.198349999999999971e-01 1.252600000000000102e-01 -3.749759999999999760e-01
5.386260000000000492e-01 1.180179999999999979e-01 2.520530000000000270e-01
6.640610000000000124e-01 -2.087450000000000139e-01 4.571009999999999796e-01
6.892530000000000046e-01 -1.783849999999999880e-01 2.900019999999999820e-01
-5.551669999999999661e-01 -5.405800000000000188e-02 1.983840000000000048e-01
3.918409999999999949e-01 -2.580000000000000002e-02 -4.633979999999999766e-01
-3.240140000000000242e-01 8.072600000000000608e-02 1.215490000000000043e-01
-3.895589999999999886e-01 -1.534300000000000073e-02 -4.337610000000000077e-01
-1.504709999999999936e-01 8.072600000000000608e-02 -2.822109999999999896e-01
