1.263667047023773193e-01 -6.763380020856857300e-02 3.954107165336608887e-01
6.597395241260528564e-02 1.950446367263793945e-01 -2.511644661426544189e-01
7.072659581899642944e-02 1.903515458106994629e-01 -2.337735295295715332e-01
5.237675085663795471e-02 1.990283578634262085e-01 -2.420539110898971558e-01
5.698626115918159485e-02 1.950676292181015015e-01 -2.247516512870788574e-01
4.479567408561706543e-01 -4.190895706415176392e-02 3.290711641311645508e-01
4.301923215389251709e-01 -4.726525023579597473e-02 3.372337818145751953e-01
4.321599602699279785e-01 -2.975866198539733887e-02 3.350130617618560791e-01
4.155195951461791992e-01 -3.502111509442329407e-02 3.433519601821899414e-01
1.175198424607515335e-02 -1.251075118780136108e-01 3.832417726516723633e-01
1.941798254847526550e-04 -1.293793320655822754e-01 4.001012146472930908e-01
-8.916500955820083618e-04 -1.153307482600212097e-01 3.929413557052612305e-01
-1.333339978009462357e-02 -1.190782040357589722e-01 4.093932509422302246e-01
-3.465659022331237793e-01 1.126447692513465881e-01 6.861807778477668762e-04
-3.382647335529327393e-01 1.076142862439155579e-01 1.569042168557643890e-02
-3.533704280853271484e-01 1.133799254894256592e-01 1.403715740889310837e-02
-3.473366796970367432e-01 1.075751706957817078e-01 2.937780320644378662e-02
2.437854558229446411e-01 6.092360019683837891e-01 -1.657496839761734009e-01
2.445690780878067017e-01 6.072535514831542969e-01 -1.528327912092208862e-01
2.400160729885101318e-01 6.205164194107055664e-01 -1.569547653198242188e-01
2.398431301116943359e-01 6.192119121551513672e-01 -1.441568434238433838e-01
-7.013775408267974854e-02 1.868816018104553223e-01 -2.247896641492843628e-01
-6.368149816989898682e-02 1.847285926342010498e-01 -2.054039388895034790e-01
-7.957348227500915527e-02 1.892301440238952637e-01 -2.122347503900527954e-01
-7.425612211227416992e-02 1.861286461353302002e-01 -1.928121745586395264e-01
-2.046800404787063599e-01 1.099056974053382874e-01 -4.557747393846511841e-02
-1.979531645774841309e-01 1.053561419248580933e-01 -3.107141517102718353e-02
-2.131643295288085938e-01 1.082374900579452515e-01 -3.601576387882232666e-02
-2.065873146057128906e-01 1.042607650160789490e-01 -2.126881852746009827e-02
-2.929651737213134766e-01 -4.204139411449432373e-01 8.374802768230438232e-02
-2.903589308261871338e-01 -4.232190549373626709e-01 1.010577380657196045e-01
-3.011595904827117920e-01 -4.137263596057891846e-01 9.595768153667449951e-02
-2.983998656272888184e-01 -4.167965650558471680e-01 1.136643514037132263e-01
-4.258954524993896484e-01 6.457432508468627930e-01 -5.298536270856857300e-02
-4.349569380283355713e-01 6.420337557792663574e-01 -3.951850533485412598e-02
-4.324605464935302734e-01 6.572251915931701660e-01 -4.333238303661346436e-02
-4.416233301162719727e-01 6.538354754447937012e-01 -2.989440970122814178e-02
4.890453219413757324e-01 -4.396127760410308838e-01 1.044628769159317017e-01
4.943018853664398193e-01 -4.375654160976409912e-01 1.213735416531562805e-01
4.809581339359283447e-01 -4.278641939163208008e-01 1.144621223211288452e-01
4.873656928539276123e-01 -4.248323142528533936e-01 1.309355497360229492e-01
4.017020761966705322e-01 -3.161057457327842712e-02 2.127453982830047607e-01
4.023576378822326660e-01 -3.636417910456657410e-02 2.309428155422210693e-01
3.995975553989410400e-01 -2.254472300410270691e-02 2.244404852390289307e-01
3.999124169349670410e-01 -2.711950242519378662e-02 2.424996495246887207e-01
4.269587695598602295e-01 -4.982236325740814209e-01 1.367358267307281494e-01
4.255067408084869385e-01 -4.968303143978118896e-01 1.537426561117172241e-01
4.232968389987945557e-01 -4.793798923492431641e-01 1.485411226749420166e-01
4.179590344429016113e-01 -4.782641530036926270e-01 1.631943881511688232e-01
2.439659535884857178e-01 -2.249615937471389771e-01 -4.307013750076293945e-01
2.449139952659606934e-01 -2.290966510772705078e-01 -4.133922755718231201e-01
2.404078096151351929e-01 -2.182680964469909668e-01 -4.160909354686737061e-01
2.424940168857574463e-01 -2.221131473779678345e-01 -3.977482318878173828e-01
4.991249442100524902e-01 -6.166701316833496094e-01 9.967318177223205566e-02
4.927003979682922363e-01 -6.188350915908813477e-01 1.134854853153228760e-01
4.977068006992340088e-01 -6.037614345550537109e-01 1.100510433316230774e-01
4.896072149276733398e-01 -6.061915755271911621e-01 1.241979226469993591e-01
-3.101802170276641846e-01 -5.842972993850708008e-01 2.570628225803375244e-01
-3.105559647083282471e-01 -5.879796147346496582e-01 2.704709172248840332e-01
-3.158577680587768555e-01 -5.743200778961181641e-01 2.655756771564483643e-01
-3.141544759273529053e-01 -5.783597230911254883e-01 2.797228097915649414e-01
6.156023591756820679e-02 4.362507164478302002e-02 1.766145676374435425e-01
6.471952795982360840e-02 4.172411933541297913e-02 1.873776018619537354e-01
5.230593308806419373e-02 4.330714792013168335e-02 1.852723509073257446e-01
5.511674657464027405e-02 4.140759631991386414e-02 1.967398673295974731e-01
-2.744791209697723389e-01 1.517209559679031372e-01 -1.187798157334327698e-01
-2.724292278289794922e-01 1.464042216539382935e-01 -1.012728586792945862e-01
-2.858650088310241699e-01 1.531097739934921265e-01 -1.080186739563941956e-01
-2.837937772274017334e-01 1.468962728977203369e-01 -9.057834744453430176e-02
6.241669505834579468e-02 -4.497702047228813171e-02 4.191206693649291992e-01
6.020751968026161194e-02 -5.236574634909629822e-02 4.359013438224792480e-01
5.050837248563766479e-02 -3.847727552056312561e-02 4.303635656833648682e-01
4.688974097371101379e-02 -4.639782384037971497e-02 4.469656050205230713e-01
8.588727563619613647e-02 1.249594986438751221e-01 -5.425195395946502686e-02
9.356231987476348877e-02 1.234616860747337341e-01 -3.966795280575752258e-02
7.796671241521835327e-02 1.237366423010826111e-01 -4.184648394584655762e-02
8.605392277240753174e-02 1.222337186336517334e-01 -2.779383026063442230e-02
-2.939075827598571777e-01 1.477216035127639771e-01 -1.787390410900115967e-01
-2.870254814624786377e-01 1.460561603307723999e-01 -1.628294438123703003e-01
-2.983933985233306885e-01 1.535278260707855225e-01 -1.637742817401885986e-01
-2.916766107082366943e-01 1.523481607437133789e-01 -1.479923278093338013e-01
-4.431620985269546509e-02 3.323528170585632324e-02 1.902448087930679321e-01
-4.508084803819656372e-02 2.744201384484767914e-02 2.055400609970092773e-01
-5.528478696942329407e-02 3.296270221471786499e-02 1.991694271564483643e-01
-5.565854534506797791e-02 2.757413312792778015e-02 2.145349085330963135e-01
2.814931869506835938e-01 4.125318527221679688e-01 -1.990743875503540039e-01
2.736482918262481689e-01 4.121655821800231934e-01 -1.850470602512359619e-01
2.799431085586547852e-01 4.258456528186798096e-01 -1.891892999410629272e-01
2.728999555110931396e-01 4.273650646209716797e-01 -1.768167465925216675e-01
-2.263577580451965332e-01 2.501222677528858185e-02 1.960680782794952393e-01
-2.205197811126708984e-01 1.956382580101490021e-02 2.089871317148208618e-01
-2.261267155408859253e-01 2.401342429220676422e-02 2.153035402297973633e-01
-2.225935310125350952e-01 1.613242924213409424e-02 2.277823537588119507e-01
4.119296967983245850e-01 -1.734423935413360596e-01 2.039044946432113647e-01
4.074124693870544434e-01 -1.750774532556533813e-01 2.200912088155746460e-01
4.077391624450683594e-01 -1.616221219301223755e-01 2.167630940675735474e-01
4.035146236419677734e-01 -1.633001863956451416e-01 2.338022738695144653e-01
3.411952853202819824e-01 1.322497725486755371e-01 -1.477675586938858032e-01
3.476631343364715576e-01 1.300347745418548584e-01 -1.310434341430664062e-01
3.457037210464477539e-01 1.428581178188323975e-01 -1.353522241115570068e-01
3.516217470169067383e-01 1.409878730773925781e-01 -1.180142611265182495e-01
-2.612426578998565674e-01 -1.955751776695251465e-01 -3.455559909343719482e-01
-2.703287303447723389e-01 -1.967870146036148071e-01 -3.321236670017242432e-01
-2.681395113468170166e-01 -1.842662543058395386e-01 -3.420917987823486328e-01
-2.772255837917327881e-01 -1.854780912399291992e-01 -3.286594748497009277e-01
-3.084373474121093750e-01 -2.455627545714378357e-03 8.064252883195877075e-02
-3.129958808422088623e-01 -9.165497496724128723e-03 1.006152629852294922e-01
-3.108314573764801025e-01 4.195577464997768402e-03 9.160876274108886719e-02
-3.132008612155914307e-01 -2.248517237603664398e-03 1.115437597036361694e-01
1.571018397808074951e-01 -2.277477383613586426e-01 -4.893511533737182617e-01
1.603008806705474854e-01 -2.239854186773300171e-01 -4.731726348400115967e-01
1.467367857694625854e-01 -2.158144712448120117e-01 -4.762359857559204102e-01
1.478988677263259888e-01 -2.133640795946121216e-01 -4.578823149204254150e-01
3.902880847454071045e-01 -1.074777916073799133e-01 2.955857217311859131e-01
3.822551369667053223e-01 -1.078284829854965210e-01 3.101500570774078369e-01
3.907561898231506348e-01 -9.180455654859542847e-02 3.064569532871246338e-01
3.748137950897216797e-01 -9.242124110460281372e-02 3.162371516227722168e-01
1.026987060904502869e-01 -5.493666976690292358e-02 4.110247194766998291e-01
1.045106351375579834e-01 -6.129537522792816162e-02 4.271606802940368652e-01
8.615413308143615723e-02 -5.198591575026512146e-02 4.221866726875305176e-01
8.631056547164916992e-02 -5.760429054498672485e-02 4.387373626232147217e-01
-3.568144738674163818e-01 -4.367896914482116699e-01 -3.694719970226287842e-01
-3.597963750362396240e-01 -4.362522363662719727e-01 -3.571164011955261230e-01
-3.614692091941833496e-01 -4.240667819976806641e-01 -3.581005930900573730e-01
-3.654644191265106201e-01 -4.242199063301086426e-01 -3.464742600917816162e-01
-8.020125329494476318e-02 1.647010892629623413e-01 -1.873858571052551270e-01
-7.870431244373321533e-02 1.574489772319793701e-01 -1.714676171541213989e-01
-9.528987854719161987e-02 1.658203452825546265e-01 -1.837497800588607788e-01
-9.267950057983398438e-02 1.584372222423553467e-01 -1.675030440092086792e-01
6.286231428384780884e-02 1.496193408966064453e-01 -1.527494043111801147e-01
6.303402036428451538e-02 1.428912431001663208e-01 -1.395351737737655640e-01
5.120760202407836914e-02 1.505748778581619263e-01 -1.481522619724273682e-01
5.180249735713005066e-02 1.435867846012115479e-01 -1.347780823707580566e-01
-3.319405019283294678e-01 7.944540679454803467e-02 -1.325048059225082397e-01
-3.285230100154876709e-01 7.265510410070419312e-02 -1.200021803379058838e-01
-3.298205137252807617e-01 8.328028768301010132e-02 -1.230568438768386841e-01
-3.276595175266265869e-01 7.599983364343643188e-02 -1.101898699998855591e-01
1.553054898977279663e-01 -5.484675765037536621e-01 -6.724229454994201660e-01
1.555933207273483276e-01 -5.500858426094055176e-01 -6.558996438980102539e-01
1.490986049175262451e-01 -5.389463305473327637e-01 -6.575372219085693359e-01
1.496401876211166382e-01 -5.399714112281799316e-01 -6.404437422752380371e-01
2.884425818920135498e-01 2.085729874670505524e-02 2.319835275411605835e-01
2.912288606166839600e-01 1.533319614827632904e-02 2.489856928586959839e-01
2.726025283336639404e-01 1.484450697898864746e-02 2.509818077087402344e-01
2.755068242549896240e-01 9.410492144525051117e-03 2.669959962368011475e-01
-3.126320242881774902e-01 -5.210723876953125000e-01 3.154496848583221436e-01
-3.051436841487884521e-01 -5.200388431549072266e-01 3.300552666187286377e-01
-3.121884465217590332e-01 -5.077129006385803223e-01 3.255682289600372314e-01
-3.058916628360748291e-01 -5.061207413673400879e-01 3.404275774955749512e-01
1.481320708990097046e-01 -4.561831057071685791e-01 -5.955467820167541504e-01
1.519895941019058228e-01 -4.559488594532012939e-01 -5.802849531173706055e-01
1.417007595300674438e-01 -4.437916874885559082e-01 -5.851868987083435059e-01
1.463727205991744995e-01 -4.435148835182189941e-01 -5.695989131927490234e-01
1.861891001462936401e-01 6.626012176275253296e-02 1.132701784372329712e-01
1.860469728708267212e-01 5.841960385441780090e-02 1.263611614704132080e-01
1.710582226514816284e-01 6.383590400218963623e-02 1.232441589236259460e-01
1.727438420057296753e-01 5.632176622748374939e-02 1.363839656114578247e-01
-3.366909325122833252e-01 6.668635457754135132e-02 -1.027133390307426453e-01
-3.344174623489379883e-01 6.024748086929321289e-02 -8.974999189376831055e-02
-3.400098383426666260e-01 6.986414641141891479e-02 -9.590011835098266602e-02
-3.379176259040832520e-01 6.386241316795349121e-02 -8.245908468961715698e-02
1.317122429609298706e-01 1.645540148019790649e-01 -1.656270325183868408e-01
1.302131563425064087e-01 1.580479294061660767e-01 -1.528102755546569824e-01
1.189693808555603027e-01 1.628708541393280029e-01 -1.553316712379455566e-01
1.158343702554702759e-01 1.551887840032577515e-01 -1.427856981754302979e-01
4.829147756099700928e-01 -1.479997038841247559e-01 2.672345340251922607e-01
4.787726998329162598e-01 -1.471237838268280029e-01 2.825689613819122314e-01
4.808893501758575439e-01 -1.322717666625976562e-01 2.768737673759460449e-01
4.738736748695373535e-01 -1.326462179422378540e-01 2.929824888706207275e-01
-3.603927493095397949e-01 2.064004656858742237e-04 1.216546669602394104e-01
-3.597203195095062256e-01 -3.179361112415790558e-03 1.385173797607421875e-01
-3.695656657218933105e-01 6.793168373405933380e-03 1.318463981151580811e-01
-3.687345683574676514e-01 3.585712285712361336e-03 1.477478146553039551e-01
3.684952855110168457e-01 9.581142663955688477e-02 -9.741550683975219727e-02
3.715718388557434082e-01 9.320192039012908936e-02 -8.100100606679916382e-02
3.682933151721954346e-01 1.050118058919906616e-01 -8.666748553514480591e-02
3.713589906692504883e-01 1.024409234523773193e-01 -7.035598903894424438e-02
-2.607024610042572021e-01 -5.943405628204345703e-01 3.218903839588165283e-01
-2.603719532489776611e-01 -5.991252064704895020e-01 3.348662257194519043e-01
-2.687635421752929688e-01 -5.839658975601196289e-01 3.286782205104827881e-01
-2.639600634574890137e-01 -5.876113772392272949e-01 3.421505391597747803e-01
-1.738954931497573853e-01 1.279574334621429443e-01 -6.804667413234710693e-02
-1.688029319047927856e-01 1.245911344885826111e-01 -5.268521234393119812e-02
-1.850289106369018555e-01 1.246586740016937256e-01 -5.526687949895858765e-02
-1.796862483024597168e-01 1.207410395145416260e-01 -3.918157517910003662e-02
-1.459073722362518311e-01 4.204431176185607910e-01 -1.634007692337036133e-01
-1.555431634187698364e-01 4.147600829601287842e-01 -1.473985016345977783e-01
-1.612159311771392822e-01 4.277974069118499756e-01 -1.519728451967239380e-01
-1.695564687252044678e-01 4.219044446945190430e-01 -1.356435716152191162e-01
-3.123427927494049072e-01 8.229655623435974121e-01 -2.102373167872428894e-02
-3.161927759647369385e-01 8.189286589622497559e-01 -5.538713186979293823e-03
-3.280920684337615967e-01 8.281704187393188477e-01 -1.387786306440830231e-02
-3.302302658557891846e-01 8.237722516059875488e-01 1.731314696371555328e-03
-9.576557576656341553e-02 6.735007762908935547e-01 -1.334470659494400024e-01
-1.042522639036178589e-01 6.641651391983032227e-01 -1.092462167143821716e-01
-1.109530404210090637e-01 6.789544820785522461e-01 -1.192173808813095093e-01
-1.182750761508941650e-01 6.715379953384399414e-01 -9.702310711145401001e-02
-4.120396077632904053e-01 3.873724341392517090e-01 -1.136094406247138977e-01
-4.127780497074127197e-01 3.843406140804290771e-01 -9.794040024280548096e-02
-4.216236174106597900e-01 4.005766510963439941e-01 -1.023913174867630005e-01
-4.212041795253753662e-01 3.973132967948913574e-01 -8.629189431667327881e-02
2.520813643932342529e-01 -1.081161350011825562e-01 -4.266031086444854736e-01
2.498155981302261353e-01 -1.095943972468376160e-01 -4.087284803390502930e-01
2.482735216617584229e-01 -9.229319542646408081e-02 -4.104413092136383057e-01
2.457334995269775391e-01 -9.445348381996154785e-02 -3.929745256900787354e-01
-2.309728711843490601e-01 -6.612870693206787109e-01 2.377767562866210938e-01
-2.403942346572875977e-01 -6.634998321533203125e-01 2.516825497150421143e-01
-2.361575663089752197e-01 -6.486626863479614258e-01 2.514887452125549316e-01
-2.476814389228820801e-01 -6.512105464935302734e-01 2.655085921287536621e-01
-1.536410301923751831e-01 4.333584606647491455e-01 -1.792608201503753662e-01
-1.647668033838272095e-01 4.288344681262969971e-01 -1.658680140972137451e-01
-1.630080193281173706e-01 4.416004419326782227e-01 -1.718466728925704956e-01
-1.725761145353317261e-01 4.372462034225463867e-01 -1.578023731708526611e-01
1.453122198581695557e-01 -3.788260817527770996e-01 -5.693540573120117188e-01
1.466192901134490967e-01 -3.790811598300933838e-01 -5.549787878990173340e-01
1.412345170974731445e-01 -3.641244769096374512e-01 -5.611442327499389648e-01
1.448968648910522461e-01 -3.643665611743927002e-01 -5.456020236015319824e-01
4.613517820835113525e-01 -7.396624684333801270e-01 6.341259926557540894e-02
4.564617872238159180e-01 -7.389712333679199219e-01 7.739741355180740356e-02
4.521152675151824951e-01 -7.244616746902465820e-01 7.462902367115020752e-02
4.472249448299407959e-01 -7.234838604927062988e-01 8.871080726385116577e-02
-3.127936124801635742e-01 5.864294245839118958e-02 -6.737354397773742676e-02
-3.160506784915924072e-01 5.139688402414321899e-02 -5.041851103305816650e-02
-3.162477612495422363e-01 6.153922155499458313e-02 -5.219803377985954285e-02
-3.207381963729858398e-01 5.405949428677558899e-02 -3.478500247001647949e-02
1.534839123487472534e-01 6.166879460215568542e-02 1.095815673470497131e-01
1.547867357730865479e-01 5.472224578261375427e-02 1.230731457471847534e-01
1.434514522552490234e-01 6.144116818904876709e-02 1.188813745975494385e-01
1.462008208036422729e-01 5.533619970083236694e-02 1.316165626049041748e-01
7.052516192197799683e-02 -8.307094685733318329e-03 2.777434587478637695e-01
7.535690814256668091e-02 -1.328535377979278564e-02 2.930302619934082031e-01
6.013024598360061646e-02 -1.127201691269874573e-02 2.860819399356842041e-01
6.565322726964950562e-02 -1.620597392320632935e-02 3.022433221340179443e-01
3.816388547420501709e-02 -1.214904561638832092e-01 3.815356194972991943e-01
2.711798064410686493e-02 -1.243636310100555420e-01 3.973568081855773926e-01
2.915052138268947601e-02 -1.102044135332107544e-01 3.939926028251647949e-01
1.788068376481533051e-02 -1.132472604513168335e-01 4.096911847591400146e-01
4.861504212021827698e-02 4.142138734459877014e-02 1.852719336748123169e-01
5.124071240425109863e-02 3.954292461276054382e-02 1.967891752719879150e-01
4.003406688570976257e-02 4.179536551237106323e-02 1.924824267625808716e-01
4.244455322623252869e-02 3.962037339806556702e-02 2.055532932281494141e-01
-3.291237056255340576e-01 -1.100622769445180893e-02 9.119417518377304077e-02
-3.306968808174133301e-01 -1.611564308404922485e-02 1.103461235761642456e-01
-3.413456082344055176e-01 -3.400097135454416275e-03 9.982648491859436035e-02
-3.418724834918975830e-01 -7.680048234760761261e-03 1.188155338168144226e-01
4.809518456459045410e-01 -7.668866515159606934e-01 1.629984937608242035e-02
4.758536219596862793e-01 -7.709619402885437012e-01 3.031327761709690094e-02
4.728570580482482910e-01 -7.531178593635559082e-01 2.581448294222354889e-02
4.676981568336486816e-01 -7.561318874359130859e-01 4.065845534205436707e-02
-3.911072909832000732e-01 7.266948819160461426e-01 -1.408292632550001144e-02
-3.938593268394470215e-01 7.227395772933959961e-01 -1.250021159648895264e-05
-3.967150747776031494e-01 7.371076345443725586e-01 -1.327159348875284195e-03
-3.986843824386596680e-01 7.330211400985717773e-01 1.253004372119903564e-02
-2.975921034812927246e-01 -3.191098272800445557e-01 -2.117762714624404907e-01
-2.920346856117248535e-01 -3.225823342800140381e-01 -1.919556409120559692e-01
-3.068178296089172363e-01 -3.169836699962615967e-01 -1.889309138059616089e-01
-3.009325861930847168e-01 -3.197892606258392334e-01 -1.685425043106079102e-01
-3.512633219361305237e-02 -8.087141066789627075e-02 4.251022934913635254e-01
-4.701397195458412170e-02 -8.417870104312896729e-02 4.387869834899902344e-01
-4.161189123988151550e-02 -6.998851150274276733e-02 4.374408125877380371e-01
-4.866690933704376221e-02 -7.436612993478775024e-02 4.514924883842468262e-01
4.612335190176963806e-02 1.806373596191406250e-01 -2.047901153564453125e-01
4.990081489086151123e-02 1.771586686372756958e-01 -1.888766437768936157e-01
3.400258719921112061e-02 1.783583462238311768e-01 -1.930361092090606689e-01
3.782209753990173340e-02 1.744530498981475830e-01 -1.772063672542572021e-01
1.612401455640792847e-01 -9.852673113346099854e-02 3.339075446128845215e-01
1.478192508220672607e-01 -9.976345300674438477e-02 3.401880860328674316e-01
1.548441648483276367e-01 -8.684066683053970337e-02 3.387232124805450439e-01
1.412815898656845093e-01 -8.879444003105163574e-02 3.437782824039459229e-01
-3.160054087638854980e-01 -3.208240866661071777e-01 -2.847613394260406494e-01
-3.177303969860076904e-01 -3.247284591197967529e-01 -2.686944305896759033e-01
-3.201556205749511719e-01 -3.122697174549102783e-01 -2.714677751064300537e-01
-3.221173286437988281e-01 -3.163787126541137695e-01 -2.541237473487854004e-01
-2.377984970808029175e-01 1.739555746316909790e-01 -2.171588689088821411e-01
-2.292705625295639038e-01 1.720528006553649902e-01 -1.982145607471466064e-01
-2.467904984951019287e-01 1.768594533205032349e-01 -1.982244700193405151e-01
-2.387086898088455200e-01 1.746925264596939087e-01 -1.799541562795639038e-01
-6.315529346466064453e-02 6.769719123840332031e-01 -1.328526586294174194e-01
-7.301460206508636475e-02 6.671421527862548828e-01 -1.107495874166488647e-01
-8.336206525564193726e-02 6.839055418968200684e-01 -1.196090504527091980e-01
-9.206152707338333130e-02 6.742686629295349121e-01 -9.567676484584808350e-02
-3.270038962364196777e-01 -1.137404665350914001e-01 -2.220741659402847290e-01
-3.264888823032379150e-01 -1.095218509435653687e-01 -2.093539535999298096e-01
-3.324941098690032959e-01 -9.977068006992340088e-02 -2.118090093135833740e-01
-3.295052945613861084e-01 -9.463174641132354736e-02 -1.984687745571136475e-01
2.599998414516448975e-01 3.462643325328826904e-01 -2.788993716239929199e-01
2.661490142345428467e-01 3.496132791042327881e-01 -2.615167796611785889e-01
2.595054507255554199e-01 3.630976080894470215e-01 -2.646557986736297607e-01
2.618513107299804688e-01 3.641715347766876221e-01 -2.467389106750488281e-01
-1.399915199726819992e-04 -6.795654445886611938e-02 3.727026879787445068e-01
-4.044219851493835449e-03 -7.329266518354415894e-02 3.864562213420867920e-01
-9.692266583442687988e-03 -6.013241037726402283e-02 3.794443607330322266e-01
-9.501316584646701813e-03 -6.540281325578689575e-02 3.941731452941894531e-01
2.646583020687103271e-01 3.509357199072837830e-02 1.854242533445358276e-01
2.667635381221771240e-01 2.995044738054275513e-02 2.005050182342529297e-01
2.462806254625320435e-01 3.005714714527130127e-02 1.936365514993667603e-01
2.480781376361846924e-01 2.481983043253421783e-02 2.093477845191955566e-01
2.287652939558029175e-01 -1.070109009742736816e-01 -3.786571919918060303e-01
2.269431650638580322e-01 -1.069737449288368225e-01 -3.656911849975585938e-01
2.234263420104980469e-01 -9.543392062187194824e-02 -3.646604120731353760e-01
2.271820604801177979e-01 -9.246042370796203613e-02 -3.540993928909301758e-01
4.164940118789672852e-01 -3.408740460872650146e-01 1.668891459703445435e-01
4.056177437305450439e-01 -3.431142568588256836e-01 1.833701729774475098e-01
4.022078812122344971e-01 -3.278354704380035400e-01 1.763659715652465820e-01
3.924232125282287598e-01 -3.289438486099243164e-01 1.923867911100387573e-01
3.718153238296508789e-01 1.384795457124710083e-02 2.468775361776351929e-01
3.730429708957672119e-01 8.714946918189525604e-03 2.617945075035095215e-01
3.600027263164520264e-01 1.494589261710643768e-02 2.581306695938110352e-01
3.593409955501556396e-01 8.923999965190887451e-03 2.727185189723968506e-01
4.641776084899902344e-01 -8.389294743537902832e-01 3.290745615959167480e-02
4.588556587696075439e-01 -8.422558307647705078e-01 5.279947817325592041e-02
4.509190320968627930e-01 -8.232285976409912109e-01 4.389594495296478271e-02
4.455984234809875488e-01 -8.275992870330810547e-01 6.492669880390167236e-02
2.640002071857452393e-01 7.378705143928527832e-01 -1.587595045566558838e-01
2.549785375595092773e-01 7.336212992668151855e-01 -1.462403535842895508e-01
2.491701990365982056e-01 7.482754588127136230e-01 -1.550589203834533691e-01
2.398621290922164917e-01 7.450777888298034668e-01 -1.422349810600280762e-01
1.215069741010665894e-02 4.545034766197204590e-01 -2.221295982599258423e-01
1.775715500116348267e-04 4.478524327278137207e-01 -2.073999792337417603e-01
5.790185183286666870e-03 4.649397432804107666e-01 -2.143865376710891724e-01
-5.913624074310064316e-03 4.588480591773986816e-01 -1.998998820781707764e-01
2.134924530982971191e-01 7.464644499123096466e-03 2.330240011215209961e-01
2.163403332233428955e-01 2.332273405045270920e-03 2.503943145275115967e-01
1.925564855337142944e-01 5.708796903491020203e-03 2.436374127864837646e-01
1.967138648033142090e-01 1.137109939008951187e-04 2.611148655414581299e-01
2.984308004379272461e-01 1.247559785842895508e-01 -2.225759923458099365e-01
3.027055263519287109e-01 1.246819272637367249e-01 -2.054305374622344971e-01
3.013474643230438232e-01 1.343256235122680664e-01 -2.126388847827911377e-01
3.057440817356109619e-01 1.345337480306625366e-01 -1.951544135808944702e-01
1.467144638299942017e-01 -8.978567086160182953e-03 3.176784813404083252e-01
1.520709246397018433e-01 -1.232016272842884064e-02 3.327862322330474854e-01
1.384705454111099243e-01 -7.876837626099586487e-03 3.304023146629333496e-01
1.424710154533386230e-01 -1.344268396496772766e-02 3.442037105560302734e-01
-3.420526087284088135e-01 2.200481295585632324e-02 1.930642314255237579e-02
-3.454692065715789795e-01 1.233708113431930542e-02 3.906494379043579102e-02
-3.481861948966979980e-01 2.743696793913841248e-02 3.039637207984924316e-02
-3.515020608901977539e-01 1.719023846089839935e-02 5.056836828589439392e-02
-1.873018741607666016e-01 1.397958695888519287e-01 -1.009119376540184021e-01
-1.807266026735305786e-01 1.368014067411422729e-01 -8.245080709457397461e-02
-1.972061544656753540e-01 1.377993524074554443e-01 -8.702364563941955566e-02
-1.902263760566711426e-01 1.339721977710723877e-01 -6.856053322553634644e-02
-4.592067562043666840e-03 1.859897971153259277e-01 -2.044434547424316406e-01
-1.458387123420834541e-03 1.823509335517883301e-01 -1.870384514331817627e-01
-1.607079990208148956e-02 1.857154220342636108e-01 -1.909362971782684326e-01
-1.299956627190113068e-02 1.814304441213607788e-01 -1.733520925045013428e-01
1.529531925916671753e-01 3.647138550877571106e-02 1.658889800310134888e-01
1.585396528244018555e-01 3.227347880601882935e-02 1.802388727664947510e-01
1.414906382560729980e-01 3.364655375480651855e-02 1.785731762647628784e-01
1.468215137720108032e-01 2.953697741031646729e-02 1.922751367092132568e-01
2.451035827398300171e-01 3.252119570970535278e-02 -3.748125731945037842e-01
2.518873810768127441e-01 3.117396868765354156e-02 -3.615748286247253418e-01
2.499793767929077148e-01 4.484261944890022278e-02 -3.612320423126220703e-01
2.546726763248443604e-01 4.168355464935302734e-02 -3.471162319183349609e-01
3.212610781192779541e-01 7.225770354270935059e-01 -1.752825826406478882e-01
3.255639970302581787e-01 7.185164690017700195e-01 -1.589776575565338135e-01
3.261431157588958740e-01 7.371271848678588867e-01 -1.610649973154067993e-01
3.242258131504058838e-01 7.321808338165283203e-01 -1.456664204597473145e-01
4.094853531569242477e-03 8.046457171440124512e-02 6.315632164478302002e-02
5.838131066411733627e-03 7.639800757169723511e-02 7.578136771917343140e-02
-7.939259521663188934e-03 7.639987766742706299e-02 7.358884811401367188e-02
-5.796418990939855576e-03 7.213322073221206665e-02 8.566777408123016357e-02
4.600445553660392761e-02 -2.895423211157321930e-02 3.747653961181640625e-01
4.138452932238578796e-02 -3.774156421422958374e-02 3.887519538402557373e-01
3.409430012106895447e-02 -2.449716068804264069e-02 3.815251290798187256e-01
3.081250749528408051e-02 -3.291225805878639221e-02 3.966031670570373535e-01
-9.744763374328613281e-02 -3.925716131925582886e-02 3.692162930965423584e-01
-9.153518080711364746e-02 -4.185263440012931824e-02 3.832631111145019531e-01
-1.054429337382316589e-01 -4.409858584403991699e-02 3.812315464019775391e-01
-1.002861410379409790e-01 -4.645799100399017334e-02 3.953290581703186035e-01
1.207062229514122009e-01 -1.205214634537696838e-01 3.720349073410034180e-01
1.084953323006629944e-01 -1.213526129722595215e-01 3.806852698326110840e-01
1.104208007454872131e-01 -1.104072034358978271e-01 3.792909979820251465e-01
9.777551889419555664e-02 -1.113927364349365234e-01 3.879195749759674072e-01
-2.961205244064331055e-01 -3.161925971508026123e-01 -2.276304960250854492e-01
-2.911387681961059570e-01 -3.201023042201995850e-01 -2.085330188274383545e-01
-3.054327368736267090e-01 -3.148088753223419189e-01 -2.094540148973464966e-01
-2.997189164161682129e-01 -3.184553086757659912e-01 -1.895845681428909302e-01
-3.233078122138977051e-01 -3.504800423979759216e-02 2.511259615421295166e-01
-3.215291500091552734e-01 -3.997097164392471313e-02 2.676808834075927734e-01
-3.330578804016113281e-01 -2.809724397957324982e-02 2.621094584465026855e-01
-3.304772973060607910e-01 -3.316493704915046692e-02 2.793466746807098389e-01
-9.090610593557357788e-02 9.037353098392486572e-02 -2.433066256344318390e-03
-8.882998675107955933e-02 8.610730618238449097e-02 1.666383258998394012e-02
-9.856594353914260864e-02 9.292915463447570801e-02 1.131702400743961334e-02
-9.601119160652160645e-02 8.836270123720169067e-02 3.058432042598724365e-02
-3.387259542942047119e-01 -3.505325615406036377e-01 -1.402404010295867920e-01
-3.388187885284423828e-01 -3.534928858280181885e-01 -1.212858259677886963e-01
-3.446534872055053711e-01 -3.434343039989471436e-01 -1.259654909372329712e-01
-3.447151780128479004e-01 -3.463518917560577393e-01 -1.070986986160278320e-01
-2.388079613447189331e-01 -6.464846730232238770e-01 2.298242747783660889e-01
-2.545919716358184814e-01 -6.483634710311889648e-01 2.389929890632629395e-01
-2.464341968297958374e-01 -6.306665539741516113e-01 2.378515452146530151e-01
-2.631312608718872070e-01 -6.317606568336486816e-01 2.474871575832366943e-01
-2.383837401866912842e-01 -5.796790719032287598e-01 2.451355457305908203e-01
-2.526260018348693848e-01 -5.816991925239562988e-01 2.566057145595550537e-01
-2.454719394445419312e-01 -5.664376616477966309e-01 2.538494765758514404e-01
-2.581735849380493164e-01 -5.694072842597961426e-01 2.669292688369750977e-01
-2.090971171855926514e-01 -2.275767326354980469e-01 4.068888127803802490e-01
-2.134642452001571655e-01 -2.301533222198486328e-01 4.217296838760375977e-01
-2.120972275733947754e-01 -2.161230444908142090e-01 4.156283140182495117e-01
-2.183110564947128296e-01 -2.189748883247375488e-01 4.297506809234619141e-01
4.147041440010070801e-01 -6.264137476682662964e-02 2.353902310132980347e-01
4.102603197097778320e-01 -6.702985614538192749e-02 2.563544213771820068e-01
4.122954905033111572e-01 -5.264950171113014221e-02 2.466895729303359985e-01
4.053448736667633057e-01 -5.727240070700645447e-02 2.663742303848266602e-01
-6.642605364322662354e-02 -4.304507970809936523e-01 2.903056144714355469e-01
-7.243233174085617065e-02 -4.332140386104583740e-01 3.074351549148559570e-01
-7.556772232055664062e-02 -4.236089587211608887e-01 2.971576452255249023e-01
-8.322833478450775146e-02 -4.268754720687866211e-01 3.153344690799713135e-01
-2.581326067447662354e-01 9.254452586174011230e-02 5.482784006744623184e-03
-2.594223618507385254e-01 8.424313366413116455e-02 2.047124132513999939e-02
-2.676159441471099854e-01 9.139988571405410767e-02 1.366817206144332886e-02
-2.702151834964752197e-01 8.199510723352432251e-02 2.921810746192932129e-02
-3.817586302757263184e-01 -2.785677611827850342e-01 -3.366746604442596436e-01
-3.828636705875396729e-01 -2.791292369365692139e-01 -3.170888423919677734e-01
-3.857440054416656494e-01 -2.620457708835601807e-01 -3.253848552703857422e-01
-3.871906697750091553e-01 -2.625951766967773438e-01 -3.059580028057098389e-01
3.816120326519012451e-01 -3.433877974748611450e-02 3.371637761592864990e-01
3.723280131816864014e-01 -3.820193186402320862e-02 3.517189621925354004e-01
3.697558641433715820e-01 -2.549296244978904724e-02 3.458130061626434326e-01
3.619230985641479492e-01 -3.012992627918720245e-02 3.608597218990325928e-01
-7.785058766603469849e-02 1.931157559156417847e-01 -2.758861184120178223e-01
-7.248539477586746216e-02 1.905017048120498657e-01 -2.561666667461395264e-01
-9.105117619037628174e-02 1.954374611377716064e-01 -2.637310326099395752e-01
-8.385352045297622681e-02 1.927693188190460205e-01 -2.428627461194992065e-01
-3.162015974521636963e-01 -1.263932138681411743e-01 -2.981128096580505371e-01
-3.157218396663665771e-01 -1.247193589806556702e-01 -2.907091975212097168e-01
-3.186102807521820068e-01 -1.158363595604896545e-01 -2.929698526859283447e-01
-3.161727190017700195e-01 -1.120358332991600037e-01 -2.859787940979003906e-01
1.419985890388488770e-01 -1.165494322776794434e-01 3.710588514804840088e-01
1.307120323181152344e-01 -1.159857958555221558e-01 3.773753046989440918e-01
1.379888653755187988e-01 -1.036223471164703369e-01 3.784416913986206055e-01
1.266169697046279907e-01 -1.030196473002433777e-01 3.839355707168579102e-01
-2.877348065376281738e-01 -4.208017587661743164e-01 3.641276955604553223e-01
-2.759846448898315430e-01 -4.179677963256835938e-01 3.749548792839050293e-01
-2.911701202392578125e-01 -4.061991572380065918e-01 3.720791637897491455e-01
-2.793827652931213379e-01 -4.043098986148834229e-01 3.823827505111694336e-01
1.663790494203567505e-01 1.507190708070993423e-02 2.344368547201156616e-01
1.692481189966201782e-01 1.008386351168155670e-02 2.513023912906646729e-01
1.550821810960769653e-01 1.426389906555414200e-02 2.443554103374481201e-01
1.585997194051742554e-01 9.095689281821250916e-03 2.608794867992401123e-01
1.662571877241134644e-01 1.000670064240694046e-02 2.553570270538330078e-01
1.709030717611312866e-01 4.619305953383445740e-03 2.714316844940185547e-01
1.460208147764205933e-01 3.083430230617523193e-03 2.687047421932220459e-01
1.509552448987960815e-01 -1.154184341430664062e-03 2.827909588813781738e-01
-2.458720356225967407e-01 1.479594409465789795e-01 -1.510103940963745117e-01
-2.414601594209671021e-01 1.451802104711532593e-01 -1.358746290206909180e-01
-2.526118159294128418e-01 1.471089720726013184e-01 -1.399161815643310547e-01
-2.493182420730590820e-01 1.440788954496383667e-01 -1.237320303916931152e-01
1.367521733045578003e-01 1.477832943201065063e-01 -1.300651878118515015e-01
1.371346712112426758e-01 1.422670185565948486e-01 -1.148819699883460999e-01
1.257586628198623657e-01 1.491811275482177734e-01 -1.255940496921539307e-01
1.275283694267272949e-01 1.433635205030441284e-01 -1.111763417720794678e-01
-2.511846125125885010e-01 6.140724942088127136e-02 5.106924846768379211e-02
-2.544433474540710449e-01 5.271181464195251465e-02 6.424835324287414551e-02
-2.585658431053161621e-01 7.240142673254013062e-02 5.501292273402214050e-02
-2.619327008724212646e-01 6.327968835830688477e-02 6.802763789892196655e-02
-8.621960296295583248e-04 -4.549096226692199707e-01 2.581530213356018066e-01
-7.806194014847278595e-03 -4.581955373287200928e-01 2.725938558578491211e-01
-9.153271093964576721e-03 -4.455117583274841309e-01 2.648912072181701660e-01
-1.638719066977500916e-02 -4.487691223621368408e-01 2.788245379924774170e-01
3.569016978144645691e-02 1.608301401138305664e-01 -1.445168405771255493e-01
3.651352226734161377e-02 1.544348001480102539e-01 -1.306559443473815918e-01
2.272933349013328552e-02 1.593035310506820679e-01 -1.359986662864685059e-01
2.384162507951259613e-02 1.535865515470504761e-01 -1.225970461964607239e-01
4.950723424553871155e-02 6.773167252540588379e-01 -1.607256382703781128e-01
4.078793525695800781e-02 6.715957522392272949e-01 -1.422669440507888794e-01
3.444738313555717468e-02 6.851862668991088867e-01 -1.507137417793273926e-01
2.806971408426761627e-02 6.799447536468505859e-01 -1.297827959060668945e-01
2.206688523292541504e-01 5.322902202606201172e-01 -2.328881919384002686e-01
2.240896970033645630e-01 5.307033658027648926e-01 -2.158402502536773682e-01
2.178485840559005737e-01 5.486591458320617676e-01 -2.238597273826599121e-01
2.199501544237136841e-01 5.462917685508728027e-01 -2.065990120172500610e-01
-1.724589765071868896e-01 8.926380872726440430e-01 -1.003220528364181519e-01
-1.802984327077865601e-01 8.858680725097656250e-01 -8.333180844783782959e-02
-1.859868615865707397e-01 8.994613289833068848e-01 -9.042592346668243408e-02
-1.934190243482589722e-01 8.926519155502319336e-01 -7.261700183153152466e-02
3.296011984348297119e-01 1.144590750336647034e-01 -1.669532060623168945e-01
3.363130092620849609e-01 1.111653447151184082e-01 -1.483938843011856079e-01
3.319016098976135254e-01 1.260080486536026001e-01 -1.540959924459457397e-01
3.384102582931518555e-01 1.235113069415092468e-01 -1.368086934089660645e-01
3.209489211440086365e-02 -1.742838025093078613e-01 -4.169118106365203857e-01
2.243612147867679596e-02 -1.810928434133529663e-01 -4.000538587570190430e-01
2.184076048433780670e-02 -1.637775897979736328e-01 -4.094046652317047119e-01
1.225210446864366531e-02 -1.710804402828216553e-01 -3.938228487968444824e-01
2.943678200244903564e-01 8.798725605010986328e-01 -1.782702952623367310e-01
2.777730226516723633e-01 8.802404999732971191e-01 -1.714123636484146118e-01
2.846445143222808838e-01 8.902801275253295898e-01 -1.693022996187210083e-01
2.701599299907684326e-01 8.894932270050048828e-01 -1.617359817028045654e-01
-1.673484146595001221e-01 -6.592677533626556396e-02 4.701002538204193115e-01
-1.712021529674530029e-01 -6.925626099109649658e-02 4.858057200908660889e-01
-1.779071092605590820e-01 -5.343888327479362488e-02 4.762366116046905518e-01
-1.832715719938278198e-01 -5.891907587647438049e-02 4.906656146049499512e-01
2.230636179447174072e-01 1.185255125164985657e-01 -3.825887665152549744e-02
2.284832149744033813e-01 1.153638437390327454e-01 -2.605643495917320251e-02
2.125690430402755737e-01 1.149892061948776245e-01 -2.739501371979713440e-02
2.174832820892333984e-01 1.113783270120620728e-01 -1.505817100405693054e-02
3.046343624591827393e-01 -1.416817680001258850e-02 3.303817510604858398e-01
3.017890751361846924e-01 -2.477217093110084534e-02 3.468284606933593750e-01
2.895875871181488037e-01 -1.203644741326570511e-02 3.380016684532165527e-01
2.863680720329284668e-01 -2.214242517948150635e-02 3.551688492298126221e-01
-3.030076026916503906e-01 -6.363630890846252441e-01 2.958355844020843506e-01
-3.054780364036560059e-01 -6.460866332054138184e-01 3.026014864444732666e-01
-3.087434768676757812e-01 -6.282700300216674805e-01 3.028572797775268555e-01
-3.092731535434722900e-01 -6.367501616477966309e-01 3.113330006599426270e-01
-3.157525956630706787e-01 -3.469265401363372803e-01 -1.098940223455429077e-01
-3.126897811889648438e-01 -3.504616916179656982e-01 -8.922240138053894043e-02
-3.225707113742828369e-01 -3.389909565448760986e-01 -9.126843512058258057e-02
-3.193949460983276367e-01 -3.424814045429229736e-01 -7.183486223220825195e-02
-2.258942574262619019e-01 4.177325665950775146e-01 -1.517358124256134033e-01
-2.334682643413543701e-01 4.126265645027160645e-01 -1.323073804378509521e-01
-2.375319749116897583e-01 4.319611787796020508e-01 -1.425640434026718140e-01
-2.455815821886062622e-01 4.265688061714172363e-01 -1.228602826595306396e-01
2.155628800392150879e-01 4.589184373617172241e-02 1.405755430459976196e-01
2.173339724540710449e-01 3.973648697137832642e-02 1.547607034444808960e-01
1.936255246400833130e-01 4.292248561978340149e-02 1.503257155418395996e-01
1.961620450019836426e-01 3.719898685812950134e-02 1.651362627744674683e-01
3.045606613159179688e-01 6.727094203233718872e-02 -6.946282088756561279e-02
3.040003776550292969e-01 6.441422551870346069e-02 -5.414025485515594482e-02
2.926599383354187012e-01 7.448004186153411865e-02 -5.889184027910232544e-02
2.912950515747070312e-01 7.191852480173110962e-02 -4.356794059276580811e-02
-2.766333222389221191e-01 1.231671497225761414e-02 1.465965807437896729e-01
-2.758465409278869629e-01 3.234951291233301163e-03 1.594963222742080688e-01
-2.789010107517242432e-01 1.442140154540538788e-02 1.617860943078994751e-01
-2.799391746520996094e-01 6.990290246903896332e-03 1.734345853328704834e-01
3.121518790721893311e-01 6.798587441444396973e-01 -1.916822791099548340e-01
3.206205964088439941e-01 6.793151497840881348e-01 -1.781486421823501587e-01
3.135862052440643311e-01 6.923893690109252930e-01 -1.804096400737762451e-01
3.207870721817016602e-01 6.902571916580200195e-01 -1.659944951534271240e-01
1.634572744369506836e-01 1.094957664608955383e-01 -2.465619519352912903e-02
1.648569703102111816e-01 1.045204550027847290e-01 -1.253959629684686661e-02
1.514034271240234375e-01 1.059477701783180237e-01 -1.593094505369663239e-02
1.522783935070037842e-01 1.015249565243721008e-01 -2.843055874109268188e-03
-2.073665522038936615e-02 1.324043143540620804e-02 2.206171900033950806e-01
-1.844069175422191620e-02 8.218704722821712494e-03 2.359627932310104370e-01
-2.833222225308418274e-02 1.185277756303548813e-02 2.322473227977752686e-01
-2.583295106887817383e-02 7.598889060318470001e-03 2.473359555006027222e-01
4.317700266838073730e-01 -5.009787082672119141e-01 6.614568084478378296e-02
4.414796829223632812e-01 -4.972833395004272461e-01 8.182602375745773315e-02
4.328203499317169189e-01 -4.849134981632232666e-01 7.673503458499908447e-02
4.421846568584442139e-01 -4.823373854160308838e-01 9.422055631875991821e-02
-2.157536298036575317e-01 -2.279738336801528931e-01 4.307667016983032227e-01
-2.271485328674316406e-01 -2.295956611633300781e-01 4.425771236419677734e-01
-2.143938392400741577e-01 -2.096764743328094482e-01 4.375574588775634766e-01
-2.280503660440444946e-01 -2.110810279846191406e-01 4.484554827213287354e-01
3.476369082927703857e-01 6.308726221323013306e-02 -9.658895432949066162e-02
3.514306247234344482e-01 5.970162898302078247e-02 -7.951179146766662598e-02
3.488714694976806641e-01 7.029598951339721680e-02 -8.747921884059906006e-02
3.525939881801605225e-01 6.730237603187561035e-02 -6.999816000461578369e-02
4.501688480377197266e-01 9.736045263707637787e-03 2.720216810703277588e-01
4.531012177467346191e-01 6.369069684296846390e-03 2.881550490856170654e-01
4.417680203914642334e-01 1.063294801861047745e-02 2.858133018016815186e-01
4.450842738151550293e-01 6.778859533369541168e-03 3.016878664493560791e-01
2.767397649586200714e-02 7.773037254810333252e-02 6.914712488651275635e-02
2.934792824089527130e-02 7.296992838382720947e-02 8.143232017755508423e-02
1.361508108675479889e-02 7.329161465167999268e-02 7.980068773031234741e-02
1.526020839810371399e-02 6.820147484540939331e-02 9.222935885190963745e-02
-3.677951097488403320e-01 -7.370772957801818848e-02 -2.171926498413085938e-01
-3.584681749343872070e-01 -6.662797927856445312e-02 -2.040826380252838135e-01
-3.721445202827453613e-01 -5.974946171045303345e-02 -2.100765109062194824e-01
-3.622503876686096191e-01 -5.344689637422561646e-02 -1.967153698205947876e-01
2.101192474365234375e-01 -5.620220899581909180e-01 -6.813126206398010254e-01
2.117760926485061646e-01 -5.655228495597839355e-01 -6.639084219932556152e-01
2.095643728971481323e-01 -5.517553091049194336e-01 -6.675764322280883789e-01
2.098937332630157471e-01 -5.554813146591186523e-01 -6.511482000350952148e-01
-4.374119937419891357e-01 7.264797091484069824e-01 4.418575763702392578e-02
-4.305194616317749023e-01 7.263448834419250488e-01 5.504675954580307007e-02
-4.402925372123718262e-01 7.409794926643371582e-01 4.731019213795661926e-02
-4.336805045604705811e-01 7.416226267814636230e-01 5.996651574969291687e-02
-1.023093909025192261e-01 1.235231161117553711e-01 -5.131602287292480469e-02
-9.812022000551223755e-02 1.188949793577194214e-01 -3.532720357179641724e-02
-1.131210103631019592e-01 1.231276988983154297e-01 -3.757495433092117310e-02
-1.084487587213516235e-01 1.184977665543556213e-01 -2.286726422607898712e-02
-2.379776984453201294e-01 -1.172059550881385803e-01 4.939975440502166748e-01
-2.474086135625839233e-01 -1.230513378977775574e-01 4.972070753574371338e-01
-2.441794276237487793e-01 -1.037928164005279541e-01 4.952110350131988525e-01
-2.502712309360504150e-01 -1.149589344859123230e-01 4.973488450050354004e-01
-3.280141055583953857e-01 -3.824551403522491455e-01 -4.701228439807891846e-02
-3.260233700275421143e-01 -3.879179656505584717e-01 -2.684917300939559937e-02
-3.384495079517364502e-01 -3.783003091812133789e-01 -3.242186456918716431e-02
-3.362523019313812256e-01 -3.841478526592254639e-01 -1.215755380690097809e-02
3.265821635723114014e-01 -1.147816330194473267e-01 2.830324470996856689e-01
3.217739760875701904e-01 -1.182096675038337708e-01 2.987905442714691162e-01
3.155292272567749023e-01 -1.044872403144836426e-01 2.948899269104003906e-01
3.124056756496429443e-01 -1.072025075554847717e-01 3.105444312095642090e-01
-3.861734867095947266e-01 8.155072331428527832e-01 -2.516655065119266510e-02
-3.949794173240661621e-01 8.110586404800415039e-01 -5.866628140211105347e-03
-3.983771502971649170e-01 8.279039263725280762e-01 -1.608581840991973877e-02
-4.086720347404479980e-01 8.233268260955810547e-01 3.118228167295455933e-03
-1.497613489627838135e-01 -1.060048565268516541e-01 4.034703969955444336e-01
-1.548051983118057251e-01 -1.054438427090644836e-01 4.191483557224273682e-01
-1.570324003696441650e-01 -9.717084467411041260e-02 4.097483456134796143e-01
-1.572024673223495483e-01 -9.624549001455307007e-02 4.271033704280853271e-01
-1.553987264633178711e-01 -1.963461562991142273e-02 3.291690647602081299e-01
-1.540809124708175659e-01 -2.463474869728088379e-02 3.446127772331237793e-01
-1.627368927001953125e-01 -1.892010495066642761e-02 3.413028120994567871e-01
-1.631152182817459106e-01 -2.525062114000320435e-02 3.556118607521057129e-01
4.256381839513778687e-02 1.307832747697830200e-01 -9.500385075807571411e-02
4.557829350233078003e-02 1.251405924558639526e-01 -8.026136457920074463e-02
3.624285012483596802e-02 1.276871711015701294e-01 -8.355198055505752563e-02
4.031922668218612671e-02 1.227671131491661072e-01 -6.694492697715759277e-02
-4.215552806854248047e-01 4.811614453792572021e-01 -8.554964512586593628e-02
-4.288413822650909424e-01 4.772171378135681152e-01 -7.232505083084106445e-02
-4.279065728187561035e-01 4.918849766254425049e-01 -7.726476341485977173e-02
-4.356970191001892090e-01 4.881977736949920654e-01 -6.497451663017272949e-02
-4.899573028087615967e-01 8.537801504135131836e-01 1.347904093563556671e-02
-4.902304708957672119e-01 8.495416045188903809e-01 3.345100954174995422e-02
-5.068345665931701660e-01 8.629812002182006836e-01 2.558279782533645630e-02
-5.032024383544921875e-01 8.584438562393188477e-01 4.699887335300445557e-02
-2.348834276199340820e-01 -4.596377611160278320e-01 3.470665216445922852e-01
-2.441847920417785645e-01 -4.612832665443420410e-01 3.632976412773132324e-01
-2.380064725875854492e-01 -4.427711367607116699e-01 3.580747842788696289e-01
-2.411179244518280029e-01 -4.433040022850036621e-01 3.724391758441925049e-01
-2.218917459249496460e-01 -3.886946439743041992e-01 3.013418912887573242e-01
-2.376557141542434692e-01 -3.907375335693359375e-01 3.134348094463348389e-01
-2.334188520908355713e-01 -3.739109337329864502e-01 3.131476640701293945e-01
-2.468406260013580322e-01 -3.750964701175689697e-01 3.255516290664672852e-01
1.099822819232940674e-01 1.475046724081039429e-01 -1.505046337842941284e-01
1.068446114659309387e-01 1.400827020406723022e-01 -1.376794129610061646e-01
1.003365367650985718e-01 1.462861746549606323e-01 -1.430629044771194458e-01
9.767995029687881470e-02 1.391923576593399048e-01 -1.304581165313720703e-01
-3.333852887153625488e-01 2.008866071701049805e-01 -1.831212341785430908e-01
-3.262041807174682617e-01 2.066359370946884155e-01 -1.720139682292938232e-01
-3.361871242523193359e-01 2.161774486303329468e-01 -1.756028831005096436e-01
-3.294257521629333496e-01 2.202986031770706177e-01 -1.639245450496673584e-01
1.732210218906402588e-01 6.856082081794738770e-01 -1.580414921045303345e-01
1.719930619001388550e-01 6.859931349754333496e-01 -1.435028910636901855e-01
