1.718510000000000038e-01 7.968999999999999695e-02 2.693800000000000014e-02
-3.592819999999999903e-01 5.552920000000000078e-01 -3.522100000000000231e-02
1.339380000000000015e-01 3.113300000000000095e-02 1.607540000000000080e-01
-1.119129999999999986e-01 6.048900000000000110e-02 1.406669999999999865e-01
-2.805500000000000216e-01 -4.093720000000000137e-01 -3.190000000000000019e-04
4.916189999999999727e-01 -2.380829999999999891e-01 2.062599999999999989e-01
2.385519999999999863e-01 1.209009999999999946e-01 -2.334579999999999989e-01
-3.173969999999999847e-01 6.712089999999999446e-01 -8.045099999999999474e-02
-3.829310000000000214e-01 1.154010000000000036e-01 -6.839099999999999346e-02
-3.442660000000000164e-01 2.705629999999999979e-01 -1.594720000000000026e-01
3.183119999999999838e-01 -7.391000000000000347e-02 3.407850000000000046e-01
-3.370059999999999722e-01 3.054769999999999985e-01 -7.975699999999999457e-02
3.044600000000000084e-02 8.991899999999999893e-02 5.335399999999999865e-02
3.464799999999999824e-02 -8.641500000000000570e-02 4.115449999999999942e-01
-3.490559999999999774e-01 6.712989999999999791e-01 -5.033300000000000274e-02
1.203940000000000010e-01 -2.052000000000000005e-02 2.985720000000000041e-01
4.879939999999999833e-01 -1.396400000000000072e-02 2.899490000000000123e-01
-2.835520000000000262e-01 -7.222210000000000019e-01 2.195479999999999932e-01
-2.804420000000000246e-01 7.299500000000000433e-02 1.056010000000000004e-01
4.237859999999999960e-01 -2.663050000000000139e-01 1.592399999999999927e-01
-2.795340000000000047e-01 1.367420000000000024e-01 -5.897399999999999864e-02
4.777989999999999737e-01 -2.665330000000000199e-01 1.655079999999999885e-01
2.244309999999999916e-01 7.213070000000000315e-01 -1.678679999999999894e-01
-2.797780000000000267e-01 6.690509999999999513e-01 -5.418599999999999806e-02
-3.310799999999999854e-01 -1.025500000000000023e-02 3.041949999999999932e-01
3.809259999999999868e-01 -3.846299999999999719e-02 3.650220000000000131e-01
-3.112550000000000039e-01 -6.141240000000000032e-01 2.667579999999999951e-01
-3.012909999999999755e-01 -2.977399999999999838e-02 3.928369999999999918e-01
3.481500000000000150e-01 1.085399999999999976e-01 3.746999999999999897e-03
-1.163509999999999961e-01 4.393170000000000130e-01 -1.479989999999999917e-01
7.460500000000000465e-02 -8.789700000000000291e-02 3.581989999999999896e-01
-3.334420000000000162e-01 3.342879999999999741e-01 -7.832300000000000373e-02
3.443959999999999799e-01 -3.159040000000000181e-01 -1.771989999999999954e-01
3.498500000000000221e-02 1.539599999999999996e-02 2.047489999999999866e-01
-3.334380000000000122e-01 -1.762499999999999831e-02 -2.603369999999999851e-01
3.007389999999999786e-01 4.602200000000000041e-02 1.212799999999999989e-01
2.351070000000000104e-01 -1.289389999999999981e-01 -3.818420000000000147e-01
-2.420740000000000114e-01 1.655959999999999932e-01 -1.381620000000000070e-01
3.667779999999999929e-01 3.257399999999999879e-02 1.261600000000000048e-02
-3.500139999999999918e-01 -1.602999999999999911e-02 1.719990000000000130e-01
-2.875269999999999770e-01 1.708799999999999902e-02 7.507999999999999396e-02
3.002710000000000101e-01 -3.096679999999999988e-01 -2.701720000000000232e-01
1.991880000000000039e-01 8.092799999999999994e-02 2.523699999999999902e-02
4.038669999999999760e-01 -1.866649999999999976e-01 2.390150000000000052e-01
1.816480000000000039e-01 -1.395840000000000136e-01 -3.789170000000000038e-01
-3.026050000000000129e-01 1.317099999999999937e-01 -1.152590000000000003e-01
2.569099999999999856e-02 8.851900000000000046e-02 5.737600000000000339e-02
3.057949999999999835e-01 1.121650000000000008e-01 -1.980520000000000058e-01
-2.862489999999999757e-01 -5.175429999999999753e-01 2.601249999999999951e-01
-1.150999999999999940e-01 8.211300000000000543e-02 7.908400000000000152e-02
-1.580129999999999868e-01 3.371999999999999997e-03 2.395950000000000024e-01
-2.171669999999999989e-01 3.043900000000000078e-02 1.632840000000000125e-01
3.937390000000000057e-01 -4.160920000000000174e-01 6.136099999999999888e-02
1.979360000000000008e-01 -5.102109999999999701e-01 -6.526960000000000539e-01
2.717049999999999743e-01 3.242010000000000169e-01 -2.096280000000000088e-01
1.721779999999999977e-01 -1.237509999999999999e-01 -3.840660000000000185e-01
6.413000000000000297e-03 -2.328500000000000014e-02 3.759919999999999929e-01
-1.196549999999999975e-01 -1.531579999999999886e-01 4.000980000000000092e-01
2.781290000000000151e-01 1.053400000000000031e-01 -5.276100000000000234e-02
2.296829999999999983e-01 3.259170000000000122e-01 -2.037940000000000029e-01
2.897629999999999928e-01 4.634619999999999851e-01 -2.252879999999999883e-01
-1.595080000000000109e-01 1.201190000000000035e-01 -1.900900000000000159e-02
2.058490000000000042e-01 6.308800000000000519e-02 1.376960000000000128e-01
1.258879999999999999e-01 -4.298699999999999743e-01 2.599879999999999969e-01
2.797859999999999792e-01 6.831789999999999807e-01 -1.241300000000000042e-01
1.728510000000000046e-01 3.507999999999999834e-03 -3.681360000000000188e-01
-3.426379999999999981e-01 8.421419999999999462e-01 1.172999999999999998e-03
-2.531419999999999781e-01 -4.837040000000000228e-01 2.235280000000000045e-01
-3.006499999999999728e-01 6.533010000000000206e-01 -7.749000000000000332e-02
2.598230000000000262e-01 1.232680000000000026e-01 -1.010000000000000064e-01
1.964960000000000040e-01 -3.887140000000000040e-01 -5.921499999999999542e-01
-1.638439999999999896e-01 -1.686100000000000099e-02 2.938399999999999901e-01
1.688530000000000031e-01 -1.297290000000000110e-01 -3.924839999999999995e-01
3.915580000000000171e-01 -1.167519999999999947e-01 2.808649999999999758e-01
2.317760000000000098e-01 9.691999999999999227e-03 -3.922350000000000003e-01
-3.097550000000000026e-01 -2.927259999999999862e-01 -2.770690000000000097e-01
-3.461710000000000065e-01 4.812170000000000059e-01 -6.974800000000000444e-02
2.523770000000000180e-01 2.063900000000000109e-02 -3.246419999999999861e-01
-3.870199999999999751e-01 -5.052790000000000337e-01 -4.485109999999999930e-01
-2.722519999999999940e-01 -6.066259999999999986e-01 3.242050000000000209e-01
-2.188710000000000100e-01 7.206200000000000105e-02 4.995999999999999747e-02
5.672200000000000158e-02 4.199800000000000061e-02 1.967689999999999995e-01
-3.159259999999999846e-01 -1.385240000000000082e-01 -2.214859999999999884e-01
-2.629250000000000198e-01 8.428870000000000529e-01 -3.047199999999999909e-02
9.658100000000000018e-02 8.806310000000000526e-01 -1.469189999999999940e-01
-3.966819999999999791e-01 2.562260000000000093e-01 -1.478440000000000032e-01
-2.964729999999999865e-01 -3.102989999999999915e-01 3.995170000000000110e-01
-4.085699999999999887e-01 3.682380000000000098e-01 -7.909900000000000264e-02
4.287300000000000000e-01 6.609000000000000291e-03 1.278289999999999982e-01
4.573240000000000083e-01 -7.967490000000000405e-01 1.376899999999999999e-02
1.801389999999999936e-01 1.013310000000000044e-01 -3.048299999999999968e-02
2.813209999999999877e-01 3.564180000000000126e-01 -2.094920000000000115e-01
-3.629290000000000016e-01 4.020399999999999668e-02 1.522719999999999907e-01
-1.403339999999999865e-01 3.843699999999999894e-02 2.071929999999999883e-01
2.460440000000000127e-01 -2.294650000000000023e-01 -3.868489999999999984e-01
-3.799500000000000099e-01 6.346319999999999739e-01 1.003199999999999925e-02
-2.881259999999999932e-01 -9.265299999999999647e-01 2.327299999999999924e-01
-1.280799999999999994e-02 -4.743499999999999800e-02 3.741579999999999906e-01
2.501749999999999807e-01 4.813100000000000017e-02 -3.610099999999999976e-01
2.233620000000000050e-01 -4.391220000000000123e-01 -5.630190000000000472e-01
-3.170339999999999825e-01 -1.846300000000000024e-02 1.426399999999999890e-01
-3.393729999999999802e-01 3.224099999999999883e-02 1.513000000000000022e-03
-4.041330000000000200e-01 7.802270000000000039e-01 1.687200000000000158e-02
5.008380000000000054e-01 -6.416880000000000361e-01 8.054000000000000048e-02
-2.461190000000000044e-01 -6.284440000000000026e-01 3.110550000000000259e-01
-1.259429999999999994e-01 5.464299999999999713e-02 1.587159999999999960e-01
1.879010000000000125e-01 8.459800000000000653e-02 -3.555980000000000252e-01
-3.786990000000000078e-01 -1.879240000000000077e-01 -3.020720000000000072e-01
-3.656530000000000058e-01 -5.652089999999999614e-01 -5.112600000000000477e-01
4.856880000000000086e-01 -2.343709999999999960e-01 2.355770000000000086e-01
4.849539999999999962e-01 -8.198370000000000379e-01 6.176199999999999746e-02
3.313909999999999911e-01 8.320459999999999523e-01 -1.132859999999999978e-01
1.794419999999999904e-01 1.470960000000000045e-01 -1.544169999999999987e-01
-7.939100000000000323e-02 1.127200000000000077e-02 2.788880000000000248e-01
-2.793610000000000260e-01 -2.091619999999999868e-01 -3.297289999999999943e-01
-3.718810000000000171e-01 5.757400000000000018e-02 -5.854899999999999688e-02
2.170549999999999979e-01 -6.421499999999999431e-02 -3.386219999999999786e-01
1.312089999999999923e-01 8.736800000000000122e-02 6.149400000000000005e-02
1.304770000000000096e-01 6.860499999999999932e-02 1.200169999999999987e-01
-2.405600000000000099e-02 2.720399999999999902e-02 2.394010000000000027e-01
1.146370000000000028e-01 -2.455999999999999850e-03 3.165769999999999973e-01
2.370569999999999899e-01 -9.790000000000000091e-03 -3.952609999999999735e-01
2.517280000000000073e-01 1.562400000000000073e-02 1.989400000000000057e-01
-1.884089999999999931e-01 -1.425130000000000008e-01 4.493619999999999837e-01
1.702180000000000082e-01 5.250799999999999912e-02 1.026809999999999945e-01
-2.184039999999999870e-01 -3.114089999999999914e-01 3.725049999999999750e-01
2.207520000000000038e-01 -2.461109999999999964e-01 -5.050510000000000277e-01
-4.301449999999999996e-01 5.471279999999999477e-01 -1.186300000000000028e-02
-3.363920000000000243e-01 1.506700000000000053e-02 4.987899999999999973e-02
-2.002629999999999966e-01 -1.646600000000000147e-02 3.587819999999999898e-01
-2.867959999999999954e-01 -4.516080000000000094e-01 2.042279999999999929e-01
-1.004759999999999959e-01 4.921199999999999880e-02 1.767299999999999982e-01
-3.249540000000000206e-01 -3.434600000000000153e-02 1.857590000000000074e-01
-2.978310000000000124e-01 -3.211510000000000198e-01 -3.307849999999999957e-01
1.004189999999999944e-01 2.364999999999999915e-03 2.354590000000000016e-01
2.723849999999999882e-01 1.750319999999999931e-01 -1.582749999999999990e-01
-2.982139999999999791e-01 -3.645169999999999799e-01 -3.552890000000000215e-01
-3.417970000000000175e-01 -6.234389999999999654e-01 -4.640500000000000180e-01
-1.692190000000000083e-01 4.600620000000000265e-01 -1.740379999999999983e-01
1.562010000000000065e-01 -7.499999999999999722e-03 2.607860000000000178e-01
-1.378129999999999911e-01 1.883150000000000102e-01 -1.974190000000000111e-01
-4.517149999999999777e-01 6.537260000000000293e-01 -3.030899999999999914e-02
3.014740000000000197e-01 -3.223030000000000062e-01 -2.520419999999999883e-01
-3.836950000000000083e-01 6.791930000000000467e-01 9.355999999999999733e-03
-3.506819999999999937e-01 -3.307089999999999752e-01 -2.134719999999999951e-01
4.113339999999999774e-01 -1.307099999999999929e-01 2.279289999999999927e-01
4.259199999999999792e-02 1.742690000000000072e-01 -2.306199999999999917e-01
2.536390000000000033e-01 7.641580000000000039e-01 -1.707859999999999934e-01
-6.870400000000000118e-02 8.731210000000000360e-01 -8.550699999999999967e-02
-2.961909999999999821e-01 -6.127099999999999907e-02 4.187339999999999951e-01
-3.009870000000000045e-01 1.063849999999999935e-01 -1.701819999999999999e-01
2.291509999999999936e-01 -2.623349999999999849e-01 -4.993779999999999886e-01
1.064049999999999996e-01 -2.673599999999999935e-02 3.168659999999999810e-01
1.596909999999999996e-01 -2.420730000000000104e-01 -4.993619999999999726e-01
-3.846959999999999824e-01 8.065200000000000147e-02 -1.984700000000000006e-02
-1.563470000000000137e-01 4.681370000000000253e-01 -1.639899999999999969e-01
1.782229999999999925e-01 1.378369999999999873e-01 -6.900699999999999890e-02
3.822200000000000042e-01 -5.280000000000000405e-04 3.181229999999999891e-01
-3.423919999999999741e-01 8.037900000000000600e-02 8.228299999999999503e-02
-3.228690000000000171e-01 2.489629999999999899e-01 -1.506669999999999954e-01
3.752650000000000152e-01 5.577999999999999625e-03 1.795710000000000084e-01
1.080799999999999990e-02 5.054399999999999865e-02 1.722629999999999995e-01
-3.522270000000000123e-01 5.215980000000000061e-01 -4.935900000000000010e-02
-1.670800000000000063e-02 9.185799999999999521e-02 5.000700000000000284e-02
-3.862200000000000077e-01 -5.110029999999999850e-01 -4.576830000000000065e-01
6.374499999999999611e-02 -4.070800000000000113e-02 4.330660000000000065e-01
4.086629999999999985e-01 -4.882909999999999751e-01 1.185930000000000040e-01
4.889669999999999850e-01 -2.421870000000000134e-01 1.942709999999999992e-01
-3.364670000000000161e-01 -3.834560000000000191e-01 -5.893000000000000321e-02
-3.788480000000000181e-01 4.842400000000000176e-02 9.283399999999999985e-02
-4.314029999999999809e-01 5.511650000000000160e-01 -6.065799999999999664e-02
2.365919999999999968e-01 -1.952369999999999939e-01 -4.576640000000000152e-01
-3.650320000000000231e-01 2.761600000000000166e-02 1.369569999999999954e-01
2.995680000000000009e-01 -9.858300000000000396e-02 3.377180000000000182e-01
2.774570000000000092e-01 -2.614830000000000210e-01 -2.935929999999999929e-01
2.465940000000000076e-01 7.091999999999999693e-02 5.455100000000000227e-02
-2.391850000000000087e-01 -4.325899999999999884e-02 4.403139999999999832e-01
-2.806989999999999763e-01 -2.817529999999999757e-01 3.449679999999999969e-01
4.370049999999999768e-01 -4.000420000000000087e-01 6.318899999999999517e-02
-2.052950000000000053e-01 -9.955600000000000560e-02 4.690500000000000225e-01
-4.861100000000000143e-02 4.757549999999999835e-01 -1.920749999999999957e-01
-3.938749999999999751e-01 3.644419999999999882e-01 -6.211099999999999954e-02
2.118919999999999970e-01 -4.697699999999999793e-02 4.219649999999999790e-01
-8.791699999999999515e-02 -2.379900000000000071e-02 3.063379999999999992e-01
-1.423830000000000096e-01 3.981500000000000317e-02 1.362379999999999980e-01
5.871999999999999616e-03 -4.351929999999999965e-01 2.528770000000000184e-01
2.131359999999999921e-01 -5.420739999999999448e-01 -6.168280000000000429e-01
-2.995490000000000097e-01 -1.785299999999999943e-01 4.276809999999999778e-01
-2.662539999999999907e-01 -4.490430000000000255e-01 3.704270000000000063e-01
1.875120000000000120e-01 1.676890000000000047e-01 -2.841239999999999877e-01
-3.452950000000000186e-01 -2.857660000000000200e-01 -2.517269999999999786e-01
8.254799999999999638e-02 7.263920000000000377e-01 -1.644780000000000131e-01
-2.312069999999999959e-01 -2.027349999999999985e-01 4.507950000000000013e-01
3.287050000000000249e-01 9.309889999999999555e-01 -1.150970000000000049e-01
-3.609530000000000238e-01 6.475119999999999765e-01 -6.016099999999999920e-02
-5.445799999999999946e-02 3.791400000000000325e-02 2.097219999999999918e-01
-2.521390000000000020e-01 -7.175589999999999469e-01 2.308570000000000066e-01
3.127190000000000247e-01 1.035900000000000015e-01 -1.810690000000000077e-01
-3.006829999999999781e-01 -3.482850000000000112e-01 -7.983200000000000018e-02
-3.268289999999999806e-01 -3.699879999999999836e-01 -3.597299999999999803e-02
-3.213699999999999890e-01 -3.349539999999999740e-01 -2.295359999999999900e-01
-9.088799999999999657e-02 7.450400000000000078e-02 9.975799999999999945e-02
-9.740200000000000247e-02 -2.912700000000000011e-02 3.968550000000000133e-01
-2.615169999999999995e-01 -4.523360000000000158e-01 1.576780000000000126e-01
3.515100000000000169e-02 -3.994309999999999805e-01 2.634340000000000015e-01
-5.414999999999999675e-02 4.462550000000000128e-01 -1.625389999999999890e-01
-2.651129999999999876e-01 2.282000000000000174e-03 2.199349999999999916e-01
2.753700000000000037e-01 3.849799999999999750e-02 1.414910000000000057e-01
-8.476400000000000601e-02 -7.432800000000000518e-02 4.523769999999999736e-01
1.378149999999999931e-01 1.951950000000000074e-01 -2.590259999999999785e-01
-3.833779999999999966e-01 1.249320000000000014e-01 -4.764299999999999785e-02
-3.499059999999999948e-01 9.044999999999999221e-03 1.881529999999999869e-01
-3.242949999999999999e-01 6.561580000000000190e-01 -7.520999999999999908e-02
-1.532870000000000066e-01 -5.902600000000000208e-02 4.115920000000000134e-01
-3.179379999999999984e-01 -3.090180000000000149e-01 -2.816540000000000155e-01
3.972370000000000068e-01 6.066300000000000164e-02 9.219999999999999680e-04
3.295529999999999848e-01 6.427900000000000280e-02 1.320070000000000132e-01
-2.797000000000000042e-01 -4.430709999999999926e-01 6.807699999999999863e-02
-1.302429999999999977e-01 -4.295169999999999821e-01 2.771620000000000195e-01
-3.076459999999999750e-01 -4.652410000000000156e-01 3.162409999999999943e-01
4.306380000000000208e-01 5.570499999999999757e-02 1.287379999999999913e-01
6.446699999999999653e-02 -1.682609999999999939e-01 -3.680780000000000163e-01
-2.782660000000000133e-01 -7.627939999999999721e-01 2.849050000000000193e-01
3.107280000000000042e-01 8.183439999999999603e-01 -1.056519999999999959e-01
4.774240000000000150e-01 -3.176720000000000099e-01 2.128240000000000132e-01
-1.487890000000000046e-01 4.567490000000000161e-01 -1.447630000000000028e-01
-7.263000000000000012e-02 1.170000000000000033e-02 2.778479999999999839e-01
1.247219999999999995e-01 7.366200000000000525e-02 1.018860000000000043e-01
-1.812729999999999897e-01 -5.404099999999999876e-02 3.967669999999999808e-01
1.736850000000000060e-01 8.828399999999999581e-01 -1.205299999999999983e-01
2.388270000000000115e-01 -1.836049999999999904e-01 -4.229319999999999746e-01
4.858000000000000096e-01 -3.678989999999999760e-01 1.393399999999999916e-01
6.779300000000000603e-02 1.800099999999999964e-02 1.971489999999999909e-01
-2.668789999999999774e-01 -1.145120000000000027e-01 4.020889999999999742e-01
1.511979999999999991e-01 -2.869349999999999956e-01 -5.138220000000000010e-01
1.886579999999999924e-01 -4.437769999999999770e-01 -5.297070000000000389e-01
2.569620000000000237e-01 8.497869999999999591e-01 -1.520799999999999930e-01
1.081550000000000011e-01 8.725549999999999695e-01 -1.170869999999999966e-01
6.686599999999999488e-02 1.774370000000000114e-01 -1.675550000000000095e-01
-8.604999999999999802e-03 1.217489999999999961e-01 -2.484400000000000150e-02
6.431000000000000084e-03 -4.019099999999999895e-01 2.611020000000000008e-01
-2.194399999999999962e-01 6.980990000000000251e-01 -8.931300000000000350e-02
-2.434969999999999912e-01 -6.734199999999999908e-02 3.635590000000000210e-01
-2.952919999999999989e-01 -2.145799999999999930e-01 4.312070000000000070e-01
3.164060000000000206e-01 6.535379999999999523e-01 -1.718169999999999975e-01
3.592819999999999903e-01 -8.785800000000000554e-02 3.253199999999999981e-01
-2.024509999999999921e-01 1.050259999999999944e-01 2.133799999999999933e-02
-4.807600000000000068e-02 5.933399999999999785e-02 1.460599999999999954e-01
4.636509999999999798e-01 -1.344140000000000057e-01 2.126460000000000017e-01
-2.293640000000000123e-01 -1.889969999999999983e-01 4.544039999999999746e-01
5.000759999999999650e-01 -6.283680000000000376e-01 9.751600000000000545e-02
-3.752079999999999860e-01 1.041440000000000005e-01 -1.450450000000000073e-01
1.592349999999999877e-01 1.289069999999999938e-01 -1.048469999999999958e-01
2.452030000000000043e-01 -6.914499999999999813e-02 3.627960000000000074e-01
-2.554660000000000264e-01 -9.592199999999999338e-02 4.987519999999999731e-01
2.452860000000000040e-01 -4.264999999999999694e-03 -3.259489999999999887e-01
-3.044229999999999992e-01 -2.403740000000000043e-01 -2.759559999999999791e-01
7.329900000000000304e-02 1.026040000000000008e-01 1.892399999999999985e-02
-2.935050000000000159e-01 -9.069289999999999852e-01 2.474490000000000023e-01
4.685039999999999760e-01 -7.853100000000000358e-02 2.396300000000000097e-01
-2.952969999999999762e-01 -2.870940000000000158e-01 -3.422560000000000047e-01
1.308050000000000046e-01 6.500599999999999434e-02 6.692599999999999938e-02
-3.850930000000000186e-01 -4.234390000000000098e-01 -4.021719999999999740e-01
3.283409999999999940e-01 1.162669999999999954e-01 -1.758499999999999994e-02
4.855900000000000216e-01 -9.794899999999999440e-02 2.908919999999999839e-01
-2.280699999999999950e-01 -2.230300000000000060e-01 3.813509999999999955e-01
-2.281209999999999904e-01 5.493100000000000066e-02 9.487800000000000400e-02
-5.922600000000000087e-02 7.176219999999999821e-01 -1.479910000000000114e-01
2.234909999999999952e-01 9.759000000000000313e-03 -3.085060000000000024e-01
8.886299999999999755e-02 1.209120000000000056e-01 -2.631199999999999858e-02
2.846219999999999861e-01 -3.757460000000000244e-01 1.969049999999999967e-01
-2.459790000000000032e-01 8.695749999999999869e-01 -3.714699999999999946e-02
-1.355270000000000086e-01 8.977619999999999489e-01 -8.472599999999999576e-02
1.933179999999999898e-01 8.985579999999999679e-01 -1.274939999999999962e-01
-2.765940000000000065e-01 -6.879979999999999984e-01 2.243239999999999956e-01
-3.163630000000000053e-01 -3.494289999999999896e-01 -1.913439999999999863e-01
1.891329999999999956e-01 1.717370000000000008e-01 -2.787510000000000265e-01
-2.688180000000000014e-01 -8.979589999999999517e-01 2.526129999999999765e-01
-1.704189999999999872e-01 1.879359999999999919e-01 -1.971279999999999977e-01
2.361090000000000133e-01 -2.445579999999999976e-01 -4.206039999999999779e-01
-3.004350000000000076e-01 -3.343200000000000338e-02 -2.444369999999999876e-01
4.249629999999999797e-01 2.051499999999999851e-02 1.130030000000000062e-01
4.023220000000000129e-01 -3.599450000000000149e-01 1.608110000000000095e-01
-1.208639999999999992e-01 -1.420220000000000093e-01 4.322880000000000056e-01
1.897359999999999880e-01 7.166090000000000515e-01 -1.823839999999999906e-01
-3.060120000000000062e-01 -4.758990000000000165e-01 -4.199030000000000262e-01
4.675900000000000056e-01 -3.795830000000000037e-01 1.180849999999999955e-01
1.908769999999999911e-01 -1.757279999999999953e-01 -4.833600000000000119e-01
-2.938500000000000001e-01 -5.155079999999999663e-01 3.412990000000000190e-01
-1.162279999999999980e-01 8.981209999999999471e-01 -1.005810000000000037e-01
3.086430000000000007e-01 -3.850419999999999954e-01 1.692800000000000138e-01
-4.639130000000000198e-01 6.714229999999999920e-01 -5.900999999999999995e-03
3.211319999999999730e-01 1.024469999999999964e-01 2.233900000000000122e-02
-2.347629999999999995e-01 -1.684130000000000071e-01 -3.365400000000000058e-01
-3.783889999999999754e-01 9.368899999999999451e-02 -9.898400000000000254e-02
2.247979999999999978e-01 5.141790000000000527e-01 -2.206919999999999993e-01
-2.275449999999999973e-01 3.579800000000000343e-02 2.126929999999999932e-01
-1.694800000000000126e-02 9.724399999999999711e-02 3.555200000000000027e-02
2.205519999999999980e-01 -3.835910000000000153e-01 2.251539999999999930e-01
-3.754919999999999924e-01 1.233700000000000074e-02 8.702400000000000413e-02
-3.100109999999999810e-01 -5.026329999999999965e-01 -4.298509999999999831e-01
2.391389999999999905e-01 2.019050000000000011e-01 -3.230089999999999906e-01
2.038200000000000012e-01 1.734559999999999991e-01 -1.613499999999999934e-01
1.325079999999999869e-01 5.653999999999999998e-02 1.554020000000000123e-01
-3.639080000000000092e-01 4.551549999999999763e-01 -1.030839999999999951e-01
2.297690000000000010e-01 -2.435479999999999867e-01 -4.357190000000000230e-01
-3.765930000000000111e-01 -2.224889999999999923e-01 -2.863660000000000094e-01
5.695999999999999674e-03 9.668899999999999717e-02 3.611999999999999933e-02
-2.814969999999999972e-01 3.889100000000000196e-02 1.187359999999999943e-01
-4.173799999999999732e-02 -4.486569999999999725e-01 2.739690000000000181e-01
-2.961119999999999863e-01 -2.132360000000000089e-01 3.898220000000000018e-01
6.594800000000000662e-02 -6.306399999999999506e-02 3.689629999999999854e-01
-7.908400000000000152e-02 7.809599999999999875e-02 8.975199999999999845e-02
6.311300000000000243e-02 8.718999999999999320e-03 2.217999999999999972e-01
1.854500000000000037e-01 1.460980000000000056e-01 -2.917609999999999926e-01
-3.605650000000000244e-01 2.278890000000000082e-01 -1.756780000000000008e-01
1.244900000000000000e-02 1.443440000000000001e-01 -8.356199999999999739e-02
2.122950000000000115e-01 -5.207439999999999847e-01 -5.974460000000000326e-01
3.349389999999999867e-01 8.782769999999999744e-01 -1.562030000000000085e-01
2.094590000000000063e-01 -1.280650000000000122e-01 -3.680899999999999728e-01
-3.691940000000000222e-01 1.820559999999999956e-01 -1.134369999999999962e-01
-2.793089999999999740e-01 -6.157369999999999788e-01 3.211010000000000253e-01
-3.092940000000000134e-01 -4.425859999999999794e-01 5.919699999999999962e-02
1.957019999999999871e-01 1.646620000000000028e-01 -1.378330000000000111e-01
-3.099160000000000248e-01 6.780779999999999585e-01 -7.991600000000000092e-02
2.223799999999999943e-01 1.261720000000000064e-01 -3.956199999999999994e-02
2.156349999999999933e-01 4.749110000000000276e-01 -1.982089999999999963e-01
-3.451919999999999988e-01 1.755569999999999908e-01 -1.113100000000000062e-01
-2.829079999999999928e-01 -4.182750000000000079e-01 1.054650000000000032e-01
-2.029789999999999928e-01 -4.771299999999999847e-02 4.533730000000000260e-01
-1.801840000000000108e-01 6.426500000000000268e-02 1.303799999999999959e-01
2.513909999999999756e-01 6.217390000000000416e-01 -2.102169999999999872e-01
-3.034069999999999823e-01 -6.248299999999999688e-02 2.625370000000000203e-01
-3.573509999999999742e-01 4.533700000000000230e-02 -3.275000000000000133e-02
-2.197270000000000056e-01 -1.659650000000000014e-01 -3.214239999999999875e-01
6.182499999999999801e-02 -1.546999999999999938e-02 2.810270000000000268e-01
-2.644759999999999889e-01 5.724800000000000028e-02 1.497519999999999962e-01
2.167749999999999955e-01 -4.920499999999999874e-01 -6.205019999999999980e-01
4.735700000000000326e-02 -4.308620000000000227e-01 2.858410000000000117e-01
-8.853199999999999958e-02 -7.594299999999999662e-02 4.731540000000000190e-01
-2.661600000000000077e-01 -5.981919999999999460e-01 2.416300000000000114e-01
1.378780000000000006e-01 6.993200000000000527e-01 -1.433280000000000109e-01
-2.990949999999999998e-01 -8.894549999999999956e-01 2.467739999999999934e-01
-3.188980000000000148e-01 -3.930199999999999805e-01 -8.111500000000000654e-02
-3.794819999999999860e-01 -1.518120000000000025e-01 -2.681129999999999902e-01
3.084930000000000172e-01 7.002400000000000291e-02 1.167379999999999945e-01
-2.722180000000000155e-01 -1.935910000000000131e-01 3.762769999999999726e-01
-4.011390000000000233e-01 5.204919999999999547e-01 -8.420500000000000207e-02
4.352509999999999990e-01 -3.304599999999999899e-02 1.926700000000000079e-01
2.515189999999999926e-01 8.552099999999999980e-02 7.159500000000000586e-02
-3.038489999999999802e-01 1.322699999999999987e-01 -4.604500000000000259e-02
-1.629049999999999943e-01 -4.153599999999999653e-02 3.599359999999999782e-01
-2.961469999999999936e-01 3.456599999999999950e-02 1.997600000000000070e-02
-2.087440000000000129e-01 1.095999999999999926e-02 2.806830000000000158e-01
-1.598600000000000021e-02 1.246789999999999982e-01 -3.291399999999999881e-02
1.794240000000000002e-01 -4.298080000000000234e-01 2.308320000000000094e-01
-3.224199999999999844e-01 -4.241159999999999930e-01 3.199699999999999767e-02
-1.680550000000000099e-01 -4.523130000000000206e-01 2.929950000000000054e-01
-2.711120000000000196e-01 -9.263360000000000483e-01 2.267579999999999874e-01
4.799140000000000073e-01 -2.776800000000000102e-02 2.721669999999999923e-01
-3.290959999999999996e-01 -2.409199999999999883e-02 3.394380000000000175e-01
-3.099390000000000200e-01 -5.515449999999999520e-01 2.857790000000000052e-01
4.423860000000000015e-01 -7.059370000000000367e-01 3.964299999999999768e-02
2.285540000000000072e-01 5.686999999999999694e-02 1.551790000000000114e-01
1.437749999999999861e-01 1.028020000000000045e-01 -3.424100000000000060e-02
2.661649999999999849e-01 2.221480000000000121e-01 -2.450930000000000053e-01
-2.367970000000000075e-01 4.134499999999999981e-02 1.950850000000000084e-01
1.588340000000000030e-01 -1.822280000000000011e-01 -4.116270000000000207e-01
-3.720649999999999791e-01 -6.482699999999999574e-02 -2.109139999999999904e-01
-2.660609999999999919e-01 -8.478259999999999685e-01 2.013290000000000080e-01
3.296930000000000138e-01 7.794969999999999954e-01 -1.561150000000000038e-01
-2.645799999999999888e-02 1.490000000000000005e-02 2.680930000000000257e-01
3.884580000000000255e-01 -3.605840000000000156e-01 -4.571200000000000263e-02
-3.670999999999999819e-01 1.862159999999999926e-01 -1.110949999999999993e-01
-3.034629999999999828e-01 -7.475400000000000100e-02 -2.057039999999999980e-01
-1.267349999999999866e-01 1.776799999999999907e-02 1.992849999999999899e-01
2.577439999999999731e-01 8.198180000000000467e-01 -1.580860000000000043e-01
1.763019999999999865e-01 -1.618999999999999953e-02 -3.880299999999999860e-01
2.470489999999999908e-01 1.440579999999999916e-01 -8.290300000000000447e-02
-5.503299999999999859e-02 1.289260000000000128e-01 -1.077680000000000027e-01
-3.862909999999999955e-01 1.798089999999999966e-01 -1.759239999999999970e-01
-3.357229999999999936e-01 -3.188300000000000162e-02 2.233449999999999880e-01
4.114269999999999872e-01 7.488999999999999997e-03 2.956690000000000151e-01
2.524100000000000232e-01 -2.556410000000000071e-01 -3.062150000000000150e-01
2.364519999999999955e-01 -1.458129999999999982e-01 -4.424210000000000087e-01
-7.481300000000000450e-02 -1.819620000000000126e-01 -3.330000000000000182e-01
1.568999999999999909e-02 9.670499999999999929e-02 -1.650000000000000078e-02
4.245849999999999902e-01 -3.252149999999999763e-01 1.369390000000000052e-01
-3.029890000000000083e-01 -3.186629999999999741e-01 3.678980000000000028e-01
-2.719710000000000183e-01 -5.884909999999999863e-01 2.434679999999999900e-01
2.749899999999999914e-02 1.355300000000000116e-01 -6.215099999999999791e-02
-1.608400000000000107e-02 8.690639999999999477e-01 -1.125830000000000025e-01
4.883290000000000131e-01 -7.105999999999999817e-02 2.701160000000000228e-01
4.730299999999999783e-02 1.720460000000000045e-01 -1.532739999999999936e-01
-4.187370000000000259e-01 4.173649999999999860e-01 -7.734000000000000596e-02
-2.807319999999999816e-01 -3.998329999999999940e-01 5.036600000000000105e-02
-3.712190000000000212e-01 -6.109409999999999563e-01 -4.621979999999999977e-01
1.343320000000000070e-01 6.857440000000000202e-01 -1.506010000000000126e-01
2.041779999999999984e-01 -2.567960000000000242e-01 -4.079300000000000148e-01
7.530100000000000682e-02 4.895800000000000152e-02 1.120120000000000005e-01
-2.680790000000000117e-01 -8.502790000000000070e-01 1.997309999999999919e-01
4.877210000000000156e-01 -2.585299999999999820e-01 1.836230000000000084e-01
4.887989999999999835e-01 -5.701140000000000096e-01 1.277540000000000064e-01
3.356970000000000232e-01 1.417099999999999957e-02 2.738369999999999971e-01
-2.580419999999999936e-01 -2.863120000000000109e-01 3.392180000000000195e-01
-3.886999999999999830e-03 1.318249999999999977e-01 -5.243099999999999844e-02
9.404600000000000459e-02 -4.000889999999999724e-01 2.650219999999999798e-01
-2.630330000000000168e-01 -9.194299999999999695e-01 2.476690000000000003e-01
-4.264999999999999694e-03 6.163099999999999828e-02 7.487900000000000111e-02
3.906800000000000272e-01 -1.459300000000000007e-02 1.389809999999999934e-01
4.566129999999999911e-01 -2.109099999999999864e-02 2.449600000000000111e-01
1.574770000000000059e-01 -5.699899999999999967e-01 -6.254560000000000120e-01
2.727459999999999885e-01 2.272430000000000005e-01 -2.758769999999999833e-01
-2.179409999999999958e-01 -2.781000000000000139e-01 3.917280000000000206e-01
1.615020000000000067e-01 9.074069999999999636e-01 -1.370750000000000024e-01
8.309400000000000119e-02 -8.050300000000000511e-02 3.579999999999999849e-01
-3.483939999999999815e-01 3.347000000000000149e-03 9.141199999999999326e-02
-4.426919999999999744e-01 5.672160000000000535e-01 -2.343200000000000144e-02
3.005410000000000026e-01 -8.584899999999999476e-02 3.418030000000000235e-01
-1.566730000000000067e-01 2.496500000000000108e-02 2.407559999999999978e-01
4.577209999999999890e-01 -3.025660000000000016e-01 1.409849999999999992e-01
1.775490000000000124e-01 7.080500000000000682e-02 -3.430520000000000236e-01
4.727109999999999923e-01 -3.845419999999999949e-01 1.199699999999999933e-01
-2.958149999999999946e-01 -3.466380000000000017e-01 -9.653699999999999781e-02
-4.556930000000000147e-01 6.682299999999999907e-01 -2.499300000000000133e-02
2.527780000000000027e-01 8.623859999999999859e-01 -1.287210000000000021e-01
4.410979999999999901e-01 -1.885610000000000064e-01 1.857340000000000102e-01
-1.925189999999999957e-01 8.847639999999999949e-01 -5.817100000000000048e-02
1.896619999999999973e-01 -3.203099999999999697e-02 4.077890000000000126e-01
-8.370900000000000563e-02 -8.526799999999999657e-02 4.429119999999999724e-01
-2.535060000000000091e-01 -6.428899999999999892e-02 2.984660000000000091e-01
-2.935329999999999884e-01 -7.747479999999999922e-01 2.778160000000000074e-01
3.003939999999999944e-01 7.254319999999999657e-01 -1.884609999999999896e-01
-2.940570000000000128e-01 6.778000000000000171e-03 2.923160000000000203e-01
-9.556000000000000605e-02 -1.948179999999999912e-01 -3.331870000000000109e-01
-9.567100000000000604e-02 -6.991700000000000692e-02 4.787719999999999754e-01
-2.614349999999999730e-01 -8.769379999999999953e-01 2.002929999999999988e-01
2.417870000000000019e-01 5.987820000000000364e-01 -1.580020000000000036e-01
4.284799999999999720e-02 7.181450000000000333e-01 -1.389140000000000097e-01
-2.383669999999999956e-01 -2.215640000000000109e-01 4.478809999999999736e-01
1.666549999999999976e-01 -4.384129999999999971e-01 -5.354299999999999615e-01
2.998080000000000189e-01 5.114109999999999490e-01 -2.037269999999999914e-01
-2.930440000000000267e-01 -5.231800000000000339e-02 -2.265439999999999954e-01
1.423139999999999961e-01 -4.034909999999999886e-01 2.598619999999999819e-01
-2.462290000000000034e-01 1.066489999999999938e-01 -4.626600000000000157e-02
-1.353000000000000036e-01 1.417099999999999957e-02 2.741199999999999748e-01
-3.008230000000000071e-01 -3.359840000000000049e-01 -1.877729999999999955e-01
-2.880110000000000170e-01 -4.678769999999999873e-01 1.186230000000000062e-01
-4.463539999999999730e-01 6.185169999999999835e-01 6.169000000000000004e-03
-2.345300000000000162e-02 1.574220000000000064e-01 -1.161959999999999937e-01
4.525339999999999918e-01 -4.358989999999999809e-01 7.873399999999999843e-02
3.533479999999999954e-01 -4.203099999999999892e-02 3.436899999999999955e-01
-1.491580000000000128e-01 8.721149999999999736e-01 -6.354400000000000326e-02
3.138599999999999723e-02 -8.600399999999999712e-02 3.690260000000000207e-01
2.095879999999999965e-01 -3.458910000000000040e-01 -4.793970000000000176e-01
1.651630000000000043e-01 -1.064070000000000016e-01 -4.188350000000000128e-01
2.898359999999999825e-01 1.773389999999999966e-01 -1.556369999999999976e-01
-2.774389999999999912e-01 -1.663900000000000101e-02 3.591849999999999765e-01
-3.988050000000000206e-01 2.541289999999999938e-01 -1.441129999999999911e-01
-3.080140000000000100e-01 -4.704099999999999948e-02 4.319290000000000074e-01
-3.387799999999999839e-02 4.374810000000000088e-01 -1.765710000000000057e-01
1.403659999999999908e-01 -4.833599999999999702e-02 3.569080000000000030e-01
-4.062290000000000068e-01 6.678800000000000292e-01 3.335400000000000170e-02
2.246759999999999868e-01 8.805399999999999339e-02 6.411200000000000232e-02
-3.027480000000000171e-01 -8.512150000000000549e-01 2.138569999999999915e-01
1.675899999999999890e-01 6.945550000000000335e-01 -1.774010000000000031e-01
-4.070980000000000154e-01 5.652610000000000134e-01 -6.954899999999999971e-02
1.332490000000000063e-01 -4.189699999999999674e-02 3.563660000000000161e-01
-3.198289999999999744e-01 -3.890730000000000022e-01 1.779499999999999832e-02
-3.162090000000000178e-01 6.795619999999999994e-01 -7.111000000000000654e-02
-3.609820000000000251e-01 4.775679999999999925e-01 -9.198199999999999432e-02
-2.272520000000000095e-01 1.092899999999999948e-02 2.801629999999999954e-01
3.101539999999999853e-01 6.403419999999999668e-01 -1.851790000000000103e-01
1.934849999999999903e-01 -1.097700000000000065e-01 -3.613109999999999933e-01
-3.268320000000000114e-01 -3.009600000000000122e-02 1.744390000000000107e-01
-4.509500000000000175e-01 6.346810000000000507e-01 8.512000000000000469e-03
4.489020000000000232e-01 -3.958400000000000113e-02 2.286019999999999996e-01
1.485920000000000019e-01 8.693130000000000024e-01 -1.236410000000000009e-01
4.888419999999999987e-01 -2.245429999999999926e-01 2.013129999999999920e-01
4.235959999999999726e-01 -4.792600000000000332e-02 2.289539999999999909e-01
-2.096899999999999875e-01 -1.693699999999999928e-01 4.177480000000000082e-01
1.812769999999999937e-01 6.885170000000000456e-01 -1.482410000000000116e-01
-3.404989999999999961e-01 2.996099999999999874e-01 -1.475869999999999960e-01
-4.306059999999999888e-01 8.591640000000000388e-01 6.301900000000000557e-02
8.452400000000000191e-02 -1.870699999999999863e-01 -3.934050000000000047e-01
9.611300000000000399e-02 7.096559999999999535e-01 -1.409789999999999932e-01
1.759789999999999965e-01 -1.699620000000000020e-01 -3.934869999999999757e-01
1.677879999999999927e-01 1.078130000000000061e-01 -4.757700000000000123e-02
2.262079999999999924e-01 6.024899999999999700e-02 -3.767369999999999886e-01
1.454560000000000020e-01 9.045210000000000194e-01 -1.472779999999999923e-01
-4.204820000000000224e-01 8.538900000000000379e-01 3.812399999999999817e-02
-4.084399999999999836e-02 4.560040000000000204e-01 -1.653650000000000120e-01
5.646999999999999936e-02 -3.178700000000000275e-02 4.042109999999999870e-01
2.879050000000000220e-01 4.424390000000000267e-01 -2.295609999999999873e-01
-3.044410000000000172e-01 -5.290999999999999870e-02 2.413869999999999905e-01
-3.604789999999999939e-01 -8.060900000000000010e-02 -2.792100000000000137e-01
4.497559999999999891e-01 3.651399999999999785e-02 2.080960000000000032e-01
-4.722640000000000171e-01 7.581590000000000273e-01 4.522899999999999837e-02
1.532799999999999996e-01 1.741429999999999922e-01 -2.295099999999999918e-01
3.669040000000000079e-01 5.659999999999999884e-04 3.146249999999999880e-01
-2.877669999999999950e-01 8.744809999999999528e-01 -4.130000000000000338e-02
-3.158619999999999761e-01 -4.358349999999999724e-01 4.873799999999999660e-02
2.472679999999999878e-01 8.426699999999999469e-02 1.783300000000000163e-02
-3.090599999999999944e-02 4.221300000000000052e-02 1.970079999999999887e-01
2.818129999999999802e-01 -2.616539999999999977e-01 -3.102219999999999978e-01
-2.206529999999999880e-01 9.469400000000000039e-02 4.867699999999999805e-02
1.547659999999999869e-01 -4.185289999999999844e-01 -5.355299999999999505e-01
-1.184370000000000006e-01 2.679199999999999984e-02 2.409969999999999890e-01
1.950610000000000122e-01 -2.741520000000000068e-01 -4.364850000000000119e-01
-3.317749999999999866e-01 -3.685800000000000187e-02 2.354849999999999999e-01
2.219899999999999929e-01 -8.976900000000000157e-02 3.177229999999999777e-01
-1.714320000000000010e-01 1.107400000000000051e-01 4.230000000000000253e-03
2.629830000000000223e-01 1.160380000000000023e-01 -2.192860000000000087e-01
3.474059999999999926e-01 1.199240000000000028e-01 -2.799899999999999958e-02
-2.585430000000000228e-01 -7.818899999999999462e-02 3.115709999999999869e-01
-2.531220000000000137e-01 1.984000000000000086e-03 2.365120000000000000e-01
3.626989999999999936e-01 -6.942399999999999960e-02 2.864349999999999952e-01
1.367240000000000122e-01 1.807599999999999832e-02 1.956839999999999968e-01
1.739040000000000030e-01 1.054339999999999999e-01 1.362200000000000043e-02
2.071459999999999968e-01 2.690009999999999901e-01 -2.948959999999999915e-01
-2.397450000000000137e-01 1.149040000000000061e-01 -1.575999999999999927e-03
2.326840000000000019e-01 4.891059999999999852e-01 -1.759070000000000078e-01
-2.281970000000000109e-01 -1.003140000000000004e-01 4.909390000000000143e-01
4.942579999999999751e-01 -5.188350000000000461e-01 1.295099999999999862e-01
4.042060000000000097e-01 -2.175340000000000051e-01 2.050289999999999890e-01
1.546039999999999914e-01 -4.265550000000000175e-01 -6.044479999999999853e-01
3.670459999999999834e-01 -9.680000000000000019e-04 1.030060000000000003e-01
2.980010000000000159e-01 4.769550000000000178e-01 -1.985290000000000110e-01
2.396909999999999874e-01 4.550640000000000240e-01 -1.736550000000000038e-01
4.274080000000000101e-01 -3.007319999999999993e-01 2.232810000000000072e-01
-3.573129999999999917e-01 -7.301699999999999857e-02 -1.994680000000000064e-01
4.084780000000000078e-01 -4.076279999999999903e-01 1.231840000000000018e-01
-1.715900000000000064e-02 9.039340000000000153e-01 -1.033049999999999941e-01
-3.044930000000000136e-01 -3.088319999999999954e-01 -2.266110000000000069e-01
4.459949999999999748e-01 -6.201899999999999774e-02 3.304179999999999895e-01
7.582099999999999951e-02 8.857960000000000278e-01 -1.471719999999999973e-01
1.511299999999999866e-01 3.360999999999999838e-03 2.297029999999999905e-01
-3.008640000000000203e-01 -2.617619999999999947e-01 3.891769999999999952e-01
4.047799999999999732e-01 -1.800019999999999953e-01 2.191839999999999899e-01
-3.467779999999999752e-01 -2.299299999999999955e-01 -2.611359999999999792e-01
1.916140000000000065e-01 1.381680000000000130e-01 -1.289690000000000003e-01
-3.442470000000000252e-01 -4.824799999999999922e-02 -2.719349999999999823e-01
3.470019999999999771e-01 2.992999999999999827e-02 1.949400000000000091e-02
1.978429999999999911e-01 7.193610000000000282e-01 -1.536510000000000098e-01
2.711069999999999869e-01 1.041419999999999985e-01 1.840500000000000122e-02
-2.409119999999999873e-01 -9.059089999999999643e-01 2.348359999999999892e-01
3.188849999999999740e-01 7.063300000000000134e-02 -9.284599999999999798e-02
-1.629599999999999937e-01 1.921460000000000112e-01 -2.149669999999999914e-01
2.573269999999999724e-01 8.041570000000000107e-01 -1.452980000000000105e-01
1.831430000000000002e-01 -3.037139999999999840e-01 -5.513719999999999732e-01
-2.803930000000000033e-01 -6.846149999999999736e-01 3.041490000000000027e-01
2.522460000000000258e-01 -2.397999999999999958e-03 2.486710000000000031e-01
-1.286509999999999876e-01 -6.926999999999999824e-02 4.246360000000000134e-01
-3.048810000000000131e-01 8.793299999999999728e-02 -4.861900000000000249e-02
-3.209980000000000055e-01 4.431749999999999856e-01 -1.174130000000000035e-01
8.771400000000000030e-02 2.069599999999999912e-02 1.895920000000000105e-01
-2.950949999999999962e-01 -2.950980000000000270e-01 -3.271589999999999776e-01
-3.566650000000000098e-01 3.847459999999999769e-01 -1.255689999999999862e-01
1.526830000000000132e-01 8.708669999999999467e-01 -1.222530000000000006e-01
7.462100000000000677e-02 7.264049999999999674e-01 -1.622290000000000121e-01
3.126619999999999955e-01 5.875699999999999673e-02 1.480380000000000029e-01
4.815599999999999881e-01 -6.151839999999999531e-01 1.233350000000000002e-01
1.627439999999999998e-01 4.399689999999999990e-01 -2.007809999999999873e-01
-2.160040000000000016e-01 -2.467890000000000084e-01 4.046279999999999877e-01
-6.327699999999999991e-02 1.833019999999999927e-01 -1.837719999999999909e-01
3.323150000000000270e-01 -3.214400000000000035e-01 -2.132030000000000036e-01
2.166039999999999910e-01 4.741200000000000275e-02 -2.936469999999999914e-01
-4.865240000000000120e-01 8.506150000000000100e-01 5.656300000000000217e-02
-2.730150000000000077e-01 9.752199999999999758e-02 -2.043400000000000077e-02
-3.855299999999999699e-02 2.101799999999999849e-02 1.907300000000000106e-01
3.180979999999999919e-01 3.787299999999999695e-02 1.422980000000000078e-01
-3.783710000000000129e-01 -1.163970000000000005e-01 -2.717049999999999743e-01
-1.311559999999999948e-01 1.536099999999999965e-02 2.709130000000000149e-01
-1.294150000000000023e-01 4.286800000000000055e-01 -1.646189999999999876e-01
-2.183060000000000000e-01 -2.854410000000000003e-01 3.904810000000000225e-01
1.988260000000000027e-01 -4.082649999999999890e-01 2.485950000000000104e-01
-2.610850000000000115e-01 -4.562180000000000124e-01 1.602089999999999903e-01
-1.908320000000000016e-01 -1.423040000000000138e-01 4.099039999999999906e-01
-1.012890000000000040e-01 8.742619999999999836e-01 -7.591900000000000037e-02
-3.470539999999999736e-01 -1.292570000000000108e-01 -3.040760000000000129e-01
-2.388329999999999897e-01 -3.667179999999999884e-01 3.904050000000000020e-01
2.986469999999999958e-01 4.564599999999999907e-02 1.223449999999999954e-01
1.769769999999999954e-01 1.486629999999999896e-01 -9.751500000000000445e-02
2.581309999999999993e-01 3.329880000000000062e-01 -2.774130000000000207e-01
-3.377720000000000167e-01 4.139269999999999894e-01 -1.173069999999999946e-01
-2.096099999999999908e-01 -1.641469999999999874e-01 -3.352029999999999732e-01
5.368300000000000155e-02 -5.524300000000000044e-02 3.754979999999999984e-01
-3.783009999999999984e-01 6.669129999999999781e-01 -3.234000000000000069e-02
-2.924370000000000025e-01 -2.347219999999999862e-01 -3.079049999999999843e-01
3.008000000000000118e-01 5.049209999999999532e-01 -1.875630000000000075e-01
-3.863960000000000172e-01 -5.773740000000000538e-01 -4.656120000000000259e-01
-2.853599999999999887e-02 -3.621900000000000119e-02 4.146130000000000093e-01
1.889599999999999891e-01 3.867899999999999811e-02 1.401850000000000041e-01
-3.802630000000000177e-01 2.018169999999999964e-01 -1.136690000000000061e-01
2.920670000000000210e-01 -4.576500000000000012e-02 3.824080000000000257e-01
-1.587830000000000075e-01 -4.317929999999999824e-01 3.307959999999999789e-01
-3.561300000000000021e-01 -2.666939999999999866e-01 -2.798910000000000009e-01
2.413520000000000110e-01 -1.068100000000000022e-01 -4.202179999999999804e-01
-1.176790000000000058e-01 -3.853000000000000175e-02 4.249740000000000184e-01
2.884229999999999849e-01 1.303020000000000012e-01 -5.231000000000000233e-02
-5.838499999999999940e-02 -3.835100000000000314e-02 4.242279999999999940e-01
-3.250890000000000168e-01 -4.568999999999999728e-01 -4.566899999999999848e-01
8.754099999999999382e-02 1.039250000000000035e-01 1.548899999999999930e-02
-2.963430000000000231e-01 5.804900000000000337e-02 2.154100000000000112e-02
1.827979999999999883e-01 -4.450279999999999792e-01 -6.256300000000000194e-01
2.857299999999999840e-01 1.390139999999999987e-01 -2.359140000000000126e-01
1.677480000000000082e-01 -4.535250000000000115e-01 -5.437870000000000203e-01
2.071739999999999970e-01 1.188300000000000051e-01 -3.536509999999999931e-01
3.126299999999999912e-02 4.130000000000000338e-02 1.321209999999999885e-01
2.784470000000000001e-01 1.997000000000000164e-02 1.891460000000000086e-01
-8.831200000000000161e-02 -6.554000000000000103e-02 4.781460000000000155e-01
3.694459999999999966e-01 -8.951000000000000623e-03 2.737550000000000261e-01
1.006009999999999960e-01 4.691540000000000155e-01 -2.253149999999999875e-01
2.809150000000000258e-01 5.974070000000000213e-01 -2.157489999999999963e-01
-3.282619999999999982e-01 2.677039999999999975e-01 -1.500289999999999957e-01
2.369330000000000047e-01 1.217040000000000066e-01 -8.371800000000000075e-02
-4.542900000000000271e-01 8.200969999999999649e-01 2.165999999999999957e-03
-3.100970000000000115e-01 -5.399559999999999915e-01 2.926070000000000060e-01
-3.623819999999999819e-01 -6.351310000000000011e-01 -4.721029999999999949e-01
4.048820000000000197e-01 -4.139340000000000241e-01 9.063899999999999735e-02
-3.762909999999999866e-01 1.262800000000000034e-02 8.049599999999999811e-02
-1.921650000000000025e-01 8.242399999999999727e-02 2.308699999999999988e-02
4.329080000000000150e-01 1.994399999999999992e-02 2.589750000000000107e-01
-2.929050000000000264e-01 -1.465279999999999916e-01 -2.573799999999999977e-01
1.939899999999999958e-01 -2.320889999999999898e-01 -3.997740000000000182e-01
2.483849999999999947e-01 8.957330000000000014e-01 -1.288070000000000048e-01
2.234760000000000080e-01 -1.007030000000000008e-01 3.581710000000000171e-01
