-4.534020000000000272e-01 6.851899999999999658e-02 1.224309999999999982e-01
5.908799999999999608e-01 3.542819999999999858e-01 1.224309999999999982e-01
7.131309999999999594e-01 -2.837089999999999890e-01 1.224309999999999982e-01
-5.205509999999999859e-01 -7.721770000000000023e-01 -1.259049999999999891e-01
-8.326300000000000368e-02 8.318090000000000206e-01 1.223179999999999962e-01
4.797939999999999983e-01 6.185070000000000290e-01 -1.260979999999999879e-01
2.796589999999999909e-01 4.081790000000000140e-01 -1.266359999999999986e-01
3.690220000000000167e-01 4.589570000000000038e-01 1.224309999999999982e-01
-3.721019999999999883e-01 -8.593960000000000488e-01 -8.301999999999999658e-02
1.700230000000000075e-01 -7.659059999999999757e-01 -1.260979999999999879e-01
3.346419999999999950e-01 -1.233230000000000021e-01 1.224309999999999982e-01
-3.386719999999999731e-01 -1.008509999999999962e-01 1.224309999999999982e-01
-3.734759999999999747e-01 6.640340000000000131e-01 1.224309999999999982e-01
1.450649999999999995e-01 8.492410000000000236e-01 -1.150600000000000060e-02
-4.204970000000000097e-01 8.492410000000000236e-01 6.741900000000000670e-02
-4.104659999999999975e-01 5.333299999999999708e-01 -1.263839999999999963e-01
-5.550990000000000091e-01 -4.397389999999999910e-01 -1.260979999999999879e-01
-5.215560000000000196e-01 4.623390000000000000e-01 -1.260979999999999879e-01
-1.568879999999999997e-01 5.991250000000000187e-01 1.224309999999999982e-01
-5.634580000000000144e-01 -3.523379999999999845e-01 -1.265850000000000031e-01
3.518419999999999881e-01 -7.538759999999999906e-01 -1.428500000000000082e-02
-1.806069999999999898e-01 3.786300000000000082e-02 -1.265550000000000008e-01
-1.751899999999999985e-02 -1.182769999999999933e-01 1.224309999999999982e-01
4.264419999999999877e-01 1.113979999999999970e-01 -1.265900000000000081e-01
-8.413779999999999593e-01 4.669130000000000225e-01 -1.259450000000000014e-01
1.396580000000000044e-01 1.953560000000000019e-01 -1.265270000000000006e-01
2.688039999999999874e-01 -6.187359999999999527e-01 -1.264480000000000048e-01
-3.783929999999999794e-01 7.609510000000000440e-01 1.224309999999999982e-01
2.346300000000000122e-02 2.838040000000000007e-01 -1.265640000000000098e-01
-8.578550000000000342e-01 -2.061499999999999999e-01 -7.271299999999999986e-02
-4.258190000000000031e-01 4.589360000000000106e-01 1.224309999999999982e-01
3.939489999999999936e-01 -8.482049999999999867e-01 1.222150000000000042e-01
-6.601289999999999658e-01 -5.279519999999999769e-01 -1.258479999999999877e-01
-5.265320000000000000e-01 7.828509999999999636e-01 -8.105600000000000305e-02
-4.291929999999999912e-01 7.516289999999999916e-01 5.840200000000000252e-02
-8.278039999999999843e-01 -4.260650000000000270e-01 1.224309999999999982e-01
-3.477180000000000271e-01 -8.593960000000000488e-01 -7.944600000000000273e-02
-3.034699999999999898e-02 7.579780000000000406e-01 1.224309999999999982e-01
-1.977379999999999971e-01 4.241809999999999747e-01 1.224309999999999982e-01
3.801669999999999772e-01 -2.959370000000000056e-01 1.224309999999999982e-01
-4.629050000000000109e-01 6.045639999999999903e-01 -1.260689999999999866e-01
-2.936190000000000189e-01 -4.175389999999999935e-01 -1.266470000000000096e-01
3.499530000000000141e-01 1.356719999999999871e-01 1.224309999999999982e-01
-4.777140000000000275e-01 1.493680000000000008e-01 -1.265129999999999866e-01
3.234750000000000125e-01 -8.186010000000000231e-01 -1.260979999999999879e-01
3.403939999999999744e-01 6.069200000000000150e-01 -1.260979999999999879e-01
-6.019660000000000011e-01 3.829299999999999926e-01 -1.260979999999999879e-01
-4.567709999999999826e-01 -1.845130000000000103e-01 1.224309999999999982e-01
5.477180000000000382e-01 5.777020000000000488e-01 -1.015299999999999953e-01
-1.034270000000000050e-01 -2.763410000000000033e-01 -1.266249999999999876e-01
-1.635669999999999902e-01 -1.560199999999999955e-02 1.224309999999999982e-01
2.193000000000000071e-03 3.196220000000000172e-01 -1.265759999999999941e-01
-8.360549999999999926e-01 -1.495400000000000028e-02 1.223690000000000055e-01
4.428110000000000102e-01 -4.285590000000000233e-01 -1.264969999999999983e-01
5.190320000000000489e-01 8.098309999999999675e-01 -1.914000000000000076e-02
-6.088270000000000071e-01 -3.458789999999999920e-01 1.224309999999999982e-01
-3.676050000000000151e-01 7.480480000000000462e-01 -7.613499999999999435e-02
4.183029999999999804e-01 -6.280080000000000107e-01 -7.360400000000000276e-02
-5.706839999999999691e-01 -2.585000000000000075e-01 1.224309999999999982e-01
-2.410770000000000135e-01 -3.591400000000000148e-01 -1.266349999999999976e-01
2.149590000000000112e-01 -1.992369999999999974e-01 1.224309999999999982e-01
5.194100000000000383e-01 7.189710000000000267e-01 2.393800000000000094e-02
1.307400000000000055e-02 -2.897290000000000143e-01 -1.266220000000000123e-01
-6.634910000000000529e-01 -2.246000000000000080e-02 -1.264149999999999996e-01
6.252370000000000427e-01 -5.335870000000000335e-01 1.971200000000000035e-02
-1.545829999999999982e-01 6.514720000000000510e-01 1.224309999999999982e-01
7.579010000000000469e-01 -1.794000000000000108e-02 1.224309999999999982e-01
-6.507389999999999564e-01 -5.298289999999999944e-01 -8.567400000000000015e-02
2.451460000000000028e-01 3.462370000000000170e-01 1.224309999999999982e-01
-3.109999999999999917e-03 4.781940000000000079e-01 1.224309999999999982e-01
-1.886609999999999954e-01 5.987660000000000204e-01 1.224309999999999982e-01
1.966670000000000085e-01 -3.074100000000000096e-02 1.224309999999999982e-01
6.928379999999999539e-01 4.550319999999999920e-01 1.224309999999999982e-01
2.268540000000000001e-01 4.979930000000000190e-01 -1.266120000000000023e-01
7.503189999999999582e-01 -3.328499999999999792e-01 -1.260979999999999879e-01
1.583899999999999891e-02 7.919620000000000548e-01 -1.260979999999999879e-01
2.079719999999999902e-01 7.211250000000000160e-01 1.224309999999999982e-01
-2.718099999999999961e-01 1.284150000000000014e-01 -1.265259999999999996e-01
1.373070000000000124e-01 4.510159999999999725e-01 1.224309999999999982e-01
-7.640050000000000452e-01 -4.643780000000000130e-01 1.224309999999999982e-01
9.731299999999999673e-02 -8.593960000000000488e-01 -5.084500000000000131e-02
3.219799999999999884e-01 7.643140000000000489e-01 -1.260979999999999879e-01
-4.578280000000000127e-01 7.317860000000000475e-01 2.457900000000000015e-02
4.475480000000000014e-01 1.959619999999999973e-01 -1.265959999999999863e-01
3.875250000000000083e-01 -7.675659999999999705e-01 -3.347999999999999848e-03
-8.578550000000000342e-01 2.740349999999999731e-01 -2.085700000000000054e-02
6.227780000000000538e-01 3.595400000000000262e-01 -7.478899999999999437e-02
-3.647790000000000199e-01 3.004669999999999841e-01 1.224309999999999982e-01
6.218080000000000274e-01 -5.350139999999999896e-01 7.155200000000000449e-02
-3.241729999999999889e-01 1.172269999999999979e-01 -1.265409999999999868e-01
-4.717230000000000034e-01 7.054930000000000367e-01 -7.526299999999999657e-02
1.927929999999999922e-01 4.956450000000000022e-01 -1.266059999999999963e-01
4.686080000000000245e-01 -2.085670000000000024e-01 -1.265880000000000061e-01
-8.578550000000000342e-01 -5.998499999999999666e-02 2.522800000000000042e-02
-8.578550000000000342e-01 -1.767090000000000050e-01 -4.307300000000000018e-02
-2.024720000000000131e-01 -7.727669999999999817e-01 -1.260979999999999879e-01
8.290459999999999496e-01 -4.775030000000000108e-01 -1.260259999999999991e-01
5.060599999999999821e-02 -8.593960000000000488e-01 -3.759200000000000041e-02
6.480310000000000237e-01 3.337959999999999816e-01 -1.008799999999999975e-01
-5.266929999999999668e-01 6.625769999999999715e-01 7.413999999999999757e-02
-8.934100000000000374e-02 -1.302200000000000024e-01 1.224309999999999982e-01
-3.250170000000000003e-01 -1.115889999999999938e-01 1.224309999999999982e-01
6.839880000000000404e-01 -4.975229999999999930e-01 -1.260979999999999879e-01
-2.305969999999999964e-01 6.560460000000000180e-01 -1.260979999999999879e-01
2.321310000000000040e-01 8.492410000000000236e-01 -9.062399999999999622e-02
-5.636900000000000244e-01 -4.978199999999999847e-01 1.224309999999999982e-01
3.346370000000000178e-01 5.485379999999999701e-01 -1.266309999999999936e-01
-1.034199999999999980e-01 -5.199249999999999705e-01 1.224309999999999982e-01
6.568199999999999594e-01 3.072940000000000116e-01 -1.259959999999999969e-01
-3.474499999999999811e-01 4.683260000000000201e-01 1.224309999999999982e-01
5.778809999999999780e-01 -2.142650000000000110e-01 -1.266259999999999886e-01
6.165129999999999777e-01 2.557200000000000029e-01 1.224309999999999982e-01
-2.140690000000000093e-01 2.482479999999999964e-01 -1.265149999999999886e-01
6.903019999999999712e-01 4.659380000000000188e-01 1.874599999999999878e-02
-5.496529999999999472e-01 5.843739999999999490e-01 1.216990000000000016e-01
3.251359999999999806e-01 -5.079800000000000287e-02 1.224309999999999982e-01
-3.399860000000000104e-01 2.456879999999999897e-01 1.224309999999999982e-01
5.374569999999999625e-01 -4.919100000000000139e-01 1.224309999999999982e-01
-8.578550000000000342e-01 1.749130000000000129e-01 2.545899999999999899e-02
-7.383760000000000323e-01 -4.602280000000000260e-01 2.014900000000000024e-02
-8.578550000000000342e-01 2.351949999999999874e-01 3.511899999999999744e-02
2.624239999999999906e-01 8.492410000000000236e-01 -3.409100000000000324e-02
-6.415849999999999609e-01 -8.436499999999999555e-02 1.224309999999999982e-01
-4.372889999999999833e-01 -4.416749999999999843e-01 1.224309999999999982e-01
-8.063209999999999544e-01 -5.278040000000000509e-01 3.892400000000000027e-02
-7.587199999999999500e-02 2.435190000000000132e-01 1.224309999999999982e-01
-4.597580000000000000e-01 7.279740000000000100e-01 -9.347099999999999853e-02
-8.578550000000000342e-01 -2.698809999999999820e-01 -9.508400000000000185e-02
-8.578550000000000342e-01 4.537740000000000107e-01 -6.395000000000000684e-02
8.507820000000000382e-01 -2.574980000000000047e-01 -9.238200000000000578e-02
7.659000000000000009e-03 5.542519999999999669e-01 -1.266319999999999946e-01
1.634809999999999874e-01 -8.593960000000000488e-01 5.255599999999999855e-02
-5.529260000000000286e-01 -5.542799999999999810e-02 1.224309999999999982e-01
-8.469780000000000086e-01 2.030799999999999966e-02 1.222170000000000062e-01
1.342099999999999960e-01 6.549610000000000154e-01 1.224309999999999982e-01
-3.062150000000000150e-01 8.492410000000000236e-01 -8.547399999999999443e-02
-2.302649999999999975e-01 1.688890000000000113e-01 1.224309999999999982e-01
1.217339999999999950e-01 -7.396779999999999466e-01 -1.260979999999999879e-01
-3.267829999999999901e-01 -7.956349999999999811e-01 1.224309999999999982e-01
-8.543789999999999996e-01 4.907590000000000008e-01 -1.132439999999999974e-01
-1.343199999999999950e-01 6.008999999999999758e-02 1.224309999999999982e-01
7.656089999999999840e-01 -1.902339999999999864e-01 -1.260979999999999879e-01
5.733000000000000318e-01 4.495089999999999919e-01 1.224309999999999982e-01
3.968559999999999865e-01 -8.593960000000000488e-01 7.817000000000000337e-02
1.348700000000000072e-02 8.489820000000000144e-01 -1.222140000000000032e-01
6.445380000000000553e-01 5.192409999999999526e-01 6.168300000000000172e-02
-5.197479999999999878e-01 -8.167429999999999968e-01 1.222170000000000062e-01
1.366209999999999924e-01 1.437370000000000037e-01 -1.265489999999999948e-01
2.548150000000000137e-01 2.949220000000000175e-01 -1.266079999999999983e-01
-2.129800000000000026e-01 -5.603200000000000403e-01 1.224309999999999982e-01
-8.576970000000000427e-01 3.575559999999999850e-01 1.110980000000000023e-01
8.507820000000000382e-01 4.204390000000000072e-01 7.523000000000000520e-02
-3.555749999999999744e-01 5.921799999999999981e-02 1.224309999999999982e-01
2.340450000000000030e-01 -2.358999999999999986e-01 -1.265660000000000118e-01
-3.160099999999999715e-02 -7.091809999999999503e-01 1.224309999999999982e-01
5.193950000000000511e-01 -6.976400000000000379e-01 -2.128700000000000037e-02
-5.327199999999999713e-01 -6.316460000000000408e-01 5.639799999999999675e-02
6.850100000000000633e-02 -6.080200000000000049e-01 1.224309999999999982e-01
-3.970999999999999704e-03 1.021510000000000057e-01 -1.265630000000000088e-01
8.507820000000000382e-01 -3.499689999999999745e-01 8.982600000000000307e-02
-8.256250000000000533e-01 1.677000000000000105e-03 1.224309999999999982e-01
-6.462149999999999839e-01 -5.299749999999999739e-01 -1.240669999999999967e-01
5.496969999999999912e-01 2.873399999999999913e-02 -1.266029999999999933e-01
-8.823699999999999599e-02 7.448420000000000041e-01 -1.260979999999999879e-01
9.828999999999999196e-03 6.938029999999999475e-01 -1.260979999999999879e-01
-8.555920000000000192e-01 4.900639999999999996e-01 -7.867200000000000581e-02
1.524139999999999939e-01 -6.775560000000000471e-01 1.224309999999999982e-01
-5.418380000000000418e-01 8.809500000000000663e-02 1.224309999999999982e-01
5.024420000000000552e-01 -2.689079999999999804e-01 1.224309999999999982e-01
4.743729999999999891e-01 -4.519639999999999769e-01 -1.266259999999999886e-01
-1.621799999999999908e-01 8.174749999999999517e-01 -1.260979999999999879e-01
5.342670000000000474e-01 -6.087310000000000221e-01 1.159069999999999961e-01
4.311000000000000248e-02 -1.403270000000000073e-01 -1.265940000000000121e-01
-7.522900000000000142e-01 1.622609999999999886e-01 1.224309999999999982e-01
6.928750000000000187e-01 9.902900000000000591e-02 1.224309999999999982e-01
6.292529999999999513e-01 3.719189999999999996e-01 1.224309999999999982e-01
5.422300000000000036e-02 -2.393049999999999899e-01 1.224309999999999982e-01
-7.317099999999999993e-02 -3.204719999999999791e-01 1.224309999999999982e-01
-2.514120000000000243e-01 1.398719999999999963e-01 -1.265310000000000046e-01
3.606699999999999906e-01 1.076700000000000053e-02 1.224309999999999982e-01
-3.943579999999999863e-01 5.980720000000000480e-01 -1.259869999999999879e-01
3.706320000000000170e-01 1.970810000000000062e-01 -1.265959999999999863e-01
4.690440000000000165e-01 4.523699999999999943e-02 1.224309999999999982e-01
8.507820000000000382e-01 -6.773800000000000654e-02 2.779600000000000126e-02
4.148049999999999793e-01 -7.648530000000000051e-01 -1.040250000000000064e-01
2.521970000000000045e-01 -3.595530000000000115e-01 1.224309999999999982e-01
1.186399999999999955e-02 -1.492759999999999920e-01 1.224309999999999982e-01
-4.301570000000000116e-01 1.598340000000000038e-01 -1.265570000000000028e-01
-6.800270000000000481e-01 5.177119999999999500e-01 -1.137669999999999931e-01
6.552860000000000351e-01 7.993999999999999717e-02 1.224309999999999982e-01
-5.904880000000000129e-01 -6.046399999999999691e-02 1.224309999999999982e-01
-3.739810000000000079e-01 -4.416109999999999758e-01 1.224309999999999982e-01
-4.353369999999999740e-01 8.492410000000000236e-01 -5.599500000000000310e-02
5.113760000000000527e-01 2.112739999999999896e-01 1.224309999999999982e-01
-7.411050000000000137e-01 -3.489570000000000172e-01 -9.286400000000000210e-02
-1.229819999999999941e-01 -2.258469999999999922e-01 1.224309999999999982e-01
-3.798000000000000265e-01 -3.864870000000000250e-01 1.224309999999999982e-01
-8.578550000000000342e-01 1.615600000000000092e-01 -5.538499999999999673e-02
2.023280000000000078e-01 -6.698910000000000142e-01 1.224309999999999982e-01
-4.246159999999999934e-01 6.174469999999999681e-01 -9.938999999999999918e-03
-7.268339999999999801e-01 -1.886649999999999994e-01 1.224309999999999982e-01
-1.076560000000000017e-01 7.649540000000000228e-01 1.224309999999999982e-01
2.657039999999999957e-01 -8.593960000000000488e-01 2.825999999999999953e-03
-4.794459999999999833e-01 -3.948539999999999828e-01 -1.266039999999999943e-01
-6.238740000000000396e-01 3.157399999999999790e-02 1.224309999999999982e-01
-5.331559999999999633e-01 -6.311080000000000023e-01 4.522400000000000031e-02
-7.929389999999999494e-01 -3.132380000000000164e-01 -1.260979999999999879e-01
2.244790000000000119e-01 7.014099999999999779e-01 1.224309999999999982e-01
6.341419999999999835e-01 2.920380000000000198e-01 1.224309999999999982e-01
-8.365569999999999951e-01 4.220559999999999867e-01 1.223360000000000003e-01
5.251360000000000472e-01 -1.134990000000000027e-01 1.224309999999999982e-01
4.077169999999999961e-01 8.207699999999999996e-01 -1.260979999999999879e-01
4.671520000000000117e-01 -6.948710000000000164e-01 -3.234299999999999675e-02
1.189589999999999953e-01 7.865790000000000282e-01 -1.260979999999999879e-01
-6.864500000000000046e-01 1.929029999999999911e-01 1.224309999999999982e-01
-3.170109999999999872e-01 -7.567699999999999427e-02 -1.265600000000000058e-01
-5.100080000000000169e-01 6.899690000000000545e-01 -1.259929999999999939e-01
6.905219999999999692e-01 -4.611600000000000144e-01 1.224309999999999982e-01
7.821399999999999464e-01 -3.284989999999999855e-01 1.224309999999999982e-01
1.350419999999999954e-01 4.335849999999999982e-01 1.224309999999999982e-01
-2.441510000000000069e-01 7.213009999999999700e-01 1.224309999999999982e-01
-5.122700000000000170e-02 -1.253199999999999870e-01 -1.265789999999999971e-01
-7.278710000000000457e-01 -2.477989999999999915e-01 -1.260979999999999879e-01
4.455979999999999941e-01 -5.484379999999999811e-01 -1.260979999999999879e-01
6.250289999999999457e-01 4.666959999999999997e-01 -1.260509999999999964e-01
-6.766590000000000105e-01 -5.859999999999999931e-02 -1.263219999999999898e-01
8.276310000000000056e-01 -4.079579999999999873e-01 -1.260370000000000101e-01
2.340250000000000108e-01 8.492410000000000236e-01 -7.869400000000000006e-02
-8.350670000000000037e-01 -2.831049999999999955e-01 1.223569999999999935e-01
4.032850000000000046e-01 3.908050000000000135e-01 1.224309999999999982e-01
-5.651730000000000365e-01 -4.747700000000000253e-01 -1.260979999999999879e-01
8.507820000000000382e-01 -3.146280000000000188e-01 9.216000000000000233e-03
-4.035579999999999723e-01 -7.598549999999999471e-01 1.224309999999999982e-01
-5.776689999999999880e-01 -4.997360000000000135e-01 -1.260979999999999879e-01
4.680190000000000183e-01 -3.498149999999999871e-01 -1.265040000000000053e-01
8.507820000000000382e-01 3.505789999999999740e-01 5.863999999999999768e-02
-5.193210000000000326e-01 1.814699999999999924e-01 1.224309999999999982e-01
3.946000000000000202e-02 1.075109999999999955e-01 1.224309999999999982e-01
-3.589820000000000233e-01 6.847330000000000361e-01 6.029899999999999843e-02
4.295599999999999974e-01 -4.198799999999999755e-02 -1.266009999999999913e-01
-2.594560000000000199e-01 -7.218090000000000339e-01 1.224309999999999982e-01
7.094479999999999675e-01 -2.610589999999999855e-01 -1.260979999999999879e-01
1.708129999999999926e-01 -7.659369999999999790e-01 1.224309999999999982e-01
-3.279819999999999958e-01 2.042690000000000061e-01 -1.264679999999999971e-01
4.664440000000000253e-01 -6.595710000000000184e-01 -1.259460000000000024e-01
1.142510000000000053e-01 -5.510040000000000493e-01 -1.266259999999999886e-01
5.139690000000000092e-01 8.273549999999999516e-01 1.015100000000000030e-01
-1.132279999999999953e-01 2.242999999999999855e-02 -1.265739999999999921e-01
-2.039279999999999982e-01 8.838300000000000323e-02 -1.265620000000000078e-01
3.880959999999999965e-01 -3.474559999999999871e-01 1.224309999999999982e-01
5.188650000000000206e-01 8.071920000000000206e-01 3.806999999999999967e-02
5.608250000000000179e-01 3.871140000000000136e-01 -1.262129999999999919e-01
-8.077450000000000463e-01 -3.011799999999999894e-02 -1.260979999999999879e-01
-7.156689999999999996e-01 1.647540000000000115e-01 1.224309999999999982e-01
-3.507890000000000175e-01 1.857999999999999929e-02 1.224309999999999982e-01
-6.489589999999999526e-01 -3.286029999999999784e-01 1.224309999999999982e-01
-3.316100000000000159e-01 1.018369999999999970e-01 1.224309999999999982e-01
1.928439999999999876e-01 -5.388610000000000344e-01 1.224309999999999982e-01
-2.830719999999999903e-01 1.143939999999999957e-01 1.224309999999999982e-01
-8.576489999999999947e-01 4.198410000000000197e-01 1.119539999999999980e-01
-1.103839999999999960e-01 -4.022310000000000052e-01 1.224309999999999982e-01
1.025480000000000003e-01 8.183399999999999563e-01 1.224309999999999982e-01
6.681600000000000039e-02 3.896999999999999856e-03 1.224309999999999982e-01
8.507820000000000382e-01 -2.671660000000000146e-01 -2.846800000000000025e-02
4.821899999999999797e-02 -8.821299999999999975e-02 1.224309999999999982e-01
7.549360000000000515e-01 3.692460000000000186e-01 3.426200000000000079e-02
4.337960000000000149e-01 -6.907969999999999944e-01 1.224309999999999982e-01
2.819510000000000072e-01 3.192220000000000057e-01 1.224309999999999982e-01
-6.973719999999999919e-01 -2.055680000000000007e-01 -1.260979999999999879e-01
-6.075629999999999642e-01 1.547300000000000064e-01 1.224309999999999982e-01
8.129939999999999944e-01 1.417420000000000069e-01 -1.260979999999999879e-01
5.198869999999999880e-01 2.431580000000000130e-01 1.224309999999999982e-01
3.620189999999999797e-01 -5.867019999999999458e-01 -1.261480000000000101e-01
-6.444889999999999786e-01 4.577430000000000110e-01 -1.260979999999999879e-01
-3.073350000000000248e-01 -2.608159999999999923e-01 1.224309999999999982e-01
1.384180000000000132e-01 5.558130000000000015e-01 -1.264679999999999971e-01
2.678579999999999850e-01 8.492410000000000236e-01 1.046300000000000008e-02
-2.730279999999999929e-01 -7.961500000000000243e-01 1.224309999999999982e-01
3.311140000000000194e-01 5.824920000000000098e-01 1.224309999999999982e-01
-3.357390000000000096e-01 1.264019999999999866e-01 -1.265380000000000116e-01
1.276619999999999977e-01 -8.593960000000000488e-01 -4.804300000000000237e-02
3.443510000000000182e-01 -6.449679999999999858e-01 -9.151399999999999813e-02
-7.859260000000000135e-01 -8.480400000000000438e-02 1.224309999999999982e-01
-8.332969999999999544e-01 -5.239399999999999613e-01 5.169699999999999990e-02
7.612470000000000070e-01 3.461799999999999877e-01 -1.260290000000000021e-01
-8.539820000000000189e-01 1.113699999999999968e-01 -1.258009999999999962e-01
5.613719999999999821e-01 -4.972719999999999918e-01 1.224309999999999982e-01
-3.627130000000000076e-01 6.447939999999999783e-01 1.224309999999999982e-01
3.490710000000000202e-01 -6.319169999999999510e-01 -1.259280000000000121e-01
7.205420000000000158e-01 4.577620000000000022e-01 1.909800000000000039e-02
-3.286649999999999849e-01 -8.304129999999999567e-01 1.224129999999999940e-01
5.617050000000000098e-01 4.457670000000000243e-01 1.224309999999999982e-01
2.828249999999999931e-01 -6.690509999999999513e-01 1.224309999999999982e-01
1.341620000000000035e-01 -8.262030000000000207e-01 1.224309999999999982e-01
9.801700000000000690e-02 -5.767219999999999569e-01 1.224309999999999982e-01
-3.746389999999999998e-01 8.492410000000000236e-01 -9.305700000000000083e-02
2.274519999999999875e-01 -7.470000000000000511e-04 1.224309999999999982e-01
-3.970949999999999758e-01 2.952819999999999889e-01 1.224309999999999982e-01
2.193000000000000158e-02 -4.335950000000000082e-01 -1.266480000000000106e-01
-2.489500000000000046e-01 8.492410000000000236e-01 4.656300000000000022e-02
-5.639690000000000536e-01 -5.692110000000000225e-01 1.222499999999999976e-01
-5.641819999999999613e-01 -4.302799999999999681e-02 -1.264949999999999963e-01
-8.728099999999999747e-02 -1.314000000000000064e-02 -1.265850000000000031e-01
-4.589599999999999930e-02 4.677310000000000079e-01 -1.265840000000000021e-01
2.477590000000000070e-01 -9.247800000000000464e-02 1.224309999999999982e-01
-8.234249999999999625e-01 8.019900000000000639e-02 -1.260979999999999879e-01
3.640329999999999955e-01 2.819999999999999937e-02 -1.265840000000000021e-01
5.761000000000000149e-02 -4.222299999999999665e-02 -1.265830000000000011e-01
8.507820000000000382e-01 -3.901020000000000043e-01 -6.733799999999999508e-02
-2.518360000000000043e-01 -5.546860000000000124e-01 -1.266440000000000066e-01
8.507820000000000382e-01 4.770400000000000335e-02 -9.532200000000000395e-02
-8.554640000000000022e-01 -4.997610000000000108e-01 -2.374300000000000022e-02
-5.320240000000000524e-01 -6.338679999999999870e-01 1.152310000000000001e-01
-8.575650000000000217e-01 -2.516799999999999940e-02 1.201710000000000000e-01
2.021449999999999914e-01 -4.687220000000000275e-01 1.224309999999999982e-01
6.945300000000000085e-02 -1.586909999999999987e-01 1.224309999999999982e-01
8.382749999999999924e-01 -1.983119999999999883e-01 1.222530000000000006e-01
1.721489999999999965e-01 3.205999999999999822e-02 1.224309999999999982e-01
-5.265069999999999473e-01 6.698899999999999855e-01 -1.936999999999999920e-03
3.481700000000000073e-02 -8.323760000000000048e-01 -1.260789999999999966e-01
7.277160000000000295e-01 8.268300000000000649e-02 1.224309999999999982e-01
-7.157719999999999638e-01 -4.340109999999999801e-01 6.029899999999999843e-02
-2.827770000000000006e-01 -8.593960000000000488e-01 7.206799999999999318e-02
2.275850000000000095e-01 -1.068019999999999942e-01 -1.265830000000000011e-01
-4.950950000000000073e-01 8.474850000000000438e-01 -1.158119999999999983e-01
-8.578550000000000342e-01 -3.984329999999999816e-01 3.690000000000000138e-03
-4.944799999999999751e-01 -6.848469999999999835e-01 1.224309999999999982e-01
2.085300000000000001e-02 -8.510180000000000522e-01 1.221959999999999991e-01
3.080959999999999810e-01 2.246340000000000003e-01 1.224309999999999982e-01
-8.010680000000000023e-01 -1.310379999999999878e-01 -1.260979999999999879e-01
3.600349999999999939e-01 4.426470000000000127e-01 -1.266249999999999876e-01
3.856300000000000006e-02 -8.591259999999999453e-01 1.203899999999999970e-01
4.103970000000000118e-01 -7.657800000000000162e-01 -3.960999999999999938e-02
-2.102439999999999864e-01 -4.606100000000000194e-01 1.224309999999999982e-01
-6.557209999999999983e-01 -3.426759999999999806e-01 3.916599999999999943e-02
6.746799999999999464e-01 -2.103820000000000134e-01 -1.260979999999999879e-01
2.581689999999999818e-01 7.152579999999999494e-01 -1.260979999999999879e-01
8.507390000000000230e-01 -3.543810000000000016e-01 9.755999999999999395e-02
3.411279999999999868e-01 -3.389380000000000170e-01 -1.265330000000000066e-01
6.206380000000000230e-01 2.949829999999999952e-01 1.224309999999999982e-01
5.195849999999999635e-01 -6.733029999999999848e-01 -7.383900000000000186e-02
3.138029999999999986e-01 1.583670000000000078e-01 -1.265799999999999981e-01
7.931890000000000329e-01 3.958630000000000204e-01 -1.260979999999999879e-01
8.507820000000000382e-01 -4.321760000000000046e-01 7.536600000000000243e-02
-4.755710000000000215e-01 5.836259999999999781e-01 -1.260979999999999879e-01
2.570500000000000007e-01 6.668479999999999963e-01 -1.260979999999999879e-01
7.236099999999999477e-02 -2.246549999999999936e-01 -1.265979999999999883e-01
6.676700000000000690e-02 -8.147450000000000525e-01 1.224309999999999982e-01
-6.094279999999999697e-01 5.319829999999999837e-01 -3.438599999999999990e-02
8.457970000000000210e-01 4.460939999999999905e-01 1.221779999999999949e-01
8.507820000000000382e-01 -2.271450000000000136e-01 -5.646099999999999730e-02
-3.912999999999999812e-03 2.270280000000000076e-01 1.224309999999999982e-01
-2.355160000000000031e-01 5.446750000000000203e-01 1.224309999999999982e-01
6.945600000000000385e-02 8.151399999999999757e-01 1.224309999999999982e-01
4.860389999999999988e-01 -6.683499999999999996e-01 -1.260580000000000034e-01
-4.847529999999999895e-01 8.481630000000000003e-01 1.156169999999999976e-01
4.821119999999999850e-01 4.061899999999999955e-01 -1.266299999999999926e-01
-2.218539999999999957e-01 8.214799999999999880e-02 -1.265570000000000028e-01
9.715200000000000224e-02 -8.593960000000000488e-01 -4.002999999999999614e-03
2.075629999999999975e-01 -8.593960000000000488e-01 -2.375899999999999887e-02
-2.679920000000000080e-01 2.055629999999999957e-01 1.224309999999999982e-01
3.804640000000000244e-01 5.948259999999999659e-01 1.224309999999999982e-01
6.128139999999999699e-01 -5.380789999999999740e-01 -7.123599999999999377e-02
-3.708549999999999902e-01 7.497169999999999668e-01 -4.133799999999999975e-02
-3.674250000000000016e-01 -8.593960000000000488e-01 3.138599999999999723e-02
4.736999999999999891e-03 3.124350000000000183e-01 -1.265719999999999901e-01
3.303119999999999945e-01 2.281040000000000012e-01 1.224309999999999982e-01
6.707189999999999541e-01 -1.419090000000000074e-01 -1.261889999999999956e-01
4.060429999999999873e-01 3.114790000000000059e-01 -1.265360000000000096e-01
4.615679999999999783e-01 6.757459999999999578e-01 1.224309999999999982e-01
1.214620000000000005e-01 7.989899999999999780e-02 -1.265670000000000128e-01
-6.163710000000000022e-01 4.877830000000000221e-01 1.224309999999999982e-01
-3.297249999999999903e-01 -3.875819999999999821e-01 -1.266400000000000026e-01
5.302369999999999584e-01 3.739029999999999854e-01 -1.266160000000000063e-01
-6.070839999999999570e-01 1.379930000000000045e-01 -1.264750000000000041e-01
1.959079999999999988e-01 2.039110000000000089e-01 1.224309999999999982e-01
-6.806870000000000420e-01 -2.168039999999999967e-01 -1.260979999999999879e-01
-4.818000000000000234e-03 -2.163599999999999898e-02 -1.265779999999999961e-01
-1.810350000000000015e-01 6.816689999999999694e-01 1.224309999999999982e-01
1.882020000000000082e-01 3.704669999999999908e-01 -1.265789999999999971e-01
6.758969999999999700e-01 5.177500000000000435e-01 -1.137330000000000008e-01
5.281679999999999708e-01 1.637500000000000067e-02 1.224309999999999982e-01
-4.891820000000000057e-01 -8.588510000000000311e-01 1.106459999999999944e-01
2.949280000000000235e-01 2.711569999999999814e-01 1.224309999999999982e-01
-8.422100000000000419e-02 -3.386080000000000201e-01 -1.266390000000000016e-01
-3.852300000000000169e-02 4.899209999999999954e-01 -1.265850000000000031e-01
-4.392039999999999833e-01 3.651499999999999885e-02 1.224309999999999982e-01
-6.129069999999999796e-01 5.304910000000000458e-01 3.374800000000000022e-02
-3.446859999999999924e-01 -8.076590000000000158e-01 -1.260979999999999879e-01
2.552650000000000197e-01 -2.017100000000000004e-01 1.224309999999999982e-01
6.138489999999999780e-01 5.271959999999999980e-01 -1.159710000000000046e-01
2.235570000000000057e-01 -8.593960000000000488e-01 8.270800000000000374e-02
8.506660000000000332e-01 1.949049999999999949e-01 1.052970000000000017e-01
-5.021830000000000460e-01 2.392350000000000032e-01 1.224309999999999982e-01
-1.955290000000000084e-01 3.634249999999999980e-01 -1.265229999999999966e-01
-3.628259999999999819e-01 1.141000000000000000e-02 -1.265390000000000126e-01
-5.532989999999999853e-01 -1.283229999999999926e-01 -1.265610000000000068e-01
-3.839460000000000095e-01 -2.297770000000000090e-01 1.224309999999999982e-01
-8.578350000000000142e-01 2.383659999999999946e-01 -9.859099999999999808e-02
-3.160950000000000149e-01 7.474229999999999485e-01 -1.260979999999999879e-01
2.522500000000000089e-02 3.913300000000000112e-02 1.224309999999999982e-01
2.413770000000000082e-01 -7.525269999999999460e-01 -1.260979999999999879e-01
-1.795009999999999939e-01 -1.019430000000000058e-01 -1.265699999999999881e-01
-1.931839999999999946e-01 4.939919999999999867e-01 -1.266049999999999953e-01
-3.778909999999999769e-01 7.976239999999999997e-01 -1.260979999999999879e-01
-6.346990000000000132e-01 -5.332019999999999538e-01 9.973899999999999433e-02
2.538139999999999841e-01 5.397729999999999473e-01 -1.266249999999999876e-01
6.804740000000000233e-01 2.051669999999999883e-01 -1.260979999999999879e-01
3.695069999999999744e-01 8.475139999999999896e-01 1.221659999999999968e-01
-8.097729999999999650e-01 -1.219790000000000041e-01 1.224309999999999982e-01
-4.553059999999999885e-01 6.223229999999999595e-01 -1.259450000000000014e-01
-2.864700000000000024e-01 -1.520209999999999895e-01 -1.265820000000000001e-01
-5.264839999999999520e-01 -7.771449999999999747e-01 -9.658300000000000218e-02
9.703299999999999426e-02 -4.589139999999999886e-01 -1.266269999999999896e-01
-4.301289999999999836e-01 -4.429089999999999971e-01 1.224309999999999982e-01
-4.821239999999999970e-01 -7.780860000000000554e-01 1.224309999999999982e-01
-6.221510000000000096e-01 -5.366199999999999859e-01 -7.575199999999999989e-02
2.690600000000000214e-01 2.785650000000000071e-01 -1.266049999999999953e-01
4.884479999999999933e-01 -8.408189999999999831e-01 -1.259379999999999944e-01
5.970360000000000111e-01 -4.184189999999999854e-01 1.224309999999999982e-01
8.112639999999999851e-01 -5.278000000000000469e-01 -8.158300000000000274e-02
-4.969830000000000081e-01 1.347820000000000129e-01 1.224309999999999982e-01
7.120309999999999695e-01 -8.123800000000000465e-02 1.224309999999999982e-01
8.507820000000000382e-01 3.615680000000000005e-01 -9.053100000000000036e-02
1.968679999999999874e-01 -1.041119999999999962e-01 1.224309999999999982e-01
-5.305980000000000141e-01 -6.395899999999999919e-01 -8.373099999999999987e-02
2.422070000000000056e-01 -8.593960000000000488e-01 6.785599999999999965e-02
7.289199999999999846e-02 -8.592070000000000540e-01 -1.169879999999999948e-01
-8.577080000000000259e-01 2.825829999999999731e-01 -1.096850000000000047e-01
7.639730000000000132e-01 -3.847140000000000004e-01 -1.260979999999999879e-01
-1.625290000000000068e-01 7.903550000000000297e-01 -1.260979999999999879e-01
1.604939999999999978e-01 -5.555830000000000490e-01 1.224309999999999982e-01
-3.955759999999999832e-01 -4.950490000000000168e-01 -1.266529999999999878e-01
-3.169299999999999895e-01 2.192979999999999929e-01 -1.264679999999999971e-01
7.155799999999999939e-01 -1.529890000000000139e-01 1.224309999999999982e-01
-5.714099999999999735e-01 1.095519999999999966e-01 -1.264460000000000028e-01
1.694080000000000030e-01 -8.593960000000000488e-01 8.304799999999999682e-02
-5.480969999999999454e-01 5.869309999999999805e-01 1.188209999999999961e-01
6.111980000000000190e-01 -2.658309999999999840e-01 1.224309999999999982e-01
-3.273639999999999883e-01 -8.508569999999999744e-01 1.222519999999999996e-01
7.750500000000000167e-01 1.319730000000000070e-01 -1.260979999999999879e-01
1.322689999999999977e-01 7.031939999999999857e-01 1.224309999999999982e-01
4.361579999999999901e-01 -6.313299999999999468e-02 -1.266009999999999913e-01
1.894309999999999883e-01 -9.295799999999999896e-02 -1.265809999999999991e-01
8.507820000000000382e-01 9.520599999999999896e-02 3.200000000000000153e-03
2.324400000000000077e-02 -6.137660000000000338e-01 1.224309999999999982e-01
-4.584300000000000042e-01 2.476599999999999982e-02 1.224309999999999982e-01
2.950130000000000252e-01 -1.777370000000000061e-01 -1.265660000000000118e-01
2.737959999999999838e-01 8.490379999999999594e-01 1.092680000000000040e-01
6.282759999999999456e-01 -6.422999999999999543e-02 -1.265950000000000131e-01
6.321100000000000330e-02 -2.391210000000000002e-01 1.224309999999999982e-01
5.320369999999999822e-01 5.054689999999999461e-01 1.224309999999999982e-01
2.397610000000000019e-01 -4.885530000000000150e-01 -1.266009999999999913e-01
5.194100000000000383e-01 7.500090000000000368e-01 -1.511000000000000017e-02
1.552419999999999911e-01 -1.867540000000000033e-01 1.224309999999999982e-01
-6.498270000000000435e-01 -4.607840000000000269e-01 -4.466400000000000231e-02
3.932149999999999812e-01 -3.837229999999999808e-01 -1.264909999999999923e-01
4.988440000000000096e-01 -4.686239999999999850e-01 -1.262409999999999921e-01
-8.578550000000000342e-01 -1.602159999999999973e-01 4.240499999999999825e-02
4.716540000000000177e-01 -4.019829999999999792e-01 -1.264899999999999913e-01
-8.248600000000000376e-02 -1.711119999999999863e-01 1.224309999999999982e-01
8.017799999999999927e-02 7.571620000000000017e-01 1.224309999999999982e-01
-2.840840000000000032e-01 7.930589999999999584e-01 -1.260979999999999879e-01
-6.048200000000000243e-01 -5.659200000000000341e-02 1.224309999999999982e-01
-5.676300000000000096e-02 -2.703760000000000052e-01 1.224309999999999982e-01
3.757480000000000264e-01 4.930039999999999978e-01 -1.266470000000000096e-01
-2.325919999999999932e-01 8.491499999999999604e-01 -1.056519999999999959e-01
-3.453809999999999936e-01 2.640699999999999992e-02 -1.265400000000000136e-01
-3.272209999999999841e-01 -5.174509999999999943e-01 -1.266400000000000026e-01
8.268799999999999484e-01 -5.236119999999999663e-01 -2.858899999999999983e-02
5.081600000000000006e-02 -6.564179999999999460e-01 1.224309999999999982e-01
-5.958649999999999780e-01 5.399279999999999635e-01 4.043200000000000266e-02
1.871349999999999958e-01 -4.662669999999999870e-01 -1.266089999999999993e-01
-8.511170000000000124e-01 3.055519999999999903e-01 -1.258370000000000044e-01
7.104399999999999604e-01 -3.767619999999999858e-01 1.224309999999999982e-01
2.450499999999999901e-01 -6.754019999999999468e-01 1.224309999999999982e-01
-8.318609999999999616e-01 -5.250310000000000255e-01 -2.473300000000000151e-02
-2.417169999999999874e-01 -2.606789999999999941e-01 1.224309999999999982e-01
8.507820000000000382e-01 -3.717480000000000229e-01 -5.579599999999999838e-02
7.238740000000000174e-01 -3.136669999999999736e-01 1.224309999999999982e-01
3.581449999999999911e-01 -1.002170000000000005e-01 1.224309999999999982e-01
-1.068989999999999940e-01 8.492410000000000236e-01 5.053799999999999959e-02
-6.289599999999999635e-01 3.055080000000000018e-01 -1.260979999999999879e-01
2.588179999999999925e-01 -3.914020000000000277e-01 1.224309999999999982e-01
8.167299999999999560e-01 5.160529999999999839e-01 -9.741299999999999959e-02
1.647969999999999990e-01 -5.000470000000000192e-01 1.224309999999999982e-01
4.599699999999999900e-01 8.491739999999999844e-01 -1.034090000000000009e-01
9.587600000000000289e-02 -2.764199999999999990e-02 1.224309999999999982e-01
4.668510000000000160e-01 2.855590000000000073e-01 1.224309999999999982e-01
-6.675410000000000510e-01 -3.368490000000000095e-01 3.359800000000000286e-02
-4.822989999999999777e-01 2.943230000000000013e-01 -1.264500000000000068e-01
-4.152799999999999825e-01 4.495210000000000039e-01 -1.264230000000000076e-01
5.194440000000000168e-01 -7.986299999999999510e-01 -8.927699999999999525e-02
5.456820000000000004e-01 4.086640000000000272e-01 -1.261680000000000024e-01
4.487220000000000097e-01 6.204539999999999500e-01 -1.260979999999999879e-01
4.926180000000000003e-01 -2.896199999999999886e-01 -1.265660000000000118e-01
4.813970000000000193e-01 -7.796079999999999677e-01 -1.260979999999999879e-01
-4.943609999999999949e-01 -5.875110000000000054e-01 1.224309999999999982e-01
-4.628669999999999729e-01 -6.451160000000000228e-01 -1.260979999999999879e-01
8.507820000000000382e-01 -1.023799999999999988e-01 7.385099999999999998e-02
-1.807870000000000033e-01 -5.867890000000000050e-01 -1.266460000000000086e-01
-3.283650000000000180e-01 6.161550000000000082e-01 1.224309999999999982e-01
-4.357249999999999734e-01 -6.523360000000000269e-01 1.224309999999999982e-01
8.489630000000000232e-01 -4.963790000000000147e-01 -8.136200000000000376e-02
-8.576679999999999859e-01 -2.118849999999999900e-01 -1.150999999999999940e-01
3.786640000000000006e-01 1.636950000000000072e-01 -1.265950000000000131e-01
1.121999999999999950e-03 8.039779999999999704e-01 -1.260979999999999879e-01
7.539360000000000506e-01 4.219669999999999810e-01 -9.496400000000000674e-02
8.078830000000000178e-01 6.070899999999999908e-02 1.224309999999999982e-01
6.232599999999999946e-02 6.609239999999999560e-01 1.224309999999999982e-01
-1.627400000000000027e-02 6.307989999999999986e-01 1.224309999999999982e-01
1.597030000000000116e-01 2.504609999999999892e-01 1.224309999999999982e-01
5.272750000000000492e-01 -6.257620000000000404e-01 7.827199999999999436e-02
7.943329999999999558e-01 -1.263209999999999888e-01 -1.260979999999999879e-01
8.363460000000000338e-01 5.068249999999999700e-01 8.313099999999999656e-02
-5.928029999999999688e-01 -6.088199999999999862e-02 1.224309999999999982e-01
2.446740000000000026e-01 6.738079999999999625e-01 1.224309999999999982e-01
5.540929999999999467e-01 5.686649999999999761e-01 -4.991999999999999910e-03
5.793509999999999494e-01 -4.743990000000000151e-01 -1.260979999999999879e-01
2.100480000000000125e-01 -6.617299999999999571e-02 1.224309999999999982e-01
3.495139999999999914e-01 -7.151060000000000194e-01 1.224309999999999982e-01
4.289169999999999927e-01 7.618000000000000327e-01 -1.260979999999999879e-01
6.647250000000000103e-01 4.675830000000000264e-01 1.224309999999999982e-01
6.358489999999999975e-01 -4.606799999999999784e-01 1.224309999999999982e-01
2.232290000000000108e-01 -6.848389999999999755e-01 1.224309999999999982e-01
-6.511529999999999818e-01 -5.300209999999999644e-01 1.972199999999999995e-02
-3.447709999999999941e-01 -3.907410000000000050e-01 -1.266400000000000026e-01
5.859509999999999996e-01 -5.512240000000000473e-01 -2.790600000000000025e-02
8.009039999999999493e-01 -4.254709999999999881e-01 1.224309999999999982e-01
-8.202500000000000346e-01 -5.266739999999999755e-01 3.381300000000000278e-02
-6.150970000000000049e-01 4.099659999999999971e-01 -1.260979999999999879e-01
-2.312499999999999972e-02 -3.164690000000000003e-01 1.224309999999999982e-01
-7.371339999999999559e-01 2.867540000000000089e-01 1.224309999999999982e-01
-1.762730000000000130e-01 8.253949999999999898e-01 -1.260380000000000111e-01
-5.956690000000000040e-01 -1.342270000000000130e-01 1.224309999999999982e-01
-4.460790000000000033e-01 6.507100000000000106e-01 6.016599999999999726e-02
3.421730000000000049e-01 -1.524480000000000002e-01 -1.265719999999999901e-01
-4.275059999999999971e-01 9.137800000000000089e-02 1.224309999999999982e-01
-6.601600000000000523e-02 3.533899999999999819e-01 -1.265709999999999891e-01
6.434149999999999592e-01 3.367749999999999910e-01 -1.063970000000000055e-01
-6.091879999999999518e-01 5.282890000000000086e-01 -1.258900000000000019e-01
4.427909999999999902e-01 -8.097699999999999898e-01 1.224309999999999982e-01
-4.185860000000000136e-01 1.526659999999999962e-01 -1.265600000000000058e-01
2.044350000000000056e-01 -6.899819999999999842e-01 1.224309999999999982e-01
-8.578550000000000342e-01 -3.453789999999999916e-01 4.672500000000000264e-02
-8.361119999999999663e-01 -1.977260000000000129e-01 -1.260020000000000029e-01
2.976329999999999809e-01 8.014700000000000157e-01 -1.260979999999999879e-01
2.029009999999999980e-01 -5.953749999999999876e-01 -1.266039999999999943e-01
3.729799999999999782e-02 -5.174549999999999983e-01 1.224309999999999982e-01
6.486480000000000024e-01 -5.291799999999999837e-01 -8.737399999999999334e-02
7.011880000000000335e-01 3.232599999999999918e-01 3.876099999999999685e-02
-2.178869999999999973e-01 3.346120000000000205e-01 1.224309999999999982e-01
-5.686000000000000082e-02 -6.664179999999999549e-01 1.224309999999999982e-01
-3.556369999999999809e-01 9.567299999999999416e-02 1.224309999999999982e-01
5.269369999999999887e-01 -1.756350000000000133e-01 1.224309999999999982e-01
-6.918339999999999490e-01 4.392700000000000077e-02 -1.261079999999999979e-01
3.295850000000000168e-01 4.802000000000000018e-02 1.224309999999999982e-01
-3.283980000000000232e-01 -5.951999999999999513e-01 -1.264250000000000096e-01
-8.280729999999999480e-01 -9.434900000000000231e-02 -1.260449999999999904e-01
6.890720000000000178e-01 4.658880000000000243e-01 -6.670399999999999940e-02
-6.688140000000000196e-01 3.799130000000000007e-01 -1.260979999999999879e-01
7.624959999999999516e-01 2.917390000000000261e-01 -1.260979999999999879e-01
1.810000000000000150e-02 7.171800000000000397e-01 1.224309999999999982e-01
8.505869999999999820e-01 2.769869999999999832e-01 -1.169010000000000049e-01
-7.276580000000000270e-01 5.178690000000000238e-01 -1.756100000000000022e-02
3.563180000000000236e-01 -8.593960000000000488e-01 8.967100000000000071e-02
-4.445169999999999955e-01 1.411939999999999862e-01 -1.265350000000000086e-01
-1.401439999999999908e-01 7.528899999999999482e-02 -1.265650000000000108e-01
-8.542149999999999466e-01 2.089630000000000098e-01 -1.257780000000000009e-01
7.161189999999999500e-01 3.272789999999999866e-01 -3.246500000000000080e-02
5.566889999999999894e-01 -5.767229999999999857e-01 9.874600000000000044e-02
8.506160000000000387e-01 1.658799999999999997e-01 -1.138020000000000004e-01
-8.128720000000000390e-01 -2.361769999999999980e-01 1.224309999999999982e-01
-2.869800000000000129e-01 6.041710000000000136e-01 -1.264710000000000001e-01
-2.656899999999999887e-02 -5.117059999999999942e-01 -1.266470000000000096e-01
-1.413649999999999907e-01 -2.048510000000000053e-01 -1.266059999999999963e-01
3.295529999999999848e-01 -6.652200000000000335e-01 -8.344899999999999540e-02
5.255090000000000039e-01 5.194410000000000416e-01 -1.260979999999999879e-01
-2.854729999999999768e-01 3.473809999999999953e-01 -1.264780000000000071e-01
4.519110000000000071e-01 5.846970000000000223e-01 1.224309999999999982e-01
-5.288359999999999728e-01 -4.865949999999999998e-01 -1.260979999999999879e-01
-4.294879999999999809e-01 -1.391439999999999899e-01 1.224309999999999982e-01
-3.331239999999999757e-01 3.163099999999999801e-01 -1.265689999999999871e-01
9.286999999999999422e-02 6.362659999999999982e-01 -1.264730000000000021e-01
-7.439329999999999554e-01 5.481999999999999894e-03 -1.260979999999999879e-01
-3.488640000000000074e-01 -5.862800000000000233e-01 1.224309999999999982e-01
-5.100270000000000081e-01 -6.279489999999999794e-01 -1.260300000000000031e-01
3.900150000000000006e-01 -8.562870000000000203e-01 1.221119999999999983e-01
4.579119999999999857e-01 -7.316019999999999746e-01 -1.124560000000000004e-01
-9.848400000000000210e-02 -5.231850000000000112e-01 1.224309999999999982e-01
7.661240000000000272e-01 -5.279190000000000271e-01 1.027959999999999985e-01
-5.593399999999999483e-01 5.707499999999999796e-01 1.107680000000000053e-01
8.080129999999999812e-01 -5.273179999999999534e-01 -1.169240000000000002e-01
-3.537830000000000141e-01 -4.726079999999999726e-01 1.224309999999999982e-01
5.575360000000000316e-01 1.600749999999999951e-01 1.224309999999999982e-01
8.507820000000000382e-01 1.688699999999999923e-02 -6.416299999999999781e-02
8.507820000000000382e-01 -2.066880000000000106e-01 -9.063799999999999635e-02
-4.613610000000000211e-01 7.254159999999999497e-01 -4.484199999999999992e-02
2.522639999999999882e-01 4.601279999999999815e-01 -1.266210000000000113e-01
2.622570000000000179e-01 5.311400000000000149e-02 -1.265689999999999871e-01
5.439699999999999536e-01 1.949430000000000052e-01 1.224309999999999982e-01
-5.557450000000000445e-01 -3.478419999999999845e-01 -1.266059999999999963e-01
-6.872899999999999843e-02 2.982529999999999903e-01 -1.265310000000000046e-01
8.042040000000000299e-01 9.681099999999999428e-02 1.224309999999999982e-01
7.115599999999999703e-01 -5.280240000000000489e-01 -5.119599999999999845e-02
3.157809999999999784e-01 -3.319289999999999741e-01 1.224309999999999982e-01
2.310580000000000134e-01 -7.503159999999999830e-01 1.224309999999999982e-01
4.660900000000000043e-01 -8.113759999999999861e-01 -1.260979999999999879e-01
1.067199999999999920e-02 1.118050000000000016e-01 1.224309999999999982e-01
-1.883869999999999989e-01 -1.830179999999999862e-01 -1.265999999999999903e-01
-8.198569999999999469e-01 4.365629999999999789e-01 -1.260979999999999879e-01
-2.343719999999999970e-01 -8.593960000000000488e-01 3.093800000000000022e-02
8.507820000000000382e-01 -3.448599999999999999e-01 -6.895999999999999353e-02
3.533209999999999962e-01 4.193029999999999813e-01 1.224309999999999982e-01
1.226799999999999974e-01 6.425999999999999768e-02 -1.265689999999999871e-01
-2.865360000000000129e-01 -8.593960000000000488e-01 4.816700000000000148e-02
-5.977999999999999980e-02 3.028600000000000181e-01 -1.265390000000000126e-01
-3.204270000000000174e-01 7.099239999999999995e-01 1.224309999999999982e-01
-6.736330000000000373e-01 -4.940329999999999999e-01 1.224309999999999982e-01
3.989800000000000013e-01 1.391700000000000055e-02 -1.265950000000000131e-01
4.241659999999999875e-01 -2.779320000000000124e-01 1.224309999999999982e-01
-1.057899999999999952e-01 -1.779689999999999883e-01 1.224309999999999982e-01
1.969140000000000057e-01 -2.249170000000000058e-01 1.224309999999999982e-01
-1.769739999999999924e-01 -2.199129999999999974e-01 1.224309999999999982e-01
-5.715900000000000425e-01 3.337089999999999779e-01 -1.263170000000000126e-01
-4.863640000000000185e-01 -3.176299999999999957e-02 -1.265229999999999966e-01
-5.667999999999999705e-01 1.706100000000000116e-01 -1.265249999999999986e-01
