1.585283428430557251e-01 2.332175225019454956e-01 1.219444498419761658e-01
1.435607671737670898e-01 2.134000211954116821e-01 1.226005852222442627e-01
1.401289701461791992e-01 2.518137693405151367e-01 1.231429502367973328e-01
1.258025765419006348e-01 2.325339019298553467e-01 1.235376223921775818e-01
-3.937167227268218994e-01 4.644746780395507812e-01 -1.280331909656524658e-01
-4.055239558219909668e-01 4.482938349246978760e-01 -1.271445602178573608e-01
-4.064428210258483887e-01 4.849024116992950439e-01 -1.269614696502685547e-01
-4.185727834701538086e-01 4.680016934871673584e-01 -1.260888874530792236e-01
1.092845126986503601e-01 -4.767202213406562805e-02 -1.277068257331848145e-01
9.922004491090774536e-02 -6.339920312166213989e-02 -1.271005123853683472e-01
9.886191040277481079e-02 -2.918239869177341461e-02 -1.265256851911544800e-01
8.783636987209320068e-02 -4.477172717452049255e-02 -1.246684417128562927e-01
-4.891057014465332031e-01 -8.168700933456420898e-01 1.025922372937202454e-01
-4.846628308296203613e-01 -8.142669200897216797e-01 1.264475584030151367e-01
-4.951253533363342285e-01 -7.963247895240783691e-01 1.168557032942771912e-01
-4.889252185821533203e-01 -7.939604520797729492e-01 1.395188570022583008e-01
4.923129379749298096e-01 -1.125614494085311890e-01 -1.309863626956939697e-01
4.754876494407653809e-01 -1.287353187799453735e-01 -1.262630671262741089e-01
4.773249030113220215e-01 -9.371191263198852539e-02 -1.280283331871032715e-01
4.615409374237060547e-01 -1.106080710887908936e-01 -1.229801476001739502e-01
-4.330587089061737061e-01 -7.550624012947082520e-01 1.178438514471054077e-01
-4.429022371768951416e-01 -7.704600095748901367e-01 1.222923919558525085e-01
-4.380158483982086182e-01 -7.339982986450195312e-01 1.219612658023834229e-01
-4.476275742053985596e-01 -7.508728504180908203e-01 1.255873590707778931e-01
-6.525620073080062866e-02 -7.671800851821899414e-01 1.184612661600112915e-01
-8.231875300407409668e-02 -7.823322415351867676e-01 1.199004650115966797e-01
-8.162186294794082642e-02 -7.458795309066772461e-01 1.223577484488487244e-01
-9.664972871541976929e-02 -7.630240917205810547e-01 1.232932135462760925e-01
5.481275171041488647e-02 7.156126499176025391e-01 1.184075847268104553e-01
4.042052850127220154e-02 6.986576914787292480e-01 1.216735765337944031e-01
4.667620360851287842e-02 7.361393570899963379e-01 1.217129603028297424e-01
3.190543875098228455e-02 7.186465263366699219e-01 1.254594326019287109e-01
-3.086187839508056641e-01 6.948577165603637695e-01 -1.293738931417465210e-01
-3.223519027233123779e-01 6.844263672828674316e-01 -1.190126687288284302e-01
-3.140481412410736084e-01 7.150685787200927734e-01 -1.281498372554779053e-01
-3.276754319667816162e-01 7.060475349426269531e-01 -1.165407374501228333e-01
8.625766634941101074e-01 -1.364179104566574097e-01 9.365887194871902466e-02
8.489682674407958984e-01 -1.383466273546218872e-01 1.159649044275283813e-01
8.499729037284851074e-01 -1.112103387713432312e-01 1.091593354940414429e-01
8.371524810791015625e-01 -1.135803163051605225e-01 1.292651295661926270e-01
5.222643017768859863e-01 7.858009934425354004e-01 -1.451232731342315674e-01
5.308333039283752441e-01 7.864776849746704102e-01 -1.222489029169082642e-01
5.144515633583068848e-01 8.011608719825744629e-01 -1.273944526910781860e-01
5.227518677711486816e-01 8.036767244338989258e-01 -1.059724092483520508e-01
8.652153015136718750e-01 2.457429170608520508e-01 -6.872576475143432617e-02
8.511453270912170410e-01 2.331758886575698853e-01 -5.675109848380088806e-02
8.492942452430725098e-01 2.641571164131164551e-01 -6.762523949146270752e-02
8.370358347892761230e-01 2.518178224563598633e-01 -5.145983025431632996e-02
4.991535246372222900e-01 -2.566587030887603760e-01 -1.336877793073654175e-01
4.826737344264984131e-01 -2.752120196819305420e-01 -1.320876479148864746e-01
4.912758469581604004e-01 -2.338765114545822144e-01 -1.296969056129455566e-01
4.730018973350524902e-01 -2.521370053291320801e-01 -1.265313178300857544e-01
-3.565841913223266602e-01 6.288374066352844238e-01 -9.012202732264995575e-03
-3.565249145030975342e-01 6.239470839500427246e-01 1.855925843119621277e-02
-3.611092567443847656e-01 6.388334035873413086e-01 1.305113453418016434e-02
-3.611443638801574707e-01 6.353724002838134766e-01 3.880781680345535278e-02
-3.082529269158840179e-02 -8.634812235832214355e-01 -5.961346626281738281e-02
-2.220336906611919403e-02 -8.645707368850708008e-01 -2.973134256899356842e-02
-4.601762071251869202e-02 -8.612599968910217285e-01 -3.591746464371681213e-02
-3.739508986473083496e-02 -8.621075749397277832e-01 -4.927745088934898376e-03
3.059619665145874023e-01 5.115543603897094727e-01 -1.316923648118972778e-01
2.940683364868164062e-01 4.948144853115081787e-01 -1.299998909235000610e-01
2.903942763805389404e-01 5.293392539024353027e-01 -1.295339614152908325e-01
2.786003053188323975e-01 5.118094682693481445e-01 -1.273840367794036865e-01
-4.026043415069580078e-01 -8.552613258361816406e-01 -1.292678266763687134e-01
-4.088736772537231445e-01 -8.644781708717346191e-01 -1.142138391733169556e-01
-4.172428846359252930e-01 -8.509328365325927734e-01 -1.239501535892486572e-01
-4.254522919654846191e-01 -8.620736598968505859e-01 -1.097063720226287842e-01
-5.781576633453369141e-01 1.681547313928604126e-01 -1.270948350429534912e-01
-5.899711251258850098e-01 1.539004296064376831e-01 -1.258146613836288452e-01
-5.933979749679565430e-01 1.850170940160751343e-01 -1.253745853900909424e-01
-6.057440638542175293e-01 1.709834188222885132e-01 -1.241831183433532715e-01
-1.764974594116210938e-01 -4.528854787349700928e-01 1.210850700736045837e-01
-1.872532367706298828e-01 -4.697500467300415039e-01 1.209224611520767212e-01
-1.846516728401184082e-01 -4.344135522842407227e-01 1.225021481513977051e-01
-1.955006122589111328e-01 -4.516452848911285400e-01 1.226322725415229797e-01
5.222281217575073242e-01 -7.466419935226440430e-01 -1.817635819315910339e-02
5.178226828575134277e-01 -7.490386366844177246e-01 1.284307427704334259e-02
5.143239498138427734e-01 -7.267216444015502930e-01 -8.296542800962924957e-04
5.096665620803833008e-01 -7.281181812286376953e-01 3.038095496594905853e-02
3.441027998924255371e-01 -6.506093144416809082e-01 -4.853703826665878296e-02
3.478333353996276855e-01 -6.601514220237731934e-01 -2.526107430458068848e-02
3.438413143157958984e-01 -6.448788046836853027e-01 -2.451910637319087982e-02
3.488417267799377441e-01 -6.538497805595397949e-01 -3.137039020657539368e-04
1.804921329021453857e-01 -2.050684988498687744e-01 -1.277160048484802246e-01
1.662195920944213867e-01 -2.254890948534011841e-01 -1.263699382543563843e-01
1.575089395046234131e-01 -1.870288848876953125e-01 -1.286308616399765015e-01
1.443719863891601562e-01 -2.073156237602233887e-01 -1.261479556560516357e-01
6.039351224899291992e-01 -8.188226073980331421e-02 -1.281726509332656860e-01
5.899770259857177734e-01 -1.007357016205787659e-01 -1.283041238784790039e-01
5.938155055046081543e-01 -6.192802265286445618e-02 -1.263282299041748047e-01
5.797399282455444336e-01 -8.115367591381072998e-02 -1.260986477136611938e-01
8.605514764785766602e-01 4.467546343803405762e-01 7.479631900787353516e-02
8.523001074790954590e-01 4.435606598854064941e-01 9.599624574184417725e-02
8.517019748687744141e-01 4.652088284492492676e-01 8.897674083709716797e-02
8.443611860275268555e-01 4.620844721794128418e-01 1.095836907625198364e-01
-4.050091803073883057e-01 6.468362808227539062e-01 3.398316726088523865e-02
-4.022427201271057129e-01 6.479620337486267090e-01 5.812073498964309692e-02
-4.193287193775177002e-01 6.609969139099121094e-01 5.348535627126693726e-02
-4.153121709823608398e-01 6.628559827804565430e-01 7.768242061138153076e-02
-8.585337400436401367e-01 2.477201074361801147e-01 9.520509839057922363e-02
-8.455570340156555176e-01 2.510046958923339844e-01 1.169596388936042786e-01
-8.650522232055664062e-01 2.669826149940490723e-01 1.046411693096160889e-01
-8.533926010131835938e-01 2.677318155765533447e-01 1.265209615230560303e-01
-1.241554990410804749e-01 3.806594908237457275e-01 -1.297156512737274170e-01
-1.405970603227615356e-01 3.679991662502288818e-01 -1.257848441600799561e-01
-1.384863257408142090e-01 4.010491371154785156e-01 -1.269312798976898193e-01
-1.557853519916534424e-01 3.876608312129974365e-01 -1.210679113864898682e-01
-5.208052396774291992e-01 -7.142576575279235840e-01 -6.816323846578598022e-03
-5.228568911552429199e-01 -7.164786458015441895e-01 1.861242018640041351e-02
-5.280351638793945312e-01 -6.959993243217468262e-01 1.084965933114290237e-02
-5.296223163604736328e-01 -6.976841688156127930e-01 3.593894094228744507e-02
-2.817820608615875244e-01 -5.406172871589660645e-01 -1.289117336273193359e-01
-2.951153218746185303e-01 -5.588766932487487793e-01 -1.278312951326370239e-01
-2.952288389205932617e-01 -5.204247832298278809e-01 -1.258109360933303833e-01
-3.092141747474670410e-01 -5.380511283874511719e-01 -1.251014620065689087e-01
-7.319343686103820801e-01 2.505623400211334229e-01 1.154651790857315063e-01
-7.463048100471496582e-01 2.313909828662872314e-01 1.178222596645355225e-01
-7.504245042800903320e-01 2.668606936931610107e-01 1.187149360775947571e-01
-7.650452256202697754e-01 2.470103204250335693e-01 1.205782368779182434e-01
-9.537690319120883942e-03 5.498890280723571777e-01 1.206347420811653137e-01
-2.142054401338100433e-02 5.332736968994140625e-01 1.211201921105384827e-01
-2.362711727619171143e-02 5.641543269157409668e-01 1.225918829441070557e-01
-3.501932322978973389e-02 5.478765368461608887e-01 1.224253401160240173e-01
7.081739902496337891e-01 -1.886271685361862183e-01 1.211203038692474365e-01
6.930562853813171387e-01 -2.060541063547134399e-01 1.246595531702041626e-01
6.954330801963806152e-01 -1.673276871442794800e-01 1.195432096719741821e-01
6.812451481819152832e-01 -1.865971535444259644e-01 1.221745088696479797e-01
-5.518563985824584961e-01 2.225552350282669067e-01 1.139367371797561646e-01
-5.730527043342590332e-01 2.110647410154342651e-01 1.246483027935028076e-01
-5.666787624359130859e-01 2.417359203100204468e-01 1.202199533581733704e-01
-5.878745913505554199e-01 2.298270761966705322e-01 1.307520121335983276e-01
1.449605971574783325e-01 -3.395049273967742920e-01 1.234522610902786255e-01
1.316462010145187378e-01 -3.615808486938476562e-01 1.262882053852081299e-01
1.397115290164947510e-01 -3.151434063911437988e-01 1.255826056003570557e-01
1.269391626119613647e-01 -3.379004597663879395e-01 1.278951466083526611e-01
1.721142232418060303e-01 8.463276028633117676e-01 -6.232427805662155151e-02
1.831200718879699707e-01 8.487185835838317871e-01 -3.779904916882514954e-02
1.618585586547851562e-01 8.509821295738220215e-01 -3.851278126239776611e-02
1.728281825780868530e-01 8.530061841011047363e-01 -1.241572853177785873e-02
2.122094929218292236e-01 -3.945287168025970459e-01 1.238438412547111511e-01
2.018207609653472900e-01 -4.090166389942169189e-01 1.239445433020591736e-01
2.009520828723907471e-01 -3.797496259212493896e-01 1.229760795831680298e-01
1.878978610038757324e-01 -3.951575756072998047e-01 1.254143118858337402e-01
4.894716441631317139e-01 -8.579831123352050781e-01 -9.030476212501525879e-02
4.836432933807373047e-01 -8.683208227157592773e-01 -6.806447356939315796e-02
4.895063936710357666e-01 -8.476485610008239746e-01 -7.320889830589294434e-02
4.834058880805969238e-01 -8.565453886985778809e-01 -4.881089925765991211e-02
6.520206928253173828e-01 4.558673501014709473e-01 6.760244257748126984e-03
6.547845005989074707e-01 4.498057365417480469e-01 2.867361158132553101e-02
6.401081085205078125e-01 4.651478230953216553e-01 1.755698211491107941e-02
6.422564983367919922e-01 4.577154219150543213e-01 3.790105879306793213e-02
-3.630538880825042725e-01 -8.988981693983078003e-02 -1.320028156042098999e-01
-3.781367540359497070e-01 -1.063125804066658020e-01 -1.287812739610671997e-01
-3.820292949676513672e-01 -6.893233209848403931e-02 -1.293753683567047119e-01
-3.980706632137298584e-01 -8.707483112812042236e-02 -1.262134611606597900e-01
-2.843200266361236572e-01 -3.035195171833038330e-01 1.216216385364532471e-01
-2.985662519931793213e-01 -3.175353407859802246e-01 1.236361414194107056e-01
-3.056606948375701904e-01 -2.844119966030120850e-01 1.214963123202323914e-01
-3.205382227897644043e-01 -2.980588674545288086e-01 1.243643909692764282e-01
2.434485852718353271e-01 -4.204641580581665039e-01 -1.294696331024169922e-01
2.308079302310943604e-01 -4.391879141330718994e-01 -1.271444410085678101e-01
2.333969473838806152e-01 -3.975816965103149414e-01 -1.283402740955352783e-01
2.201149016618728638e-01 -4.165386855602264404e-01 -1.255138367414474487e-01
3.066006600856781006e-01 2.969294786453247070e-01 1.208114326000213623e-01
2.957061827182769775e-01 2.832971215248107910e-01 1.206446141004562378e-01
2.994144558906555176e-01 3.139828443527221680e-01 1.235347613692283630e-01
2.884407639503479004e-01 3.001410663127899170e-01 1.234336346387863159e-01
5.866003036499023438e-01 1.980116218328475952e-01 -1.326254755258560181e-01
5.719254612922668457e-01 1.823210269212722778e-01 -1.272146552801132202e-01
5.754588246345520020e-01 2.156820446252822876e-01 -1.284442096948623657e-01
5.606142282485961914e-01 2.007319778203964233e-01 -1.229286715388298035e-01
8.588020801544189453e-01 -5.515042692422866821e-02 9.483376145362854004e-02
8.494470715522766113e-01 -5.725359544157981873e-02 1.170343607664108276e-01
8.496554493904113770e-01 -3.747299313545227051e-02 1.089460253715515137e-01
8.396916985511779785e-01 -4.022538289427757263e-02 1.299726665019989014e-01
1.756888329982757568e-01 8.094975948333740234e-01 -1.365204751491546631e-01
1.507685184478759766e-01 8.077483773231506348e-01 -1.277575194835662842e-01
1.484868526458740234e-01 8.196311593055725098e-01 -1.261538267135620117e-01
1.332385092973709106e-01 8.209619522094726562e-01 -1.112207323312759399e-01
-3.071651756763458252e-01 3.086050972342491150e-02 1.224864050745964050e-01
-3.176695704460144043e-01 1.158043928444385529e-02 1.242724359035491943e-01
-3.216585218906402588e-01 4.729623347520828247e-02 1.220543682575225830e-01
-3.328642249107360840e-01 3.075521625578403473e-02 1.239551305770874023e-01
-5.078148841857910156e-01 1.584108024835586548e-01 1.198455169796943665e-01
-5.196657180786132812e-01 1.435939073562622070e-01 1.218752712011337280e-01
-5.201724767684936523e-01 1.735164672136306763e-01 1.213215291500091553e-01
-5.336122512817382812e-01 1.596015095710754395e-01 1.248137578368186951e-01
-1.745622903108596802e-01 -1.165545433759689331e-01 1.195480301976203918e-01
-1.879640370607376099e-01 -1.298169195652008057e-01 1.217756047844886780e-01
-1.832853406667709351e-01 -9.808378666639328003e-02 1.236005276441574097e-01
-1.959911435842514038e-01 -1.130046173930168152e-01 1.246119141578674316e-01
-8.489492535591125488e-01 -1.216315925121307373e-01 -1.066235452890396118e-01
-8.567488789558410645e-01 -1.272649317979812622e-01 -8.607915043830871582e-02
-8.582770228385925293e-01 -1.096901223063468933e-01 -8.918951451778411865e-02
-8.634271025657653809e-01 -1.138005852699279785e-01 -6.356307864189147949e-02
-6.432144641876220703e-01 4.987743794918060303e-01 -1.318757385015487671e-01
-6.516795158386230469e-01 4.956957101821899414e-01 -1.244300082325935364e-01
-6.566787958145141602e-01 5.047281384468078613e-01 -1.247298121452331543e-01
-6.605742573738098145e-01 5.067964196205139160e-01 -1.123293414711952209e-01
5.191484093666076660e-01 7.511811256408691406e-01 -9.256792813539505005e-02
5.220809578895568848e-01 7.471953034400939941e-01 -6.773518025875091553e-02
5.141109228134155273e-01 7.703799605369567871e-01 -7.942471653223037720e-02
5.169793367385864258e-01 7.660394310951232910e-01 -5.522892251610755920e-02
-6.535692214965820312e-01 3.823646008968353271e-01 1.191880702972412109e-01
-6.659163832664489746e-01 3.648053705692291260e-01 1.212934255599975586e-01
-6.660258173942565918e-01 4.022825956344604492e-01 1.218774616718292236e-01
-6.779505610466003418e-01 3.852061331272125244e-01 1.242182552814483643e-01
3.396453857421875000e-01 -5.955023765563964844e-01 -1.305169314146041870e-01
3.307062387466430664e-01 -6.130824089050292969e-01 -1.223489120602607727e-01
3.320929110050201416e-01 -5.788387060165405273e-01 -1.290182918310165405e-01
3.231059610843658447e-01 -5.967075228691101074e-01 -1.236523315310478210e-01
4.070304930210113525e-01 -8.629644513130187988e-01 1.361919753253459930e-02
4.150217771530151367e-01 -8.644078373908996582e-01 3.888245671987533569e-02
3.948488831520080566e-01 -8.540173172950744629e-01 3.988956660032272339e-02
4.033279716968536377e-01 -8.535864353179931641e-01 6.531761586666107178e-02
-2.087037563323974609e-01 -7.677230238914489746e-01 -1.303483843803405762e-01
-2.185870260000228882e-01 -7.832635045051574707e-01 -1.265439242124557495e-01
-2.207649499177932739e-01 -7.503595948219299316e-01 -1.284679919481277466e-01
-2.316877692937850952e-01 -7.667211890220642090e-01 -1.252592206001281738e-01
7.563576102256774902e-02 6.269081234931945801e-01 1.190463900566101074e-01
6.376417726278305054e-02 6.133163571357727051e-01 1.204540729522705078e-01
7.131409645080566406e-02 6.454182863235473633e-01 1.220777481794357300e-01
5.839668586850166321e-02 6.317105889320373535e-01 1.242518946528434753e-01
2.643482685089111328e-01 -5.456415414810180664e-01 1.204510331153869629e-01
2.538389265537261963e-01 -5.615828633308410645e-01 1.210699677467346191e-01
2.564509809017181396e-01 -5.257486104965209961e-01 1.230163201689720154e-01
2.448800504207611084e-01 -5.423913002014160156e-01 1.238136515021324158e-01
-8.102477788925170898e-01 2.163394838571548462e-01 -1.336398869752883911e-01
-8.250324130058288574e-01 2.079916596412658691e-01 -1.238433495163917542e-01
-8.165597915649414062e-01 2.351576685905456543e-01 -1.255234479904174805e-01
-8.314140439033508301e-01 2.257635444402694702e-01 -1.162271425127983093e-01
-5.658275485038757324e-01 -2.252081185579299927e-01 -1.279519349336624146e-01
-5.773996114730834961e-01 -2.412950992584228516e-01 -1.273619532585144043e-01
-5.776768326759338379e-01 -2.080513536930084229e-01 -1.260574162006378174e-01
-5.887903571128845215e-01 -2.246472537517547607e-01 -1.255900710821151733e-01
-8.348628878593444824e-01 -3.172104358673095703e-01 1.119021624326705933e-01
-8.208999037742614746e-01 -3.184204995632171631e-01 1.244855895638465881e-01
-8.476354479789733887e-01 -3.036350905895233154e-01 1.164236590266227722e-01
-8.291322588920593262e-01 -2.997238636016845703e-01 1.294180303812026978e-01
5.059882998466491699e-01 6.348241865634918213e-02 1.210631504654884338e-01
4.959290623664855957e-01 4.904992878437042236e-02 1.217653676867485046e-01
4.977291226387023926e-01 7.860448211431503296e-02 1.237928196787834167e-01
4.877325892448425293e-01 6.412947922945022583e-02 1.246176213026046753e-01
8.541942834854125977e-01 -1.427643299102783203e-01 -1.804247684776782990e-02
8.506971597671508789e-01 -1.444381773471832275e-01 7.835108786821365356e-03
8.488829731941223145e-01 -1.263841390609741211e-01 -5.560620687901973724e-03
8.447021245956420898e-01 -1.276416331529617310e-01 2.082335948944091797e-02
-5.167294740676879883e-01 5.402859449386596680e-01 -1.350423395633697510e-01
-5.343583226203918457e-01 5.266521573066711426e-01 -1.299489587545394897e-01
-5.260214805603027344e-01 5.560618042945861816e-01 -1.261914521455764771e-01
-5.441561341285705566e-01 5.433431267738342285e-01 -1.192785501480102539e-01
1.825984120368957520e-01 -7.289092987775802612e-02 1.189669072628021240e-01
1.728308349847793579e-01 -8.635904639959335327e-02 1.190814301371574402e-01
1.688348948955535889e-01 -5.790748074650764465e-02 1.221335828304290771e-01
1.592613905668258667e-01 -7.142759114503860474e-02 1.216397881507873535e-01
-4.002272337675094604e-02 5.122822523117065430e-01 -1.298768073320388794e-01
-5.652143061161041260e-02 4.992018342018127441e-01 -1.253452152013778687e-01
-4.628536477684974670e-02 5.318436026573181152e-01 -1.241730526089668274e-01
-6.336444616317749023e-02 5.185026526451110840e-01 -1.195346862077713013e-01
-4.283070564270019531e-01 -7.171394228935241699e-01 -1.294835656881332397e-01
-4.403127729892730713e-01 -7.305721044540405273e-01 -1.255213171243667603e-01
-4.402894973754882812e-01 -7.044975161552429199e-01 -1.284070611000061035e-01
-4.523950517177581787e-01 -7.185209393501281738e-01 -1.238290369510650635e-01
-3.963970243930816650e-01 8.473042249679565430e-01 3.495185449719429016e-02
-3.844608366489410400e-01 8.450865149497985840e-01 6.267397850751876831e-02
-4.116391241550445557e-01 8.464559912681579590e-01 6.217763200402259827e-02
-3.998669981956481934e-01 8.431336879730224609e-01 8.907502144575119019e-02
-3.331008553504943848e-01 3.075400590896606445e-01 -1.288137137889862061e-01
-3.451397418975830078e-01 2.914719283580780029e-01 -1.283962726593017578e-01
-3.442073464393615723e-01 3.270432949066162109e-01 -1.277841180562973022e-01
-3.573738932609558105e-01 3.123951256275177002e-01 -1.258753836154937744e-01
2.873679399490356445e-01 7.101305127143859863e-01 1.207388937473297119e-01
2.777201831340789795e-01 6.963626742362976074e-01 1.235250830650329590e-01
2.789182066917419434e-01 7.275267839431762695e-01 1.223438009619712830e-01
2.690516114234924316e-01 7.134375572204589844e-01 1.249279528856277466e-01
1.927819661796092987e-02 1.697750538587570190e-01 -1.284697204828262329e-01
7.485233712941408157e-03 1.513736546039581299e-01 -1.259056925773620605e-01
3.434315789490938187e-03 1.902015358209609985e-01 -1.285449266433715820e-01
-9.132511913776397705e-03 1.724334061145782471e-01 -1.261944472789764404e-01
-4.628256857395172119e-01 3.474787771701812744e-01 1.202394515275955200e-01
-4.791575372219085693e-01 3.298937976360321045e-01 1.234110072255134583e-01
-4.788325428962707520e-01 3.718407452106475830e-01 1.208263859152793884e-01
-4.942106008529663086e-01 3.519591093063354492e-01 1.231593117117881775e-01
-3.850877285003662109e-01 3.398622572422027588e-01 -1.329331099987030029e-01
-4.002288877964019775e-01 3.277773261070251465e-01 -1.271427720785140991e-01
-4.006133675575256348e-01 3.547743856906890869e-01 -1.293007284402847290e-01
-4.166822433471679688e-01 3.439659178256988525e-01 -1.223293989896774292e-01
-4.803097546100616455e-01 2.184856384992599487e-01 1.150770038366317749e-01
-4.992686808109283447e-01 2.054313570261001587e-01 1.227171421051025391e-01
-4.989459514617919922e-01 2.330013364553451538e-01 1.166615188121795654e-01
-5.198116302490234375e-01 2.210533320903778076e-01 1.268098354339599609e-01
-6.430990248918533325e-02 -8.782303929328918457e-01 8.953532576560974121e-02
-5.545620620250701904e-02 -8.662035465240478516e-01 1.143105253577232361e-01
-7.047165930271148682e-02 -8.562056422233581543e-01 1.090233623981475830e-01
-6.781567633152008057e-02 -8.475161194801330566e-01 1.298270225524902344e-01
8.523864746093750000e-01 -2.277603559195995331e-02 -3.865349665284156799e-02
8.504356741905212402e-01 -2.547439001500606537e-02 -1.073834486305713654e-02
8.478396534919738770e-01 -4.717096220701932907e-03 -1.822197064757347107e-02
8.457949161529541016e-01 -7.458051666617393494e-03 9.728262200951576233e-03
-5.413158237934112549e-02 -2.222038805484771729e-02 1.222766041755676270e-01
-6.755924224853515625e-02 -3.989505022764205933e-02 1.226773634552955627e-01
-6.617578864097595215e-02 -9.632539004087448120e-04 1.244065016508102417e-01
-8.083381503820419312e-02 -1.908794045448303223e-02 1.259578615427017212e-01
-1.315536201000213623e-01 -8.638075590133666992e-01 -6.366481631994247437e-02
-1.248616352677345276e-01 -8.642472028732299805e-01 -3.524070978164672852e-02
-1.491222530603408813e-01 -8.622027039527893066e-01 -4.646832495927810669e-02
-1.424053311347961426e-01 -8.629245162010192871e-01 -1.841421611607074738e-02
7.671862840652465820e-01 4.151395559310913086e-01 1.536743156611919403e-02
7.570451498031616211e-01 4.086940288543701172e-01 3.954188525676727295e-02
7.553496360778808594e-01 4.232753217220306396e-01 3.758051991462707520e-02
7.434419393539428711e-01 4.177434146404266357e-01 6.078549474477767944e-02
3.273508325219154358e-02 -1.250436808913946152e-02 1.207488551735877991e-01
2.032921463251113892e-02 -3.044791147112846375e-02 1.204522848129272461e-01
1.957943663001060486e-02 6.179123185575008392e-03 1.251587271690368652e-01
6.534097716212272644e-03 -1.159686502069234848e-02 1.249420568346977234e-01
-1.681999862194061279e-01 -8.568571209907531738e-01 -1.219415143132209778e-01
-1.668113470077514648e-01 -8.624849915504455566e-01 -1.052558943629264832e-01
-1.842949390411376953e-01 -8.507528901100158691e-01 -1.131654828786849976e-01
-1.860663443803787231e-01 -8.581158518791198730e-01 -9.921769797801971436e-02
-1.983354985713958740e-01 4.261551201343536377e-01 -1.312939673662185669e-01
-2.145905941724777222e-01 4.121162593364715576e-01 -1.252333670854568481e-01
-2.092185169458389282e-01 4.459726512432098389e-01 -1.234422177076339722e-01
-2.233839333057403564e-01 4.296351969242095947e-01 -1.214538887143135071e-01
1.267964839935302734e-01 -4.678267538547515869e-01 -1.318222880363464355e-01
1.124099642038345337e-01 -4.766373038291931152e-01 -1.270705610513687134e-01
1.191560178995132446e-01 -4.531341791152954102e-01 -1.286447793245315552e-01
1.036246418952941895e-01 -4.606792628765106201e-01 -1.225260794162750244e-01
-1.041827276349067688e-01 -4.495937824249267578e-01 1.229406818747520447e-01
-1.146981120109558105e-01 -4.637965261936187744e-01 1.233466938138008118e-01
-1.218512132763862610e-01 -4.295049607753753662e-01 1.224459484219551086e-01
-1.321501880884170532e-01 -4.437927007675170898e-01 1.219499334692955017e-01
2.102834358811378479e-02 -3.918851315975189209e-01 -1.288471966981887817e-01
5.384610500186681747e-03 -4.129559099674224854e-01 -1.259695142507553101e-01
2.885076683014631271e-03 -3.739743828773498535e-01 -1.256146878004074097e-01
-1.249685604125261307e-02 -3.958772718906402588e-01 -1.226780936121940613e-01
-6.379723548889160156e-01 -1.000330150127410889e-01 -1.266426593065261841e-01
-6.500128507614135742e-01 -1.185317784547805786e-01 -1.264751255512237549e-01
-6.591052412986755371e-01 -8.527942746877670288e-02 -1.237239912152290344e-01
-6.705369353294372559e-01 -1.034169197082519531e-01 -1.230587810277938843e-01
2.375525832176208496e-01 7.813916802406311035e-01 -1.270926445722579956e-01
2.181553244590759277e-01 7.722944021224975586e-01 -1.243260577321052551e-01
2.207504659891128540e-01 8.020097613334655762e-01 -1.262585222721099854e-01
2.071133553981781006e-01 7.966721653938293457e-01 -1.185567826032638550e-01
-1.551311910152435303e-01 -2.033745795488357544e-01 -1.334025114774703979e-01
-1.702084988355636597e-01 -2.210938632488250732e-01 -1.288572847843170166e-01
-1.673886030912399292e-01 -1.783841550350189209e-01 -1.276231557130813599e-01
-1.812007278203964233e-01 -1.992247104644775391e-01 -1.256149113178253174e-01
8.144208788871765137e-02 5.554047971963882446e-02 1.215338036417961121e-01
6.852686405181884766e-02 3.850442916154861450e-02 1.209744513034820557e-01
6.911946088075637817e-02 7.300292700529098511e-02 1.246225461363792419e-01
5.494289100170135498e-02 5.594535544514656067e-02 1.246689483523368835e-01
8.050473928451538086e-01 -3.742846101522445679e-02 -1.324941515922546387e-01
7.992303371429443359e-01 -5.562316626310348511e-02 -1.263186186552047729e-01
8.047016263008117676e-01 -1.923185214400291443e-02 -1.226400062441825867e-01
7.957692146301269531e-01 -3.905097395181655884e-02 -1.178942471742630005e-01
8.559244275093078613e-01 1.616163104772567749e-01 4.763535782694816589e-02
8.496492505073547363e-01 1.557569205760955811e-01 7.873189449310302734e-02
8.499092459678649902e-01 1.800560504198074341e-01 7.205922901630401611e-02
8.404019474983215332e-01 1.728750318288803101e-01 1.026414856314659119e-01
-5.285038352012634277e-01 6.289885044097900391e-01 -5.655282735824584961e-02
-5.348533987998962402e-01 6.220955252647399902e-01 -3.165740147233009338e-02
-5.327907204627990723e-01 6.450200080871582031e-01 -3.683659434318542480e-02
-5.380016565322875977e-01 6.385080814361572266e-01 -1.092013530433177948e-02
-5.291227698326110840e-01 -7.306700348854064941e-01 6.561708450317382812e-02
-5.143185853958129883e-01 -7.284700274467468262e-01 9.057383984327316284e-02
-5.455715060234069824e-01 -7.126343846321105957e-01 7.693534344434738159e-02
-5.262191891670227051e-01 -7.100776433944702148e-01 9.995740652084350586e-02
8.014923334121704102e-01 -1.951985619962215424e-02 1.145899370312690735e-01
7.880423665046691895e-01 -2.821817621588706970e-02 1.228046715259552002e-01
7.932801842689514160e-01 -2.540102927014231682e-03 1.218929439783096313e-01
7.800308465957641602e-01 -1.092651207000017166e-02 1.290639489889144897e-01
4.951512515544891357e-01 -8.602615594863891602e-01 4.864561930298805237e-02
4.855970442295074463e-01 -8.650348782539367676e-01 7.411248981952667236e-02
4.959537684917449951e-01 -8.444319367408752441e-01 6.859067082405090332e-02
4.866278469562530518e-01 -8.480848073959350586e-01 9.324484318494796753e-02
7.487074136734008789e-01 1.703646779060363770e-01 -1.252728402614593506e-01
7.372927069664001465e-01 1.517243981361389160e-01 -1.247453838586807251e-01
7.394787073135375977e-01 1.925288438796997070e-01 -1.258727163076400757e-01
7.275497317314147949e-01 1.734201163053512573e-01 -1.253177076578140259e-01
-1.256530880928039551e-01 5.307700634002685547e-01 -1.316164582967758179e-01
-1.397584527730941772e-01 5.157033801078796387e-01 -1.299079507589340210e-01
-1.389784663915634155e-01 5.549987554550170898e-01 -1.268017739057540894e-01
-1.523638814687728882e-01 5.390442013740539551e-01 -1.251261234283447266e-01
-7.590623497962951660e-01 5.138228535652160645e-01 -5.127168074250221252e-02
-7.468208670616149902e-01 5.135391354560852051e-01 -2.442786842584609985e-02
-7.731538414955139160e-01 5.191921591758728027e-01 -2.720696479082107544e-02
-7.604126930236816406e-01 5.185264945030212402e-01 9.831152856349945068e-04
-4.600833356380462646e-01 4.420392811298370361e-01 1.208086535334587097e-01
-4.748828411102294922e-01 4.205176830291748047e-01 1.230596080422401428e-01
-4.833129048347473145e-01 4.603414833545684814e-01 1.234019026160240173e-01
-4.972234666347503662e-01 4.399689435958862305e-01 1.249319687485694885e-01
-2.002470493316650391e-01 -5.051481127738952637e-01 1.220688968896865845e-01
-2.106667160987854004e-01 -5.202615857124328613e-01 1.220102161169052124e-01
-2.143843770027160645e-01 -4.917326271533966064e-01 1.241214871406555176e-01
-2.248843461275100708e-01 -5.077999234199523926e-01 1.242583543062210083e-01
3.919805213809013367e-02 -1.575966924428939819e-01 -1.284589469432830811e-01
2.654626220464706421e-02 -1.733579337596893311e-01 -1.267918348312377930e-01
2.273729071021080017e-02 -1.379121840000152588e-01 -1.289855539798736572e-01
9.640574455261230469e-03 -1.539923995733261108e-01 -1.270116865634918213e-01
-1.635030061006546021e-01 8.598442673683166504e-01 1.012237742543220520e-01
-1.700624674558639526e-01 8.412735462188720703e-01 1.168850213289260864e-01
-1.782036572694778442e-01 8.741727471351623535e-01 1.085425987839698792e-01
-1.856717169284820557e-01 8.557500839233398438e-01 1.253272294998168945e-01
-4.483396112918853760e-01 1.224381178617477417e-01 1.208676993846893311e-01
-4.595395028591156006e-01 1.055376231670379639e-01 1.223066151142120361e-01
-4.599351286888122559e-01 1.361420005559921265e-01 1.223837360739707947e-01
-4.717393219470977783e-01 1.198635473847389221e-01 1.240506619215011597e-01
-2.841116189956665039e-01 -8.612381219863891602e-01 -5.035183578729629517e-02
-2.740227282047271729e-01 -8.613576889038085938e-01 -2.801510691642761230e-02
-2.984858155250549316e-01 -8.561616539955139160e-01 -3.719040006399154663e-02
-2.867730557918548584e-01 -8.552284836769104004e-01 -1.231645233929157257e-02
3.156657218933105469e-01 1.916284561157226562e-01 1.193659901618957520e-01
3.029997348785400391e-01 1.738030314445495605e-01 1.195777207612991333e-01
2.992688417434692383e-01 2.055917978286743164e-01 1.217505484819412231e-01
2.864293456077575684e-01 1.875503063201904297e-01 1.219660788774490356e-01
-6.686600297689437866e-02 4.288863539695739746e-01 -1.302361190319061279e-01
-8.248994499444961548e-02 4.163028895854949951e-01 -1.285397112369537354e-01
-8.201848715543746948e-02 4.409482181072235107e-01 -1.264279931783676147e-01
-9.820541739463806152e-02 4.297802150249481201e-01 -1.254605799913406372e-01
-5.067625045776367188e-01 6.953786313533782959e-02 -1.261177957057952881e-01
-5.182127356529235840e-01 5.079356208443641663e-02 -1.260617822408676147e-01
-5.159685611724853516e-01 8.627675473690032959e-02 -1.237993091344833374e-01
-5.274978876113891602e-01 6.836546212434768677e-02 -1.237532645463943481e-01
-3.407128751277923584e-01 -3.754843026399612427e-02 1.199501156806945801e-01
-3.553924858570098877e-01 -5.854214727878570557e-02 1.222427636384963989e-01
-3.531045317649841309e-01 -1.854483038187026978e-02 1.250956952571868896e-01
-3.670641481876373291e-01 -3.872596845030784607e-02 1.276820451021194458e-01
-4.734767377376556396e-01 4.942915737628936768e-01 -1.304740160703659058e-01
-4.881470203399658203e-01 4.781659543514251709e-01 -1.291590332984924316e-01
-4.877209067344665527e-01 5.090076923370361328e-01 -1.255472451448440552e-01
-5.029783844947814941e-01 4.931358695030212402e-01 -1.239640340209007263e-01
1.839572638273239136e-01 4.605240821838378906e-01 -1.320466250181198120e-01
1.690109819173812866e-01 4.477725028991699219e-01 -1.267148852348327637e-01
1.746155917644500732e-01 4.743064045906066895e-01 -1.283411979675292969e-01
1.587273478507995605e-01 4.624386727809906006e-01 -1.215985715389251709e-01
4.191448688507080078e-01 -1.123869605362415314e-02 1.211972683668136597e-01
4.059633910655975342e-01 -2.879990637302398682e-02 1.230884194374084473e-01
4.064359366893768311e-01 3.924336284399032593e-03 1.233504340052604675e-01
3.936579525470733643e-01 -1.387842744588851929e-02 1.245643198490142822e-01
5.766158699989318848e-01 -3.302941024303436279e-01 1.192380487918853760e-01
5.656763911247253418e-01 -3.449761569499969482e-01 1.205306053161621094e-01
5.692058801651000977e-01 -3.105047941207885742e-01 1.227046176791191101e-01
5.573770403861999512e-01 -3.268623054027557373e-01 1.237934827804565430e-01
-1.669012010097503662e-01 6.945444345474243164e-01 -1.256200075149536133e-01
-1.788367033004760742e-01 6.786030530929565430e-01 -1.250886917114257812e-01
-1.849067360162734985e-01 7.131202220916748047e-01 -1.252293288707733154e-01
-1.966812610626220703e-01 6.980907320976257324e-01 -1.244608163833618164e-01
2.003956139087677002e-01 3.309162557125091553e-01 -1.300034523010253906e-01
1.890573799610137939e-01 3.141375184059143066e-01 -1.277137845754623413e-01
1.871481239795684814e-01 3.489324748516082764e-01 -1.278771907091140747e-01
1.756109744310379028e-01 3.316323161125183105e-01 -1.247603222727775574e-01
2.603644430637359619e-01 -4.399060308933258057e-01 1.204855367541313171e-01
2.469939291477203369e-01 -4.553759396076202393e-01 1.230555474758148193e-01
2.365614473819732666e-01 -4.292228221893310547e-01 1.221768632531166077e-01
2.252261787652969360e-01 -4.439063966274261475e-01 1.235506981611251831e-01
9.245309233665466309e-02 -1.437165439128875732e-01 -1.290000230073928833e-01
8.234045654535293579e-02 -1.635576933622360229e-01 -1.262977719306945801e-01
7.979770004749298096e-02 -1.255566179752349854e-01 -1.287976503372192383e-01
6.893889605998992920e-02 -1.435589790344238281e-01 -1.261173337697982788e-01
-4.375690519809722900e-01 -3.150798380374908447e-01 -1.285630166530609131e-01
-4.485551714897155762e-01 -3.299109339714050293e-01 -1.281130313873291016e-01
-4.515959024429321289e-01 -2.966469526290893555e-01 -1.264868378639221191e-01
-4.625211358070373535e-01 -3.125510215759277344e-01 -1.258489787578582764e-01
-4.873951077461242676e-01 2.338359318673610687e-02 1.233481541275978088e-01
-5.007253289222717285e-01 5.626712925732135773e-03 1.245193853974342346e-01
-5.035116076469421387e-01 4.314932227134704590e-02 1.240336671471595764e-01
-5.155050754547119141e-01 2.537349052727222443e-02 1.252828985452651978e-01
5.691033601760864258e-02 5.401025414466857910e-01 -1.273091286420822144e-01
4.473741725087165833e-02 5.251019001007080078e-01 -1.248240321874618530e-01
4.204656183719635010e-02 5.605958104133605957e-01 -1.260365843772888184e-01
3.006116114556789398e-02 5.452922582626342773e-01 -1.234023049473762512e-01
-7.519125938415527344e-01 -5.222059488296508789e-01 -5.552797392010688782e-02
-7.499576807022094727e-01 -5.254733562469482422e-01 -2.799984253942966461e-02
-7.734182476997375488e-01 -5.147778987884521484e-01 -4.612950235605239868e-02
-7.720717191696166992e-01 -5.187188386917114258e-01 -1.822596974670886993e-02
-2.597007751464843750e-01 -5.483581423759460449e-01 1.206728667020797729e-01
-2.704062461853027344e-01 -5.634570717811584473e-01 1.220813393592834473e-01
-2.701713442802429199e-01 -5.344497561454772949e-01 1.223004683852195740e-01
-2.810340523719787598e-01 -5.503906607627868652e-01 1.233373731374740601e-01
2.089096978306770325e-02 6.717829704284667969e-01 -1.281893551349639893e-01
5.266994703561067581e-03 6.506398320198059082e-01 -1.248144581913948059e-01
1.084192004054784775e-02 6.936278343200683594e-01 -1.268360614776611328e-01
-4.953563679009675980e-03 6.727604866027832031e-01 -1.235077083110809326e-01
-4.134421795606613159e-02 -5.587219595909118652e-01 1.188749000430107117e-01
-5.414514243602752686e-02 -5.764679908752441406e-01 1.183702126145362854e-01
-5.053864791989326477e-02 -5.371958017349243164e-01 1.219717338681221008e-01
-6.318585574626922607e-02 -5.549385547637939453e-01 1.220019310712814331e-01
8.685677647590637207e-01 -2.110043764114379883e-01 9.152439981698989868e-02
8.556277155876159668e-01 -2.140906751155853271e-01 1.127584874629974365e-01
8.609339594841003418e-01 -1.851184666156768799e-01 1.074414923787117004e-01
8.447799086570739746e-01 -1.889408379793167114e-01 1.267037540674209595e-01
-2.723286151885986328e-01 -1.937450021505355835e-01 -1.278464943170547485e-01
-2.878229320049285889e-01 -2.153510451316833496e-01 -1.247733831405639648e-01
-2.871069610118865967e-01 -1.706869453191757202e-01 -1.277659088373184204e-01
-3.021962940692901611e-01 -1.924382597208023071e-01 -1.237794458866119385e-01
8.118617534637451172e-01 -5.346035957336425781e-01 -8.392652869224548340e-02
8.052319288253784180e-01 -5.415969491004943848e-01 -6.279753148555755615e-02
8.122063279151916504e-01 -5.264497995376586914e-01 -6.630269438028335571e-02
8.054098486900329590e-01 -5.319877862930297852e-01 -4.457680508494377136e-02
8.557153344154357910e-01 2.625307440757751465e-01 -1.250702887773513794e-01
8.412652611732482910e-01 2.476020902395248413e-01 -1.200520321726799011e-01
8.470513224601745605e-01 2.839184999465942383e-01 -1.224016323685646057e-01
8.328333497047424316e-01 2.683074474334716797e-01 -1.166242435574531555e-01
-5.671846866607666016e-01 -3.671513199806213379e-01 -1.271235495805740356e-01
-5.800727605819702148e-01 -3.807321190834045410e-01 -1.231296882033348083e-01
-5.811312198638916016e-01 -3.542265295982360840e-01 -1.267346441745758057e-01
-5.936437249183654785e-01 -3.670792281627655029e-01 -1.208678185939788818e-01
7.263931035995483398e-01 4.577055573463439941e-01 1.155235692858695984e-01
7.102559804916381836e-01 4.434717893600463867e-01 1.239404380321502686e-01
7.154886722564697266e-01 4.771609604358673096e-01 1.202954277396202087e-01
6.992744207382202148e-01 4.618052244186401367e-01 1.279784590005874634e-01
-7.940323948860168457e-01 -5.344482660293579102e-01 5.438403785228729248e-02
-7.893887162208557129e-01 -5.348570346832275391e-01 8.352246135473251343e-02
-8.101686239242553711e-01 -5.202179551124572754e-01 7.546442747116088867e-02
-8.050526976585388184e-01 -5.200354456901550293e-01 1.015204191207885742e-01
8.155235052108764648e-01 -5.589043721556663513e-02 1.084367260336875916e-01
8.040574789047241211e-01 -5.899860337376594543e-02 1.266502588987350464e-01
8.101708292961120605e-01 -3.921407833695411682e-02 1.243369951844215393e-01
7.972721457481384277e-01 -4.478309676051139832e-02 1.376978307962417603e-01
-2.339099049568176270e-01 -4.019563496112823486e-01 -1.305955499410629272e-01
-2.495173066854476929e-01 -4.186752438545227051e-01 -1.286045610904693604e-01
-2.471945434808731079e-01 -3.784922361373901367e-01 -1.274416446685791016e-01
-2.623356282711029053e-01 -3.956702053546905518e-01 -1.244379431009292603e-01
-4.511453509330749512e-01 -3.696117699146270752e-01 -1.271954923868179321e-01
-4.637128710746765137e-01 -3.862269818782806396e-01 -1.269923299551010132e-01
-4.656029045581817627e-01 -3.507285416126251221e-01 -1.246693208813667297e-01
-4.781054854393005371e-01 -3.677036464214324951e-01 -1.244174838066101074e-01
7.387428283691406250e-01 3.357588052749633789e-01 1.097829714417457581e-01
7.214817404747009277e-01 3.224364519119262695e-01 1.160319894552230835e-01
7.203150391578674316e-01 3.625749647617340088e-01 1.104041337966918945e-01
7.060214281082153320e-01 3.505331575870513916e-01 1.174367293715476990e-01
2.831182479858398438e-01 3.126180171966552734e-01 -1.272310465574264526e-01
2.729131579399108887e-01 2.991667389869689941e-01 -1.267717480659484863e-01
2.743775844573974609e-01 3.317549228668212891e-01 -1.257117390632629395e-01
2.635107040405273438e-01 3.175849616527557373e-01 -1.249035149812698364e-01
-2.456515282392501831e-01 -6.742605566978454590e-01 1.223984733223915100e-01
-2.555362880229949951e-01 -6.884092688560485840e-01 1.229735612869262695e-01
-2.602561116218566895e-01 -6.582776308059692383e-01 1.219582557678222656e-01
-2.704672217369079590e-01 -6.721464395523071289e-01 1.225438565015792847e-01
5.183842778205871582e-01 -7.508103847503662109e-01 -8.016224950551986694e-02
5.157710909843444824e-01 -7.539292573928833008e-01 -5.644147098064422607e-02
5.186157822608947754e-01 -7.355861067771911621e-01 -6.656863540410995483e-02
5.156288743019104004e-01 -7.366400957107543945e-01 -3.880134969949722290e-02
1.226755529642105103e-01 2.905878424644470215e-01 -1.277654469013214111e-01
1.111699789762496948e-01 2.768594026565551758e-01 -1.265750974416732788e-01
1.103250309824943542e-01 3.078964054584503174e-01 -1.265079826116561890e-01
9.845610707998275757e-02 2.924568057060241699e-01 -1.253587305545806885e-01
5.312715768814086914e-01 -7.609086632728576660e-01 1.099219471216201782e-01
5.143784880638122559e-01 -7.701595425605773926e-01 1.303456127643585205e-01
5.185126066207885742e-01 -7.382079362869262695e-01 1.214573010802268982e-01
5.010979771614074707e-01 -7.486800551414489746e-01 1.403686106204986572e-01
-7.096248865127563477e-01 -4.930985867977142334e-01 -1.416936963796615601e-01
-7.194979786872863770e-01 -5.015792250633239746e-01 -1.216313689947128296e-01
-7.132690548896789551e-01 -4.776671826839447021e-01 -1.314445286989212036e-01
-7.256290316581726074e-01 -4.859624207019805908e-01 -1.127421930432319641e-01
-8.513117432594299316e-01 -1.748662143945693970e-01 -2.623679861426353455e-02
-8.545520305633544922e-01 -1.737008243799209595e-01 3.873305395245552063e-03
-8.588380813598632812e-01 -1.531768441200256348e-01 -1.370434183627367020e-02
-8.621190190315246582e-01 -1.536542326211929321e-01 1.682577654719352722e-02
-3.786861151456832886e-02 -7.914033532142639160e-01 -1.313317418098449707e-01
-4.145116358995437622e-02 -8.041625022888183594e-01 -1.204018369317054749e-01
-5.145617201924324036e-02 -7.739517688751220703e-01 -1.261650025844573975e-01
-6.102472916245460510e-02 -7.902516126632690430e-01 -1.194955334067344666e-01
6.067733168601989746e-01 1.783440560102462769e-01 -1.301692426204681396e-01
5.916986465454101562e-01 1.607095301151275635e-01 -1.263947784900665283e-01
5.948438644409179688e-01 1.962014734745025635e-01 -1.274825483560562134e-01
5.801568031311035156e-01 1.796853691339492798e-01 -1.224861368536949158e-01
2.940552830696105957e-01 -3.801588416099548340e-01 -1.286485642194747925e-01
2.818742394447326660e-01 -3.973345458507537842e-01 -1.285243183374404907e-01
2.775777578353881836e-01 -3.648627102375030518e-01 -1.266418993473052979e-01
2.648612260818481445e-01 -3.822831213474273682e-01 -1.260592192411422729e-01
-2.956086695194244385e-01 7.659972906112670898e-01 1.148410961031913757e-01
-3.112934827804565430e-01 7.491962909698486328e-01 1.227164566516876221e-01
-3.234088420867919922e-01 7.764918208122253418e-01 1.112549901008605957e-01
-3.386748433113098145e-01 7.598175406455993652e-01 1.224150657653808594e-01
6.286902725696563721e-02 -4.726448357105255127e-01 -1.319388449192047119e-01
4.810504242777824402e-02 -4.821159839630126953e-01 -1.266969591379165649e-01
5.114339292049407959e-02 -4.541896879673004150e-01 -1.282356828451156616e-01
3.658428415656089783e-02 -4.669725298881530762e-01 -1.232869103550910950e-01
4.128355979919433594e-01 -8.022404313087463379e-01 -1.318394094705581665e-01
3.937031030654907227e-01 -8.066933751106262207e-01 -1.263038814067840576e-01
4.025696218013763428e-01 -7.879310846328735352e-01 -1.244586706161499023e-01
3.818480670452117920e-01 -7.904874086380004883e-01 -1.191592812538146973e-01
2.089781016111373901e-01 4.388089179992675781e-01 -1.293719112873077393e-01
1.965168118476867676e-01 4.246231317520141602e-01 -1.269277185201644897e-01
1.963613480329513550e-01 4.536205828189849854e-01 -1.290149986743927002e-01
1.820503920316696167e-01 4.408152699470520020e-01 -1.246238201856613159e-01
2.786043584346771240e-01 6.720671057701110840e-01 1.210756897926330566e-01
2.692221999168395996e-01 6.593139767646789551e-01 1.227525994181632996e-01
2.617298066616058350e-01 6.840109229087829590e-01 1.214846596121788025e-01
2.520261406898498535e-01 6.719790101051330566e-01 1.233950704336166382e-01
3.209773898124694824e-01 -4.083889126777648926e-01 -1.266188472509384155e-01
3.089356124401092529e-01 -4.252082407474517822e-01 -1.259552687406539917e-01
3.097299635410308838e-01 -3.904103934764862061e-01 -1.255724132061004639e-01
2.977475523948669434e-01 -4.069996774196624756e-01 -1.254650205373764038e-01
-7.545026540756225586e-01 -1.637634038925170898e-01 1.189754605293273926e-01
-7.641394734382629395e-01 -1.783082634210586548e-01 1.201521009206771851e-01
-7.617083191871643066e-01 -1.509732902050018311e-01 1.209495961666107178e-01
-7.711693644523620605e-01 -1.661565005779266357e-01 1.229274794459342957e-01
-8.466657996177673340e-01 -2.413527667522430420e-02 -5.226317793130874634e-02
-8.531544208526611328e-01 -2.891893498599529266e-02 -2.339856512844562531e-02
-8.580407500267028809e-01 -1.464603934437036514e-03 -3.847686201333999634e-02
-8.629639744758605957e-01 -5.547028034925460815e-03 -9.665063582360744476e-03
-8.586648106575012207e-01 1.876775473356246948e-01 6.652802973985671997e-02
-8.464960455894470215e-01 1.889686435461044312e-01 9.130993485450744629e-02
-8.769176006317138672e-01 2.053103446960449219e-01 7.912243902683258057e-02
-8.627736568450927734e-01 2.078381180763244629e-01 1.026946157217025757e-01
5.849385261535644531e-01 -5.607718825340270996e-01 1.740394160151481628e-02
5.785129070281982422e-01 -5.674193501472473145e-01 3.695222735404968262e-02
5.877304673194885254e-01 -5.528354048728942871e-01 4.505594074726104736e-02
5.804247260093688965e-01 -5.572803020477294922e-01 6.581500172615051270e-02
-1.898826286196708679e-02 3.862299919128417969e-01 -1.308713704347610474e-01
-3.274969756603240967e-02 3.713584542274475098e-01 -1.282911747694015503e-01
-3.047660365700721741e-02 4.009876251220703125e-01 -1.287076771259307861e-01
-4.535471275448799133e-02 3.867906630039215088e-01 -1.255136132240295410e-01
-5.998939871788024902e-01 5.325258970260620117e-01 1.038638055324554443e-01
-6.119810342788696289e-01 5.176155567169189453e-01 1.157289221882820129e-01
-6.187011599540710449e-01 5.526059865951538086e-01 1.053648367524147034e-01
-6.310055851936340332e-01 5.385299324989318848e-01 1.176405400037765503e-01
4.953876435756683350e-01 -2.303009927272796631e-01 1.195173040032386780e-01
4.835380017757415771e-01 -2.471262067556381226e-01 1.207253038883209229e-01
4.803777635097503662e-01 -2.180642783641815186e-01 1.218294799327850342e-01
4.693457484245300293e-01 -2.341679632663726807e-01 1.228761821985244751e-01
-2.458939105272293091e-01 -8.959561586380004883e-02 1.229428201913833618e-01
-2.571035623550415039e-01 -1.083285287022590637e-01 1.235450580716133118e-01
