5.061822012066841125e-02 2.407089993357658386e-02 8.138041496276855469e-01
-9.696773439645767212e-02 -1.518738865852355957e-01 -2.201244831085205078e-01
-9.405454993247985840e-02 -1.527645885944366455e-01 -2.032090723514556885e-01
-1.041669920086860657e-01 -1.423169970512390137e-01 -2.096527516841888428e-01
-1.018792092800140381e-01 -1.429895013570785522e-01 -1.930272728204727173e-01
8.664110302925109863e-02 -1.175023168325424194e-01 2.451072260737419128e-02
8.329419791698455811e-02 -1.275908946990966797e-01 3.707413375377655029e-02
9.077958017587661743e-02 -1.105385348200798035e-01 3.198606148362159729e-02
8.996939659118652344e-02 -1.203790530562400818e-01 4.453332349658012390e-02
-1.909721270203590393e-02 2.766312658786773682e-01 -8.572859168052673340e-01
-2.767613530158996582e-02 2.754440009593963623e-01 -8.508771657943725586e-01
-3.429231047630310059e-02 2.860705256462097168e-01 -8.556010127067565918e-01
-4.171132668852806091e-02 2.878340184688568115e-01 -8.471753001213073730e-01
1.506623327732086182e-01 -7.337635010480880737e-02 6.158982962369918823e-02
1.552309095859527588e-01 -7.794155925512313843e-02 7.956264168024063110e-02
1.507302969694137573e-01 -6.143639609217643738e-02 7.267878949642181396e-02
1.539768725633621216e-01 -6.692049652338027954e-02 9.134677052497863770e-02
-5.013855919241905212e-02 -4.653810560703277588e-01 6.260932981967926025e-02
-5.306548997759819031e-02 -4.666361808776855469e-01 8.149980008602142334e-02
-5.461261421442031860e-02 -4.531625211238861084e-01 7.714083045721054077e-02
-5.848444998264312744e-02 -4.544607102870941162e-01 9.708841145038604736e-02
-2.059882432222366333e-01 -8.032951503992080688e-03 -2.797450423240661621e-01
-2.068371176719665527e-01 -8.894540369510650635e-03 -2.656555473804473877e-01
-2.129892855882644653e-01 -1.575817586854100227e-04 -2.712354660034179688e-01
-2.142945826053619385e-01 -2.314175944775342941e-04 -2.566157281398773193e-01
3.718640655279159546e-02 3.293178975582122803e-01 6.605592370033264160e-01
3.398137167096138000e-02 3.232907056808471680e-01 6.762076020240783691e-01
2.316396683454513550e-02 3.332756459712982178e-01 6.644194126129150391e-01
1.983097009360790253e-02 3.263714909553527832e-01 6.797757744789123535e-01
1.056868806481361389e-01 3.433438539505004883e-01 -2.289230823516845703e-01
1.066299453377723694e-01 3.436036705970764160e-01 -2.106586992740631104e-01
9.852728247642517090e-02 3.470878303050994873e-01 -2.119851410388946533e-01
9.943827986717224121e-02 3.476523458957672119e-01 -1.930251121520996094e-01
-8.338616788387298584e-02 -2.713787555694580078e-01 1.331056207418441772e-01
-8.602872490882873535e-02 -2.689219415187835693e-01 1.423255801200866699e-01
-8.902119100093841553e-02 -2.571124136447906494e-01 1.363568603992462158e-01
-9.324217587709426880e-02 -2.555065751075744629e-01 1.451696902513504028e-01
-8.245031535625457764e-02 1.021682992577552795e-01 5.435090065002441406e-01
-8.492320030927658081e-02 1.023267954587936401e-01 5.625657439231872559e-01
-9.050519764423370361e-02 1.152858361601829529e-01 5.524828433990478516e-01
-9.266948699951171875e-02 1.154581755399703979e-01 5.716212391853332520e-01
1.245997846126556396e-01 3.175825476646423340e-01 -3.432522118091583252e-01
1.256428956985473633e-01 3.147579729557037354e-01 -3.264937996864318848e-01
1.156384944915771484e-01 3.279122710227966309e-01 -3.336665928363800049e-01
1.175169497728347778e-01 3.251531124114990234e-01 -3.175232708454132080e-01
-1.773349046707153320e-01 2.250443994998931885e-01 -1.163324713706970215e-02
-1.766612827777862549e-01 2.206005603075027466e-01 2.771538216620683670e-03
-1.736182570457458496e-01 2.341064661741256714e-01 -4.584747366607189178e-04
-1.734532564878463745e-01 2.294203639030456543e-01 1.417173165827989578e-02
1.311320066452026367e-01 -4.737778380513191223e-02 -5.898591279983520508e-01
1.237320303916931152e-01 -4.836348444223403931e-02 -5.767527222633361816e-01
1.245409995317459106e-01 -3.994910046458244324e-02 -5.726752281188964844e-01
1.176515668630599976e-01 -4.134676232933998108e-02 -5.589382648468017578e-01
-6.623198091983795166e-02 1.282317470759153366e-02 -8.132512569427490234e-01
-6.284092366695404053e-02 5.552003625780344009e-03 -8.028741478919982910e-01
-6.517954915761947632e-02 2.436336874961853027e-02 -8.118346929550170898e-01
-5.716840922832489014e-02 1.926836930215358734e-02 -8.021128773689270020e-01
1.357907950878143311e-01 -3.241066634654998779e-02 -8.107636570930480957e-01
1.408962458372116089e-01 -3.124308027327060699e-02 -7.978606224060058594e-01
1.386674344539642334e-01 -1.932316832244396210e-02 -8.025864958763122559e-01
1.439907401800155640e-01 -1.855784840881824493e-02 -7.889600396156311035e-01
9.562076628208160400e-02 2.647982537746429443e-01 3.552229702472686768e-01
9.408145397901535034e-02 2.645554244518280029e-01 3.714026212692260742e-01
8.993709832429885864e-02 2.771174907684326172e-01 3.681535422801971436e-01
8.879113197326660156e-02 2.771976590156555176e-01 3.853882849216461182e-01
2.951407060027122498e-02 -1.518561542034149170e-01 -7.597196102142333984e-02
3.020212240517139435e-02 -1.576323658227920532e-01 -6.121535599231719971e-02
2.976837009191513062e-02 -1.497869938611984253e-01 -6.247424706816673279e-02
2.977090701460838318e-02 -1.542273163795471191e-01 -4.932441189885139465e-02
1.150956973433494568e-01 -4.548806548118591309e-01 9.587936103343963623e-02
1.126028522849082947e-01 -4.576390087604522705e-01 1.114859580993652344e-01
1.074966490268707275e-01 -4.452977776527404785e-01 1.048736497759819031e-01
1.043090745806694031e-01 -4.481197595596313477e-01 1.202912256121635437e-01
-1.737160980701446533e-02 -1.673407852649688721e-01 -4.267000034451484680e-02
-1.539690606296062469e-02 -1.670095473527908325e-01 -2.868082374334335327e-02
-2.823663130402565002e-02 -1.645962148904800415e-01 -3.332974016666412354e-02
-2.689157985150814056e-02 -1.646524667739868164e-01 -1.843412034213542938e-02
-1.508608609437942505e-01 2.445980906486511230e-01 1.943189352750778198e-01
-1.510170251131057739e-01 2.390280365943908691e-01 2.126765400171279907e-01
-1.472664177417755127e-01 2.565212249755859375e-01 2.084937095642089844e-01
-1.476556062698364258e-01 2.510679662227630615e-01 2.269748449325561523e-01
6.713967770338058472e-02 -1.495653092861175537e-01 -2.489319890737533569e-01
6.266982853412628174e-02 -1.528235673904418945e-01 -2.336129695177078247e-01
7.021630555391311646e-02 -1.458803862333297729e-01 -2.293227314949035645e-01
6.566915661096572876e-02 -1.487803310155868530e-01 -2.148359417915344238e-01
1.335743814706802368e-01 -5.553107261657714844e-01 -7.975808382034301758e-01
1.369511783123016357e-01 -5.588225722312927246e-01 -7.816308736801147461e-01
1.216357201337814331e-01 -5.522094964981079102e-01 -7.887958288192749023e-01
1.241538599133491516e-01 -5.558368563652038574e-01 -7.722151875495910645e-01
-5.369520746171474457e-03 -1.196616142988204956e-01 -4.976738989353179932e-01
-7.400295697152614594e-03 -1.259179860353469849e-01 -4.861827492713928223e-01
-7.790783420205116272e-04 -1.204629465937614441e-01 -4.856529235839843750e-01
-3.577113850042223930e-03 -1.261446177959442139e-01 -4.746106266975402832e-01
-2.456412017345428467e-01 3.240303397178649902e-01 5.970311760902404785e-01
-2.524737119674682617e-01 3.203516602516174316e-01 6.115727424621582031e-01
-2.523499131202697754e-01 3.354418873786926270e-01 6.045933365821838379e-01
-2.596283555030822754e-01 3.317342996597290039e-01 6.192932128906250000e-01
-1.051068231463432312e-01 3.213707208633422852e-01 2.157745063304901123e-01
-1.056705638766288757e-01 3.165256083011627197e-01 2.308870702981948853e-01
-9.924688190221786499e-02 3.299336433410644531e-01 2.292781174182891846e-01
-9.992758929729461670e-02 3.265736103057861328e-01 2.428312897682189941e-01
-1.177053153514862061e-01 2.335796356201171875e-01 3.411412537097930908e-01
-1.159457340836524963e-01 2.290284484624862671e-01 3.602999746799468994e-01
-1.164989396929740906e-01 2.477798312902450562e-01 3.530864715576171875e-01
-1.155553236603736877e-01 2.431497722864151001e-01 3.724370002746582031e-01
-2.089988440275192261e-01 1.174005419015884399e-01 -6.262937784194946289e-01
-2.113272547721862793e-01 1.151396557688713074e-01 -6.047316193580627441e-01
-2.129274755716323853e-01 1.268577873706817627e-01 -6.095475554466247559e-01
-2.155996561050415039e-01 1.237370967864990234e-01 -5.876696705818176270e-01
-5.535179004073143005e-02 1.094371005892753601e-01 6.835026144981384277e-01
-5.155622959136962891e-02 1.090730279684066772e-01 6.988336443901062012e-01
-5.501357838511466980e-02 1.213368996977806091e-01 6.942591667175292969e-01
-4.971677064895629883e-02 1.212978512048721313e-01 7.083975076675415039e-01
-1.709498018026351929e-01 3.377654850482940674e-01 -4.461986124515533447e-01
-1.719439476728439331e-01 3.327330052852630615e-01 -4.307205677032470703e-01
-1.646158993244171143e-01 3.449749946594238281e-01 -4.307337105274200439e-01
-1.661118865013122559e-01 3.397829532623291016e-01 -4.150882363319396973e-01
-3.556401655077934265e-02 2.422087788581848145e-01 -8.591606616973876953e-01
-5.051723495125770569e-02 2.387444227933883667e-01 -8.524809479713439941e-01
-4.237212240695953369e-02 2.567676901817321777e-01 -8.555555939674377441e-01
-5.842445045709609985e-02 2.540633678436279297e-01 -8.490270376205444336e-01
-9.689619392156600952e-02 -1.139309704303741455e-01 2.161092124879360199e-02
-1.024899408221244812e-01 -1.202563941478729248e-01 3.570311889052391052e-02
-1.052225679159164429e-01 -1.087736785411834717e-01 2.828493341803550720e-02
-1.110526546835899353e-01 -1.149003580212593079e-01 4.160670191049575806e-02
-5.611735582351684570e-02 -4.418216049671173096e-01 5.873633921146392822e-02
-5.815341323614120483e-02 -4.431134462356567383e-01 7.720728963613510132e-02
-6.144223734736442566e-02 -4.318783283233642578e-01 7.243107259273529053e-02
-6.533334404230117798e-02 -4.340450465679168701e-01 9.191396087408065796e-02
-4.442504048347473145e-02 -1.793087571859359741e-01 -2.280198782682418823e-01
-3.972111642360687256e-02 -1.792497336864471436e-01 -2.111099511384963989e-01
-5.266296118497848511e-02 -1.724398732185363770e-01 -2.107194066047668457e-01
-4.793917760252952576e-02 -1.728561669588088989e-01 -1.927205771207809448e-01
9.067321568727493286e-02 3.553130626678466797e-01 -7.216229438781738281e-01
9.353541582822799683e-02 3.555800616741180420e-01 -7.015900015830993652e-01
8.276588469743728638e-02 3.643065392971038818e-01 -7.070168852806091309e-01
8.571639657020568848e-02 3.645910620689392090e-01 -6.875152587890625000e-01
-7.791630178689956665e-02 -1.392606496810913086e-01 1.840180307626724243e-01
-7.457976788282394409e-02 -1.389050185680389404e-01 1.998352557420730591e-01
-8.022134751081466675e-02 -1.312006413936614990e-01 1.984903812408447266e-01
-7.758259028196334839e-02 -1.301859766244888306e-01 2.141267508268356323e-01
-1.918278783559799194e-01 5.288755893707275391e-02 1.099192649126052856e-01
-1.942404806613922119e-01 5.283779278397560120e-02 1.268742084503173828e-01
-1.952306926250457764e-01 6.637281924486160278e-02 1.199301481246948242e-01
-1.976892203092575073e-01 6.647769361734390259e-02 1.369030475616455078e-01
9.919793158769607544e-02 -1.436764299869537354e-01 -8.535763621330261230e-01
9.534113854169845581e-02 -1.463152021169662476e-01 -8.443878293037414551e-01
9.752171486616134644e-02 -1.293072998523712158e-01 -8.466145992279052734e-01
9.802449494600296021e-02 -1.307180672883987427e-01 -8.362758159637451172e-01
6.623798049986362457e-03 4.657455533742904663e-02 5.721763372421264648e-01
9.665775112807750702e-03 4.563659802079200745e-02 5.907478332519531250e-01
-1.910954015329480171e-03 4.858177900314331055e-02 5.867159962654113770e-01
1.016228925436735153e-04 4.790524020791053772e-02 6.044790148735046387e-01
1.345347017049789429e-01 -1.803023666143417358e-01 1.306634694337844849e-01
1.291064023971557617e-01 -1.842832863330841064e-01 1.467504352331161499e-01
1.345111876726150513e-01 -1.717401295900344849e-01 1.419608443975448608e-01
1.303471177816390991e-01 -1.744365245103836060e-01 1.558612734079360962e-01
1.293738186359405518e-01 2.158672735095024109e-02 3.071483969688415527e-01
1.191709265112876892e-01 2.000492252409458160e-02 3.216767311096191406e-01
1.301581710577011108e-01 3.577572479844093323e-02 3.162460923194885254e-01
1.193241029977798462e-01 3.364910557866096497e-02 3.298548460006713867e-01
5.417513102293014526e-02 4.858781024813652039e-02 6.367110610008239746e-01
6.167308986186981201e-02 4.493812844157218933e-02 6.510558128356933594e-01
4.851037636399269104e-02 5.574638769030570984e-02 6.443932652473449707e-01
5.600833147764205933e-02 5.209670588374137878e-02 6.587380170822143555e-01
7.894978672266006470e-02 -5.031020045280456543e-01 1.471900343894958496e-01
7.632616162300109863e-02 -5.112352967262268066e-01 1.576057374477386475e-01
6.939136981964111328e-02 -4.948534071445465088e-01 1.436940431594848633e-01
6.675255298614501953e-02 -5.019087195396423340e-01 1.541008949279785156e-01
-1.130379885435104370e-01 -5.444350242614746094e-01 -7.123435139656066895e-01
-1.128662005066871643e-01 -5.485286116600036621e-01 -6.973702311515808105e-01
-1.252186745405197144e-01 -5.332956910133361816e-01 -7.115083336830139160e-01
-1.259542405605316162e-01 -5.399956107139587402e-01 -6.977384090423583984e-01
-1.020795851945877075e-01 2.609225213527679443e-01 5.777770280838012695e-01
-1.032320037484169006e-01 2.556863725185394287e-01 5.961272120475769043e-01
-1.057233586907386780e-01 2.720721662044525146e-01 5.881281495094299316e-01
-1.078310832381248474e-01 2.665948569774627686e-01 6.066692471504211426e-01
1.754164844751358032e-01 9.091811627149581909e-02 -4.444149732589721680e-01
1.725322008132934570e-01 8.975476771593093872e-02 -4.248680472373962402e-01
1.715238243341445923e-01 1.021911799907684326e-01 -4.319529235363006592e-01
1.688972413539886475e-01 1.011375933885574341e-01 -4.116680324077606201e-01
-8.751802891492843628e-02 2.833413779735565186e-01 6.688081622123718262e-01
-8.494628220796585083e-02 2.791058421134948730e-01 6.826341152191162109e-01
-8.539836108684539795e-02 2.960502505302429199e-01 6.759934425354003906e-01
-8.369463682174682617e-02 2.893379926681518555e-01 6.899691224098205566e-01
-1.839474886655807495e-01 1.025212183594703674e-01 5.289341509342193604e-02
-1.846897751092910767e-01 9.987272322177886963e-02 6.883294880390167236e-02
-1.866336017847061157e-01 1.129895448684692383e-01 6.847241520881652832e-02
-1.876204758882522583e-01 1.108051687479019165e-01 8.465569466352462769e-02
-1.711179316043853760e-02 -9.600336104631423950e-02 -5.678400993347167969e-01
-1.521227601915597916e-02 -1.026640981435775757e-01 -5.519443750381469727e-01
-2.846907824277877808e-02 -9.519574046134948730e-02 -5.535075068473815918e-01
-2.659134939312934875e-02 -1.009234115481376648e-01 -5.373429059982299805e-01
6.891839206218719482e-02 -2.823457121849060059e-01 -8.219594955444335938e-01
6.939756870269775391e-02 -2.848203480243682861e-01 -8.064138293266296387e-01
6.459472328424453735e-02 -2.762931585311889648e-01 -8.108241558074951172e-01
6.564620882272720337e-02 -2.783643603324890137e-01 -7.950509786605834961e-01
-1.904171109199523926e-01 1.771067678928375244e-01 -6.898710727691650391e-01
-1.929798126220703125e-01 1.777226477861404419e-01 -6.726264953613281250e-01
-1.941789388656616211e-01 1.883173435926437378e-01 -6.790702939033508301e-01
-1.971900463104248047e-01 1.886995881795883179e-01 -6.611396670341491699e-01
9.705594927072525024e-02 8.335639722645282745e-03 3.123463690280914307e-01
8.567278832197189331e-02 6.921778898686170578e-03 3.256689310073852539e-01
9.173161536455154419e-02 1.762836426496505737e-02 3.263142406940460205e-01
7.986396551132202148e-02 1.612634584307670593e-02 3.395656943321228027e-01
-4.309215769171714783e-02 -1.721795499324798584e-01 1.158323511481285095e-01
-4.258774966001510620e-02 -1.739240884780883789e-01 1.287102550268173218e-01
-4.805041849613189697e-02 -1.663533151149749756e-01 1.251351982355117798e-01
-4.700043797492980957e-02 -1.684408187866210938e-01 1.385270655155181885e-01
7.884903997182846069e-02 7.910626381635665894e-02 -8.089075684547424316e-01
9.174574911594390869e-02 8.360718190670013428e-02 -7.982993721961975098e-01
7.894126325845718384e-02 9.461717307567596436e-02 -8.078558444976806641e-01
9.189299494028091431e-02 9.897205233573913574e-02 -7.972592711448669434e-01
9.927415847778320312e-02 3.305746018886566162e-01 5.319656729698181152e-01
9.012912213802337646e-02 3.253301978111267090e-01 5.450791716575622559e-01
8.660279214382171631e-02 3.397948741912841797e-01 5.416390895843505859e-01
7.884596288204193115e-02 3.350415825843811035e-01 5.549048185348510742e-01
1.479020863771438599e-01 -4.213639497756958008e-01 -7.819869518280029297e-01
1.440729349851608276e-01 -4.246050417423248291e-01 -7.667753696441650391e-01
1.426507383584976196e-01 -4.122437834739685059e-01 -7.695370912551879883e-01
1.364355832338333130e-01 -4.157628118991851807e-01 -7.544879913330078125e-01
-1.998281180858612061e-01 2.259091585874557495e-01 -4.855516552925109863e-01
-2.002085596323013306e-01 2.226299494504928589e-01 -4.663031101226806641e-01
-2.012877911329269409e-01 2.411606609821319580e-01 -4.764261841773986816e-01
-2.015187293291091919e-01 2.375266104936599731e-01 -4.588969349861145020e-01
-1.353582888841629028e-01 2.521117627620697021e-01 2.331158518791198730e-01
-1.353550255298614502e-01 2.450094819068908691e-01 2.508452534675598145e-01
-1.296949833631515503e-01 2.626043856143951416e-01 2.518421709537506104e-01
-1.302389055490493774e-01 2.553565800189971924e-01 2.693347036838531494e-01
-3.648691624402999878e-02 -1.906265616416931152e-01 1.465609371662139893e-01
-3.747561946511268616e-02 -1.910482794046401978e-01 1.606064587831497192e-01
-4.703253507614135742e-02 -1.772180199623107910e-01 1.504566967487335205e-01
-4.725232347846031189e-02 -1.779516786336898804e-01 1.643207669258117676e-01
-2.939637750387191772e-02 -1.694675534963607788e-01 -4.033356904983520508e-01
-2.971814014017581940e-02 -1.721911877393722534e-01 -3.879405558109283447e-01
-3.736129403114318848e-02 -1.620746999979019165e-01 -3.981344699859619141e-01
-3.712624683976173401e-02 -1.648773252964019775e-01 -3.832730650901794434e-01
9.238984435796737671e-02 2.169832736253738403e-01 6.754995584487915039e-01
8.829516917467117310e-02 2.135097384452819824e-01 6.907219886779785156e-01
8.465985953807830811e-02 2.259550243616104126e-01 6.865068674087524414e-01
7.980556041002273560e-02 2.220614850521087646e-01 7.018007040023803711e-01
-9.645754471421241760e-03 4.751297086477279663e-02 7.894572615623474121e-01
-3.297950373962521553e-03 4.608482494950294495e-02 8.074038624763488770e-01
-1.938472688198089600e-02 6.131955236196517944e-02 7.955381870269775391e-01
-1.187763176858425140e-02 5.691973865032196045e-02 8.115575909614562988e-01
7.019738107919692993e-02 1.986912637948989868e-02 -8.412409424781799316e-01
6.617910414934158325e-02 1.584544591605663300e-02 -8.287681341171264648e-01
5.883533135056495667e-02 3.122183866798877716e-02 -8.324390649795532227e-01
5.773330479860305786e-02 2.796828746795654297e-02 -8.199982643127441406e-01
-9.140735119581222534e-02 -1.061276495456695557e-01 -4.867224488407373428e-03
-9.502164274454116821e-02 -1.103159636259078979e-01 9.205697104334831238e-03
-1.010347008705139160e-01 -9.921748191118240356e-02 2.154782414436340332e-04
-1.053955852985382080e-01 -1.033875197172164917e-01 1.350568793714046478e-02
3.736035898327827454e-02 3.809186220169067383e-01 -2.696952223777770996e-01
4.169372469186782837e-02 3.796998560428619385e-01 -2.562755644321441650e-01
2.739833667874336243e-02 3.825488388538360596e-01 -2.576628625392913818e-01
3.102277964353561401e-02 3.812858164310455322e-01 -2.442098408937454224e-01
-2.094272822141647339e-01 8.410049229860305786e-02 -3.814191520214080811e-01
-2.124211639165878296e-01 8.172601461410522461e-02 -3.650300502777099609e-01
-2.134739905595779419e-01 1.006383523344993591e-01 -3.697263002395629883e-01
-2.167555540800094604e-01 9.879428148269653320e-02 -3.541503250598907471e-01
-5.141576007008552551e-02 -5.095257163047790527e-01 8.663032203912734985e-02
-5.694882571697235107e-02 -5.116286277770996094e-01 1.066317111253738403e-01
-5.659779161214828491e-02 -4.997335970401763916e-01 1.016210466623306274e-01
-6.230919435620307922e-02 -5.017511844635009766e-01 1.222290992736816406e-01
-6.530896574258804321e-02 -5.409150123596191406e-01 5.244560539722442627e-02
-7.048904895782470703e-02 -5.465668439865112305e-01 6.887362897396087646e-02
-7.386553287506103516e-02 -5.336855649948120117e-01 5.341851711273193359e-02
-7.929273694753646851e-02 -5.394432544708251953e-01 7.027737796306610107e-02
-7.897279411554336548e-02 1.261018812656402588e-01 6.107413768768310547e-01
-7.924919575452804565e-02 1.238691210746765137e-01 6.270999312400817871e-01
-8.359945565462112427e-02 1.371798068284988403e-01 6.219000816345214844e-01
-8.340510725975036621e-02 1.353894174098968506e-01 6.361862421035766602e-01
1.707417815923690796e-01 3.964501246809959412e-02 -3.914770185947418213e-01
1.717689335346221924e-01 3.312661498785018921e-02 -3.706135153770446777e-01
1.673970520496368408e-01 5.297651514410972595e-02 -3.793596923351287842e-01
1.693749725818634033e-01 4.646996781229972839e-02 -3.579074740409851074e-01
1.159661859273910522e-01 -5.621765851974487305e-01 -6.907172799110412598e-01
1.133773550391197205e-01 -5.643256902694702148e-01 -6.731584072113037109e-01
1.045599579811096191e-01 -5.506054162979125977e-01 -6.792028546333312988e-01
1.017245128750801086e-01 -5.529391765594482422e-01 -6.620033383369445801e-01
-1.467788070440292358e-01 -2.399036884307861328e-01 9.944197535514831543e-02
-1.454684585332870483e-01 -2.401494085788726807e-01 1.142970770597457886e-01
-1.529358178377151489e-01 -2.292572557926177979e-01 1.092290729284286499e-01
-1.505046486854553223e-01 -2.288414090871810913e-01 1.227566599845886230e-01
7.456289231777191162e-02 -1.995286047458648682e-01 -8.317623138427734375e-01
6.889319419860839844e-02 -2.031915485858917236e-01 -8.178306818008422852e-01
6.680461019277572632e-02 -1.878011375665664673e-01 -8.205440640449523926e-01
6.111514568328857422e-02 -1.902664601802825928e-01 -8.050384521484375000e-01
-1.763961911201477051e-01 3.372229635715484619e-01 -5.499408245086669922e-01
-1.809604316949844360e-01 3.307716250419616699e-01 -5.295253992080688477e-01
-1.744505763053894043e-01 3.451134264469146729e-01 -5.286282896995544434e-01
-1.788618117570877075e-01 3.380594849586486816e-01 -5.075480937957763672e-01
1.758558154106140137e-01 2.142542004585266113e-01 -4.648519456386566162e-01
1.735196858644485474e-01 2.108580917119979858e-01 -4.474613368511199951e-01
1.715528368949890137e-01 2.232547700405120850e-01 -4.513992369174957275e-01
1.690168678760528564e-01 2.202251702547073364e-01 -4.336982071399688721e-01
-1.335512548685073853e-01 3.776049911975860596e-01 -4.559070467948913574e-01
-1.381022632122039795e-01 3.721275031566619873e-01 -4.402756989002227783e-01
-1.269616335630416870e-01 3.819153904914855957e-01 -4.354337453842163086e-01
-1.314291954040527344e-01 3.758983612060546875e-01 -4.203644692897796631e-01
-1.003417521715164185e-01 2.615329921245574951e-01 3.896487653255462646e-01
-9.944565594196319580e-02 2.580176591873168945e-01 4.087978303432464600e-01
-9.797968715429306030e-02 2.740716338157653809e-01 4.047816693782806396e-01
-9.762962907552719116e-02 2.699090838432312012e-01 4.243046343326568604e-01
-1.336684226989746094e-01 -1.821462959051132202e-01 -8.046002388000488281e-01
-1.388794481754302979e-01 -1.859903484582901001e-01 -7.900916337966918945e-01
-1.390301883220672607e-01 -1.727379113435745239e-01 -7.939708232879638672e-01
-1.446970701217651367e-01 -1.770972162485122681e-01 -7.784474492073059082e-01
1.511836200952529907e-01 2.524900436401367188e-01 5.150640606880187988e-01
1.404506415128707886e-01 2.480757087469100952e-01 5.299962759017944336e-01
1.461046934127807617e-01 2.672079503536224365e-01 5.227204561233520508e-01
1.356460303068161011e-01 2.632202804088592529e-01 5.370028614997863770e-01
-1.304678618907928467e-01 5.124009773135185242e-02 -7.972287535667419434e-01
-1.383846402168273926e-01 4.920759424567222595e-02 -7.847574353218078613e-01
-1.428030133247375488e-01 5.872124060988426208e-02 -7.906236648559570312e-01
-1.510729193687438965e-01 5.714532732963562012e-02 -7.769631147384643555e-01
-1.349248886108398438e-01 -4.527616202831268311e-01 5.622768029570579529e-02
-1.383996158838272095e-01 -4.544712007045745850e-01 7.317460328340530396e-02
-1.394693255424499512e-01 -4.441023170948028564e-01 7.162947207689285278e-02
-1.409917473793029785e-01 -4.445128142833709717e-01 8.993320912122726440e-02
-1.693753153085708618e-01 2.920731306076049805e-01 5.539039373397827148e-01
-1.828297674655914307e-01 2.887339890003204346e-01 5.641265511512756348e-01
-1.812680363655090332e-01 3.043868243694305420e-01 5.595836639404296875e-01
-1.927316933870315552e-01 3.005591034889221191e-01 5.708035826683044434e-01
-1.264060586690902710e-01 3.158420622348785400e-01 1.460904031991958618e-01
-1.282515972852706909e-01 3.107517361640930176e-01 1.659928560256958008e-01
-1.203083172440528870e-01 3.298828899860382080e-01 1.590314209461212158e-01
-1.216385588049888611e-01 3.242394030094146729e-01 1.780085861682891846e-01
-2.181826680898666382e-01 1.145921796560287476e-01 -1.304881125688552856e-01
-2.182697206735610962e-01 1.116919144988059998e-01 -1.122355908155441284e-01
-2.203698903322219849e-01 1.216853931546211243e-01 -1.138768568634986877e-01
-2.201866656541824341e-01 1.189989075064659119e-01 -9.665551781654357910e-02
-1.241521388292312622e-01 -4.805961251258850098e-01 -8.324442505836486816e-01
-1.280095726251602173e-01 -4.810221195220947266e-01 -8.177962303161621094e-01
-1.284992843866348267e-01 -4.708634614944458008e-01 -8.234084248542785645e-01
-1.320016235113143921e-01 -4.711044132709503174e-01 -8.082238435745239258e-01
3.673647716641426086e-02 3.729524016380310059e-01 3.300605118274688721e-01
3.733943775296211243e-02 3.715327978134155273e-01 3.416482210159301758e-01
3.020516596734523773e-02 3.760097920894622803e-01 3.409448862075805664e-01
3.082993999123573303e-02 3.746950626373291016e-01 3.528213500976562500e-01
-9.869110584259033203e-02 3.651010096073150635e-01 3.794253617525100708e-02
-1.016235426068305969e-01 3.606964051723480225e-01 5.505175143480300903e-02
-9.525870531797409058e-02 3.732991516590118408e-01 5.195458233356475830e-02
-9.857536852359771729e-02 3.685543835163116455e-01 6.918749958276748657e-02
3.658391162753105164e-02 -9.960056841373443604e-02 -4.689663350582122803e-01
3.313763439655303955e-02 -1.051082015037536621e-01 -4.580991566181182861e-01
4.209846258163452148e-02 -9.809116274118423462e-02 -4.580990374088287354e-01
3.889745846390724182e-02 -1.032740175724029541e-01 -4.463595151901245117e-01
1.407701224088668823e-01 -2.920944988727569580e-02 2.361971288919448853e-01
1.347474902868270874e-01 -3.156211227178573608e-02 2.514095604419708252e-01
1.386417448520660400e-01 -2.042435109615325928e-02 2.510450184345245361e-01
1.323391944169998169e-01 -2.251217141747474670e-02 2.664095163345336914e-01
-2.222768962383270264e-01 1.213332340121269226e-01 -1.698157340288162231e-01
-2.227529734373092651e-01 1.173258647322654724e-01 -1.504855901002883911e-01
-2.266149073839187622e-01 1.318441480398178101e-01 -1.564812809228897095e-01
-2.265956699848175049e-01 1.277182698249816895e-01 -1.375056654214859009e-01
-1.027788445353507996e-01 -5.625399351119995117e-01 -7.695029377937316895e-01
-9.803210198879241943e-02 -5.637848377227783203e-01 -7.521125078201293945e-01
-1.115187853574752808e-01 -5.559766292572021484e-01 -7.560508251190185547e-01
-1.071147769689559937e-01 -5.567895174026489258e-01 -7.378702759742736816e-01
-8.703834563493728638e-02 2.797349989414215088e-01 4.353829026222229004e-01
-8.711709827184677124e-02 2.752021849155426025e-01 4.544555842876434326e-01
-8.572559058666229248e-02 2.898071110248565674e-01 4.532184302806854248e-01
-8.563324064016342163e-02 2.845417857170104980e-01 4.723116457462310791e-01
5.315904691815376282e-02 -4.317866563796997070e-01 2.402973547577857971e-02
5.657404288649559021e-02 -4.276022017002105713e-01 3.662728518247604370e-02
4.707903042435646057e-02 -4.174802899360656738e-01 3.469635918736457825e-02
5.263359099626541138e-02 -4.128446578979492188e-01 4.810794442892074585e-02
-6.506508588790893555e-02 -5.510901808738708496e-01 7.748626917600631714e-02
-7.101558893918991089e-02 -5.561648607254028320e-01 9.480202198028564453e-02
-7.191760092973709106e-02 -5.434962511062622070e-01 9.661525487899780273e-02
-7.673729211091995239e-02 -5.486825704574584961e-01 1.138728559017181396e-01
6.990157067775726318e-02 -1.268906891345977783e-01 2.333080321550369263e-01
6.065220013260841370e-02 -1.284361332654953003e-01 2.490436136722564697e-01
6.472226232290267944e-02 -1.145788505673408508e-01 2.458179891109466553e-01
5.528218671679496765e-02 -1.167172938585281372e-01 2.617002725601196289e-01
1.110109388828277588e-01 -4.370682686567306519e-02 -8.387081623077392578e-01
1.164248734712600708e-01 -4.253434762358665466e-02 -8.255008459091186523e-01
1.122472584247589111e-01 -3.178255632519721985e-02 -8.317887783050537109e-01
1.176128834486007690e-01 -2.993538230657577515e-02 -8.188138008117675781e-01
-1.214052643626928329e-02 -1.187403649091720581e-01 3.002419471740722656e-01
-7.051428314298391342e-03 -1.121881976723670959e-01 3.151790201663970947e-01
-2.258014678955078125e-02 -1.081787794828414917e-01 3.111038506031036377e-01
-1.589066721498966217e-02 -9.981662780046463013e-02 3.242916464805603027e-01
-8.109206706285476685e-02 1.456324197351932526e-02 -8.213838338851928711e-01
-8.709035813808441162e-02 5.139689892530441284e-03 -8.116961121559143066e-01
-8.268071711063385010e-02 2.893523499369621277e-02 -8.200272321701049805e-01
-8.823803067207336426e-02 2.089380659162998199e-02 -8.129625916481018066e-01
7.648999989032745361e-02 3.822206258773803711e-01 -6.088515520095825195e-01
7.989765703678131104e-02 3.811196982860565186e-01 -5.950023531913757324e-01
6.730463355779647827e-02 3.885150253772735596e-01 -5.964660048484802246e-01
7.020710408687591553e-02 3.878372609615325928e-01 -5.823159813880920410e-01
9.532076865434646606e-02 2.634176015853881836e-01 5.293914675712585449e-01
9.318859130144119263e-02 2.598345279693603516e-01 5.449819564819335938e-01
8.616039901971817017e-02 2.724984586238861084e-01 5.397022962570190430e-01
8.436317741870880127e-02 2.694413959980010986e-01 5.547679066658020020e-01
1.738930940628051758e-01 -2.795166894793510437e-02 -1.869798749685287476e-01
1.720986515283584595e-01 -3.142943605780601501e-02 -1.708106547594070435e-01
1.772782802581787109e-01 -1.798223331570625305e-02 -1.739267110824584961e-01
1.753555834293365479e-01 -2.151822671294212341e-02 -1.576670110225677490e-01
3.780692815780639648e-02 3.450326621532440186e-01 5.135839581489562988e-01
4.146122932434082031e-02 3.434389531612396240e-01 5.300838351249694824e-01
3.420661762356758118e-02 3.497409224510192871e-01 5.308248996734619141e-01
3.790652006864547729e-02 3.493892848491668701e-01 5.472905039787292480e-01
2.229807898402214050e-02 -3.581407666206359863e-01 8.462917804718017578e-02
2.799718268215656281e-02 -3.528051376342773438e-01 1.000803932547569275e-01
2.142723277211189270e-02 -3.452833592891693115e-01 9.642772376537322998e-02
2.658913470804691315e-02 -3.395773768424987793e-01 1.122790947556495667e-01
5.446930602192878723e-02 3.644794523715972900e-01 2.976777553558349609e-01
5.544275045394897461e-02 3.628007471561431885e-01 3.103481829166412354e-01
4.634360224008560181e-02 3.708531260490417480e-01 3.057129085063934326e-01
4.765199869871139526e-02 3.688254654407501221e-01 3.179695904254913330e-01
1.660225689411163330e-01 2.625241503119468689e-02 2.313435971736907959e-01
1.613427251577377319e-01 2.324691042304039001e-02 2.496161162853240967e-01
1.632204353809356689e-01 3.681633621454238892e-02 2.458803951740264893e-01
1.580542176961898804e-01 3.372815996408462524e-02 2.644276618957519531e-01
-1.864758878946304321e-01 6.248744949698448181e-02 7.331221550703048706e-02
-1.880444884300231934e-01 6.062065064907073975e-02 8.950109034776687622e-02
-1.901730000972747803e-01 7.232637703418731689e-02 8.764888346195220947e-02
-1.919203400611877441e-01 7.116451859474182129e-02 1.047509387135505676e-01
8.882790803909301758e-02 2.561957836151123047e-01 -8.107461929321289062e-01
9.813041985034942627e-02 2.601641416549682617e-01 -8.022039532661437988e-01
9.140271693468093872e-02 2.692436873912811279e-01 -8.027598857879638672e-01
1.006972640752792358e-01 2.727895081043243408e-01 -7.940288782119750977e-01
-7.618082314729690552e-02 -2.617059350013732910e-01 -8.469660878181457520e-01
-7.035939395427703857e-02 -2.656905949115753174e-01 -8.357897400856018066e-01
-7.650118321180343628e-02 -2.511677443981170654e-01 -8.383116722106933594e-01
-7.026623189449310303e-02 -2.546757459640502930e-01 -8.265178203582763672e-01
-5.228305608034133911e-02 -4.623397588729858398e-01 -8.558923602104187012e-01
-5.758835002779960632e-02 -4.692961275577545166e-01 -8.455206155776977539e-01
-5.795876309275627136e-02 -4.540507197380065918e-01 -8.547714948654174805e-01
-6.412193924188613892e-02 -4.608015418052673340e-01 -8.452290296554565430e-01
-6.375639140605926514e-02 -8.441853523254394531e-02 2.913705408573150635e-01
-5.609019473195075989e-02 -7.818690687417984009e-02 3.044208288192749023e-01
-6.889030337333679199e-02 -7.365677505731582642e-02 2.996259927749633789e-01
-6.152795627713203430e-02 -6.720476597547531128e-02 3.119914829730987549e-01
-1.379150301218032837e-01 3.319948315620422363e-01 -2.522262036800384521e-01
-1.417460441589355469e-01 3.270754218101501465e-01 -2.372724264860153198e-01
-1.329280734062194824e-01 3.390039205551147461e-01 -2.378101050853729248e-01
-1.373292803764343262e-01 3.344998657703399658e-01 -2.227697670459747314e-01
1.524558365345001221e-01 3.631517887115478516e-01 5.375052690505981445e-01
1.561240404844284058e-01 3.650685846805572510e-01 5.506826043128967285e-01
1.474788933992385864e-01 3.733828067779541016e-01 5.483283996582031250e-01
1.516643911600112915e-01 3.747952282428741455e-01 5.617188811302185059e-01
-5.959990993142127991e-02 -1.641532480716705322e-01 1.354238241910934448e-01
-5.809301137924194336e-02 -1.665049493312835693e-01 1.498257070779800415e-01
-6.504286825656890869e-02 -1.553940773010253906e-01 1.420196294784545898e-01
-6.292071938514709473e-02 -1.574666798114776611e-01 1.564753949642181396e-01
-8.978979289531707764e-02 2.522098720073699951e-01 6.328565478324890137e-01
-8.977270126342773438e-02 2.499180138111114502e-01 6.450113058090209961e-01
-9.316544979810714722e-02 2.658566832542419434e-01 6.370348930358886719e-01
-9.298710525035858154e-02 2.635306715965270996e-01 6.493029594421386719e-01
-7.893985509872436523e-02 -1.442502737045288086e-01 -9.864377975463867188e-02
-7.694960385560989380e-02 -1.440930217504501343e-01 -8.328792452812194824e-02
-8.255743235349655151e-02 -1.386260390281677246e-01 -8.635654300451278687e-02
-8.093462884426116943e-02 -1.383559852838516235e-01 -7.077934592962265015e-02
-1.742564886808395386e-01 -1.533236727118492126e-02 4.938752949237823486e-02
-1.775657683610916138e-01 -1.784315332770347595e-02 6.576189398765563965e-02
-1.795728653669357300e-01 -4.537820816040039062e-03 5.475700646638870239e-02
-1.815037727355957031e-01 -6.659070029854774475e-03 7.040263712406158447e-02
-2.293164469301700592e-02 -1.768306344747543335e-01 3.739267587661743164e-03
-2.117341198027133942e-02 -1.769062727689743042e-01 2.000937983393669128e-02
-2.751339040696620941e-02 -1.754882633686065674e-01 1.577460207045078278e-02
-2.606237307190895081e-02 -1.765913218259811401e-01 3.312181681394577026e-02
1.177030708640813828e-02 3.881264925003051758e-01 -2.460344582796096802e-01
1.517417374998331070e-02 3.869032561779022217e-01 -2.318883836269378662e-01
6.661676336079835892e-03 3.896809220314025879e-01 -2.326234579086303711e-01
1.035294868052005768e-02 3.886777460575103760e-01 -2.181702256202697754e-01
2.951917052268981934e-02 6.272599101066589355e-02 -8.473111391067504883e-01
3.137958049774169922e-02 6.014268845319747925e-02 -8.341444730758666992e-01
2.244278788566589355e-02 7.717650383710861206e-02 -8.419643640518188477e-01
1.796019822359085083e-02 7.247664779424667358e-02 -8.282368183135986328e-01
-1.390502601861953735e-01 -2.559529244899749756e-01 -7.651926279067993164e-01
-1.337291300296783447e-01 -2.531814277172088623e-01 -7.512475252151489258e-01
-1.441132277250289917e-01 -2.469725161790847778e-01 -7.548787593841552734e-01
-1.379443407058715820e-01 -2.436741888523101807e-01 -7.417322397232055664e-01
1.453356891870498657e-01 -1.626632660627365112e-01 -7.495546936988830566e-01
1.437563449144363403e-01 -1.672331392765045166e-01 -7.351141571998596191e-01
1.457617580890655518e-01 -1.544540226459503174e-01 -7.388828396797180176e-01
1.442414969205856323e-01 -1.589197069406509399e-01 -7.247418761253356934e-01
6.468831002712249756e-02 -1.484971493482589722e-01 -2.705003023147583008e-01
5.987396836280822754e-02 -1.522777825593948364e-01 -2.543976902961730957e-01
6.821184605360031128e-02 -1.449252218008041382e-01 -2.560334205627441406e-01
6.365582346916198730e-02 -1.485506147146224976e-01 -2.397096753120422363e-01
6.541138142347335815e-02 3.711227774620056152e-01 -1.506605595350265503e-01
6.856835633516311646e-02 3.705918192863464355e-01 -1.337180137634277344e-01
5.519278347492218018e-02 3.753558397293090820e-01 -1.409652382135391235e-01
5.850478261709213257e-02 3.755232691764831543e-01 -1.239123716950416565e-01
-2.008611895143985748e-02 3.682489395141601562e-01 4.676028490066528320e-01
-1.137663610279560089e-02 3.666383922100067139e-01 4.837391376495361328e-01
-2.724111080169677734e-02 3.691361844539642334e-01 4.825132191181182861e-01
-1.977466791868209839e-02 3.670965433120727539e-01 4.974054992198944092e-01
1.525178551673889160e-01 7.770127803087234497e-02 -7.297735214233398438e-01
1.595321297645568848e-01 7.582502812147140503e-02 -7.140185832977294922e-01
1.584679931402206421e-01 9.049410372972488403e-02 -7.182548642158508301e-01
1.643372625112533569e-01 8.870294690132141113e-02 -7.017939686775207520e-01
-1.634490042924880981e-01 2.227242887020111084e-01 -7.781674861907958984e-01
-1.702223271131515503e-01 2.216724157333374023e-01 -7.615308165550231934e-01
-1.701488196849822998e-01 2.338825315237045288e-01 -7.645766139030456543e-01
-1.761654317378997803e-01 2.331600189208984375e-01 -7.474835515022277832e-01
1.402767598628997803e-01 -3.705941140651702881e-02 -5.823683738708496094e-01
1.323464661836624146e-01 -3.847222775220870972e-02 -5.686932206153869629e-01
1.398709714412689209e-01 -3.089682385325431824e-02 -5.610093474388122559e-01
1.333564817905426025e-01 -3.269589319825172424e-02 -5.478765368461608887e-01
4.712730273604393005e-02 1.385315060615539551e-01 -8.318371176719665527e-01
4.667091369628906250e-02 1.255518943071365356e-01 -8.287999629974365234e-01
3.840503096580505371e-02 1.526216864585876465e-01 -8.334859013557434082e-01
3.281255438923835754e-02 1.368156075477600098e-01 -8.319148421287536621e-01
-1.542336866259574890e-02 2.155175954103469849e-01 7.258827686309814453e-01
-1.276455726474523544e-02 2.061275988817214966e-01 7.339168787002563477e-01
-2.001997828483581543e-02 2.306933104991912842e-01 7.236261963844299316e-01
-1.894799619913101196e-02 2.199298143386840820e-01 7.316789627075195312e-01
-1.240717023611068726e-01 2.441641539335250854e-01 2.958487868309020996e-01
-1.250074058771133423e-01 2.387561649084091187e-01 3.140110373497009277e-01
-1.237459853291511536e-01 2.522786855697631836e-01 3.107673823833465576e-01
-1.239718943834304810e-01 2.472450137138366699e-01 3.289601206779479980e-01
3.537296503782272339e-02 3.447546660900115967e-01 4.840129613876342773e-01
3.820981830358505249e-02 3.420852720737457275e-01 5.008313655853271484e-01
2.759100124239921570e-02 3.494601845741271973e-01 4.964902997016906738e-01
3.147324919700622559e-02 3.479720056056976318e-01 5.133955478668212891e-01
-5.220656096935272217e-02 -4.564053416252136230e-01 -8.297200798988342285e-01
-5.357251688838005066e-02 -4.617014527320861816e-01 -8.153124451637268066e-01
-5.878182128071784973e-02 -4.465339183807373047e-01 -8.242966532707214355e-01
-5.952065438032150269e-02 -4.514201581478118896e-01 -8.091621398925781250e-01
-1.913605034351348877e-01 6.625331193208694458e-02 8.803126960992813110e-02
-1.929445117712020874e-01 6.489905714988708496e-02 1.051379889249801636e-01
-1.933470815420150757e-01 7.715182751417160034e-02 1.015000864863395691e-01
-1.958969682455062866e-01 7.704573124647140503e-02 1.184473186731338501e-01
-1.835149228572845459e-01 1.431711111217737198e-02 9.307312220335006714e-02
-1.848571151494979858e-01 1.200796384364366531e-02 1.066942587494850159e-01
-1.874397248029708862e-01 2.290193177759647369e-02 1.033876985311508179e-01
-1.892588585615158081e-01 2.126570418477058411e-02 1.175086051225662231e-01
-6.375563144683837891e-02 -5.620877146720886230e-01 -7.210837602615356445e-01
-6.282550096511840820e-02 -5.624554157257080078e-01 -7.038177251815795898e-01
-7.736593484878540039e-02 -5.533032417297363281e-01 -7.077742218971252441e-01
-7.800351083278656006e-02 -5.543717741966247559e-01 -6.914955377578735352e-01
-1.483855694532394409e-01 -1.800249218940734863e-01 -7.470091581344604492e-01
-1.458255052566528320e-01 -1.818164438009262085e-01 -7.319506406784057617e-01
-1.519715338945388794e-01 -1.677917242050170898e-01 -7.409051060676574707e-01
-1.492692232131958008e-01 -1.688594669103622437e-01 -7.243800759315490723e-01
1.491337716579437256e-01 2.529134750366210938e-01 -7.446240186691284180e-01
1.478326320648193359e-01 2.518273890018463135e-01 -7.279434800148010254e-01
1.434482336044311523e-01 2.610235810279846191e-01 -7.353081703186035156e-01
1.415263712406158447e-01 2.604205310344696045e-01 -7.182897925376892090e-01
7.191134244203567505e-02 -4.498808085918426514e-01 -7.854794859886169434e-01
7.521060854196548462e-02 -4.569013714790344238e-01 -7.674956321716308594e-01
7.416423410177230835e-02 -4.392851591110229492e-01 -7.766383290290832520e-01
7.766561210155487061e-02 -4.465726017951965332e-01 -7.589176297187805176e-01
1.888882964849472046e-01 5.562280118465423584e-02 -6.761779636144638062e-02
1.845873296260833740e-01 5.282135680317878723e-02 -4.936041310429573059e-02
1.886514127254486084e-01 6.905593723058700562e-02 -4.733116924762725830e-02
1.848471313714981079e-01 6.544084101915359497e-02 -2.858085185289382935e-02
-6.900114566087722778e-02 3.262943923473358154e-01 4.647978544235229492e-01
-6.975093483924865723e-02 3.208217024803161621e-01 4.814318716526031494e-01
-6.716515123844146729e-02 3.374495208263397217e-01 4.791603982448577881e-01
-6.924583017826080322e-02 3.314905762672424316e-01 4.958633184432983398e-01
-2.071992158889770508e-01 1.802527457475662231e-01 -5.398107767105102539e-01
-2.083319276571273804e-01 1.776858270168304443e-01 -5.176653265953063965e-01
-2.087579667568206787e-01 1.935582160949707031e-01 -5.252941250801086426e-01
-2.094333618879318237e-01 1.915764212608337402e-01 -5.024893879890441895e-01
-8.721021562814712524e-02 2.293825149536132812e-01 6.103197932243347168e-01
-8.744644373655319214e-02 2.256566584110260010e-01 6.256701946258544922e-01
-9.004866331815719604e-02 2.389245480298995972e-01 6.177444458007812500e-01
-9.044498950242996216e-02 2.356085628271102905e-01 6.313980221748352051e-01
1.687617041170597076e-03 4.115863740444183350e-01 -3.953052312135696411e-02
9.932113811373710632e-03 4.113738834857940674e-01 -2.078811079263687134e-02
-5.174464080482721329e-03 4.165532588958740234e-01 -2.283449098467826843e-02
2.404863946139812469e-03 4.165941476821899414e-01 -3.970894962549209595e-03
-7.071311771869659424e-02 -4.717671275138854980e-01 -8.640733361244201660e-01
-7.760820537805557251e-02 -4.796152710914611816e-01 -8.543468117713928223e-01
-7.766241580247879028e-02 -4.647791683673858643e-01 -8.642978668212890625e-01
-8.512830734252929688e-02 -4.714599549770355225e-01 -8.544524312019348145e-01
-1.114237010478973389e-01 -2.771801650524139404e-01 1.269037574529647827e-01
-1.056601330637931824e-01 -2.724173665046691895e-01 1.358668357133865356e-01
-1.139626875519752502e-01 -2.619464397430419922e-01 1.327949613332748413e-01
-1.086925938725471497e-01 -2.573663890361785889e-01 1.425636708736419678e-01
7.878851145505905151e-03 -9.076286107301712036e-02 3.169515132904052734e-01
6.576228886842727661e-03 -8.508596569299697876e-02 3.288759887218475342e-01
-3.182543441653251648e-03 -7.893401384353637695e-02 3.281135261058807373e-01
-2.199365990236401558e-03 -7.206723839044570923e-02 3.397933244705200195e-01
-1.007545441389083862e-01 1.558345258235931396e-01 -8.278661370277404785e-01
-1.111740991473197937e-01 1.537053436040878296e-01 -8.173366785049438477e-01
-1.096563786268234253e-01 1.653883010149002075e-01 -8.201196789741516113e-01
-1.207795292139053345e-01 1.632696837186813354e-01 -8.081303834915161133e-01
1.447473615407943726e-01 -5.452899634838104248e-02 -3.201957345008850098e-01
1.435362994670867920e-01 -5.820249393582344055e-02 -3.061407506465911865e-01
1.468957811594009399e-01 -4.761921241879463196e-02 -3.081082999706268311e-01
1.461693197488784790e-01 -5.122153088450431824e-02 -2.940016984939575195e-01
9.366288781166076660e-02 2.855638563632965088e-01 4.923671483993530273e-01
9.330835193395614624e-02 2.824318110942840576e-01 5.077885389328002930e-01
8.903300762176513672e-02 2.982628047466278076e-01 5.005632638931274414e-01
8.808685839176177979e-02 2.959998250007629395e-01 5.164645910263061523e-01
-1.206449046730995178e-02 -1.547566950321197510e-01 -4.371409714221954346e-01
-1.594205759465694427e-02 -1.586565226316452026e-01 -4.256068468093872070e-01
-2.135129272937774658e-02 -1.516278088092803955e-01 -4.315316379070281982e-01
-2.492338791489601135e-02 -1.553846597671508789e-01 -4.196514189243316650e-01
-1.017456948757171631e-01 2.198088467121124268e-01 4.074926376342773438e-01
-1.008089780807495117e-01 2.170489728450775146e-01 4.236251413822174072e-01
-1.023103445768356323e-01 2.326297909021377563e-01 4.187656939029693604e-01
-1.017050147056579590e-01 2.300738394260406494e-01 4.359399974346160889e-01
-1.345191597938537598e-01 -2.119708061218261719e-01 3.741994872689247131e-02
-1.402320265769958496e-01 -2.162882983684539795e-01 5.186154320836067200e-02
-1.413596868515014648e-01 -2.004732936620712280e-01 4.429943487048149109e-02
-1.465815305709838867e-01 -2.039255797863006592e-01 5.893090367317199707e-02
-1.306731402873992920e-01 -4.906064569950103760e-01 -8.211980462074279785e-01
-1.342435777187347412e-01 -4.907835125923156738e-01 -8.058817982673645020e-01
-1.358685046434402466e-01 -4.797281026840209961e-01 -8.131905198097229004e-01
-1.388135999441146851e-01 -4.799432158470153809e-01 -7.975118160247802734e-01
-9.391073882579803467e-02 3.616606295108795166e-01 -7.709730863571166992e-01
-9.860049933195114136e-02 3.625085651874542236e-01 -7.578737139701843262e-01
-9.305254369974136353e-02 3.714036047458648682e-01 -7.514189481735229492e-01
-9.707085043191909790e-02 3.716770708560943604e-01 -7.381457090377807617e-01
-2.581548877060413361e-02 -1.699737161397933960e-01 -1.736173406243324280e-02
-2.446901611983776093e-02 -1.699893772602081299e-01 -1.729061827063560486e-03
-3.404856473207473755e-02 -1.677234619855880737e-01 -4.479218740016222000e-03
-3.300864249467849731e-02 -1.682736873626708984e-01 1.232685521245002747e-02
1.950544565916061401e-01 2.417016774415969849e-02 -1.686849594116210938e-01
1.936446726322174072e-01 2.046141959726810455e-02 -1.517795622348785400e-01
1.929029077291488647e-01 2.956335619091987610e-02 -1.510029882192611694e-01
1.908941566944122314e-01 2.736727707087993622e-02 -1.342113316059112549e-01
-1.449336484074592590e-02 3.382332995533943176e-02 6.934699416160583496e-01
-1.452060323208570480e-02 3.155487030744552612e-02 7.100139856338500977e-01
-2.270993217825889587e-02 3.936974704265594482e-02 7.033854126930236816e-01
-2.281662076711654663e-02 3.752965480089187622e-02 7.207447886466979980e-01
-2.058181315660476685e-01 4.946846514940261841e-02 -5.913032293319702148e-01
-2.063637971878051758e-01 4.724788293242454529e-02 -5.748516917228698730e-01
