-2.451470000000000038e-01 2.676279999999999770e-01 5.945329999999999782e-01
4.639100000000000168e-02 -3.882999999999999785e-01 1.127120000000000066e-01
1.650079999999999880e-01 4.700800000000000117e-02 5.697699999999999987e-02
-1.534840000000000093e-01 -5.570009999999999684e-01 1.397249999999999881e-01
-2.125799999999999912e-02 1.782600000000000157e-02 -7.524800000000000377e-01
1.541319999999999912e-01 -1.894099999999999950e-02 6.138199999999999906e-02
-7.739300000000000346e-02 -5.588889999999999691e-01 1.072420000000000040e-01
-1.121989999999999932e-01 3.531500000000000195e-01 -2.545189999999999952e-01
-1.583950000000000080e-01 3.278449999999999975e-01 -3.799549999999999872e-01
-1.485480000000000134e-01 2.479020000000000112e-01 -7.886499999999999622e-01
9.543600000000000694e-02 3.857530000000000125e-01 -5.160730000000000040e-01
1.539530000000000065e-01 -9.793300000000000616e-02 -7.017839999999999634e-01
-8.716500000000000636e-02 1.979009999999999936e-01 -8.310319999999999929e-01
9.256999999999999951e-02 -3.181399999999999784e-01 -8.372720000000000162e-01
6.114900000000000196e-02 -2.823069999999999746e-01 4.642000000000000293e-02
-1.312709999999999988e-01 -4.704799999999999954e-02 -4.919609999999999816e-01
4.002200000000000202e-02 4.032720000000000193e-01 -5.233320000000000194e-01
1.157409999999999967e-01 -2.057740000000000125e-01 6.427099999999999480e-02
1.905070000000000097e-01 1.462330000000000019e-01 -6.255800000000000249e-01
-5.210900000000000254e-02 4.034190000000000276e-01 -7.046820000000000306e-01
-9.811499999999999388e-02 3.932410000000000072e-01 -5.320570000000000022e-01
1.525910000000000044e-01 -9.578200000000000602e-02 -7.267630000000000479e-01
9.721000000000000474e-02 -3.102710000000000190e-01 1.359299999999999953e-01
1.652800000000000102e-02 3.642100000000000198e-02 6.564219999999999500e-01
-8.304799999999999682e-02 -1.175240000000000035e-01 2.239460000000000062e-01
1.125049999999999939e-01 3.788349999999999773e-01 -5.111710000000000420e-01
-8.316800000000000581e-02 -5.172369999999999468e-01 -8.299790000000000223e-01
6.500999999999999834e-03 -1.372559999999999891e-01 -4.448179999999999912e-01
1.943660000000000110e-01 1.715200000000000058e-01 -2.745250000000000190e-01
4.268099999999999672e-02 2.200799999999999979e-02 6.757339999999999458e-01
-1.455780000000000129e-01 2.878459999999999908e-01 -1.051400000000000078e-02
2.035750000000000060e-01 1.181330000000000019e-01 -5.316570000000000462e-01
-3.571900000000000075e-02 3.925810000000000133e-01 3.006650000000000156e-01
6.978099999999999581e-02 3.824219999999999842e-01 4.081800000000000012e-02
1.575920000000000099e-01 -8.568099999999999328e-02 -6.789950000000000152e-01
1.591899999999999982e-01 -7.538999999999999695e-03 1.590840000000000032e-01
1.182880000000000043e-01 -8.037800000000000500e-02 -9.997599999999999543e-02
-7.041699999999999349e-02 -1.472410000000000108e-01 -8.345600000000000240e-02
4.417000000000000093e-02 -7.344399999999999540e-02 -6.825210000000000443e-01
-1.406930000000000125e-01 -8.397899999999999809e-02 2.487299999999999928e-02
-1.887659999999999894e-01 6.042600000000000054e-02 9.506900000000000073e-02
1.266930000000000001e-01 3.211970000000000103e-01 -2.540129999999999888e-01
-1.766689999999999927e-01 1.390079999999999927e-01 2.480090000000000072e-01
-1.295840000000000047e-01 -7.328700000000000492e-02 -4.376599999999999935e-02
1.482469999999999899e-01 7.409599999999999520e-02 -7.283429999999999627e-01
-1.714500000000000052e-02 1.901509999999999867e-01 -8.577240000000000419e-01
8.385000000000000092e-03 2.054900000000000129e-02 3.874230000000000174e-01
6.773099999999999954e-02 3.809569999999999901e-01 -5.070999999999999987e-03
-1.352319999999999911e-01 -4.267499999999999766e-02 -5.041949999999999488e-01
1.883500000000000105e-02 -3.097440000000000193e-01 1.111810000000000020e-01
-8.813200000000000200e-02 -1.191849999999999993e-01 2.130970000000000086e-01
4.167999999999999830e-03 -1.839109999999999912e-01 -2.437799999999999967e-01
-1.916140000000000065e-01 2.280550000000000077e-01 -7.579099999999999726e-02
1.868900000000000075e-02 -9.651600000000000457e-02 -5.114739999999999842e-01
-2.250900000000000123e-01 1.546589999999999909e-01 -1.954750000000000099e-01
-1.500960000000000072e-01 2.786520000000000108e-01 5.528710000000000013e-01
1.873049999999999993e-01 5.230100000000000027e-02 -3.058850000000000180e-01
-1.352510000000000101e-01 -2.672140000000000071e-01 5.315500000000000086e-02
-1.225300000000000000e-01 3.300359999999999960e-01 -5.712300000000000016e-02
6.165400000000000047e-02 -2.352160000000000084e-01 5.668200000000000321e-02
-1.320399999999999907e-01 -4.537399999999999767e-02 3.235000000000000028e-03
4.773999999999999598e-03 -1.756570000000000076e-01 -1.917290000000000105e-01
1.813700000000000034e-01 8.640999999999999376e-03 -2.664529999999999954e-01
9.631599999999999884e-02 2.205580000000000040e-01 -8.062270000000000270e-01
1.032440000000000024e-01 -2.915150000000000241e-01 6.195699999999999819e-02
8.391099999999999948e-02 -9.007199999999999929e-02 1.972199999999999995e-02
-1.130940000000000001e-01 -8.012299999999999978e-02 -3.223000000000000170e-03
1.135570000000000052e-01 2.705719999999999792e-01 5.136190000000000477e-01
1.024000000000000084e-02 -1.619619999999999949e-01 -6.284800000000000109e-02
4.759499999999999842e-02 3.628620000000000179e-01 3.539140000000000064e-01
1.384960000000000080e-01 -1.484610000000000096e-01 -6.967229999999999812e-01
9.338399999999999479e-02 6.114900000000000196e-02 3.491949999999999776e-01
1.706890000000000074e-01 6.674800000000000177e-02 8.868099999999999594e-02
-1.168959999999999999e-01 5.470599999999999768e-02 3.337999999999999856e-01
1.481909999999999894e-01 -1.397710000000000063e-01 1.539669999999999928e-01
8.489199999999999524e-02 -9.522400000000000309e-02 -6.537230000000000540e-01
-2.120440000000000103e-01 1.810080000000000022e-01 -1.107830000000000065e-01
1.105799999999999977e-01 3.381819999999999826e-01 -7.268890000000000073e-01
1.863019999999999954e-01 1.847719999999999918e-01 -5.197370000000000045e-01
-8.245399999999999952e-02 3.755370000000000097e-01 -7.534229999999999539e-01
1.008610000000000062e-01 -1.682780000000000109e-01 -8.493669999999999831e-01
-8.916899999999999826e-02 -1.452509999999999912e-01 -1.336380000000000068e-01
-1.236079999999999957e-01 -7.330599999999999616e-02 -4.263779999999999792e-01
-7.080300000000000482e-02 -5.253109999999999724e-01 5.403199999999999670e-02
1.575000000000000011e-01 2.777910000000000101e-01 -2.251869999999999983e-01
5.555800000000000322e-02 2.733070000000000221e-01 7.054409999999999847e-01
-8.847900000000000209e-02 3.773469999999999880e-01 -3.330679999999999752e-01
-7.192700000000000482e-02 -9.855600000000000471e-02 -8.049960000000000448e-01
3.941900000000000265e-02 -1.937300000000000133e-02 3.469039999999999901e-01
9.232600000000000529e-02 3.457950000000000190e-01 -1.153700000000000003e-01
-1.111469999999999958e-01 -1.719970000000000110e-01 -6.820869999999999989e-01
5.116699999999999721e-02 -1.177480000000000054e-01 -7.000039999999999596e-01
-1.126110000000000028e-01 -1.312359999999999915e-01 -1.725959999999999994e-01
1.670210000000000028e-01 -1.152700000000000079e-02 -5.813089999999999646e-01
9.750999999999999251e-03 4.084539999999999837e-01 -6.069930000000000048e-01
-1.837519999999999987e-01 1.870899999999999994e-02 -7.051359999999999850e-01
-6.476999999999999424e-02 3.961709999999999954e-01 -4.200139999999999985e-01
1.526750000000000052e-01 -9.859500000000000208e-02 -7.279449999999999532e-01
-7.375600000000000211e-02 1.534399999999999931e-01 6.590470000000000494e-01
8.758399999999999519e-02 -5.783400000000000346e-02 -4.972320000000000073e-01
5.837000000000000174e-03 4.040349999999999775e-01 -7.332490000000000396e-01
-4.855399999999999994e-02 -1.276599999999999957e-01 2.708019999999999872e-01
4.872300000000000242e-02 3.671909999999999896e-01 -7.602139999999999453e-01
3.819299999999999778e-02 -1.536399999999999988e-01 -3.245730000000000004e-01
-1.781659999999999910e-01 1.905070000000000097e-01 2.397900000000000031e-02
-1.748629999999999907e-01 3.053989999999999760e-01 -4.029039999999999844e-01
-1.176009999999999972e-01 3.574729999999999852e-01 -3.278679999999999928e-01
1.543480000000000130e-01 -3.814000000000000029e-02 -7.612769999999999815e-01
-1.061010000000000009e-01 2.244589999999999919e-01 3.998680000000000012e-01
1.337909999999999933e-01 2.384749999999999925e-01 -7.758099999999999996e-01
8.125599999999999490e-02 3.642580000000000262e-01 3.547499999999999959e-02
-1.230350000000000055e-01 1.775339999999999974e-01 3.571639999999999815e-01
1.622460000000000013e-01 1.476280000000000092e-01 7.365399999999999725e-02
7.029999999999999574e-04 1.966499999999999845e-02 -7.520780000000000243e-01
5.233100000000000251e-02 6.067199999999999677e-02 8.343040000000000456e-01
6.818399999999999461e-02 3.252950000000000008e-01 3.287479999999999847e-01
-3.608000000000000096e-02 -6.503000000000000447e-02 -6.337979999999999725e-01
1.113119999999999943e-01 -7.878599999999999492e-02 -5.076100000000000056e-02
1.351900000000000046e-01 -5.470960000000000267e-01 -8.037379999999999525e-01
-4.850700000000000151e-02 6.671399999999999553e-02 6.301480000000000414e-01
1.157640000000000058e-01 3.138340000000000019e-01 -4.536599999999999661e-02
1.408480000000000010e-01 -9.619999999999999385e-02 2.017289999999999917e-01
2.673599999999999935e-02 1.725220000000000087e-01 7.792430000000000190e-01
-1.153730000000000033e-01 -2.176019999999999899e-01 -7.068050000000000166e-01
-4.024300000000000099e-02 -1.687829999999999886e-01 3.187999999999999862e-02
-1.811800000000000077e-01 -3.932700000000000085e-02 -6.759039999999999493e-01
-8.487899999999999612e-02 3.409269999999999801e-01 2.975659999999999972e-01
-1.440079999999999971e-01 3.114390000000000214e-01 -8.681500000000000328e-02
1.327000000000000124e-01 -1.672839999999999883e-01 -7.002000000000000446e-01
-5.669999999999999693e-03 1.516999999999999946e-02 7.617810000000000414e-01
-4.078799999999999787e-02 -5.269299999999999679e-02 -6.943089999999999540e-01
6.966100000000000070e-02 1.004099999999999958e-02 7.938410000000000188e-01
1.370949999999999946e-01 1.099050000000000027e-01 -7.633619999999999850e-01
1.089220000000000049e-01 -1.114809999999999968e-01 2.094380000000000130e-01
-1.792690000000000117e-01 2.994499999999999940e-02 -4.823000000000000030e-03
-5.569999999999999951e-02 -1.721620000000000095e-01 -2.904579999999999940e-01
-3.823000000000000009e-02 4.055360000000000076e-01 -7.580080000000000151e-01
-8.391400000000000248e-02 -1.470420000000000060e-01 -1.313130000000000130e-01
6.316700000000000093e-02 -1.224289999999999962e-01 1.687100000000000058e-02
-5.399500000000000133e-02 -5.573270000000000168e-01 -7.267740000000000311e-01
1.920000000000000049e-04 2.367499999999999882e-01 7.357069999999999999e-01
-1.082619999999999971e-01 3.625740000000000074e-01 -3.177550000000000097e-01
-8.121200000000000641e-02 1.591519999999999879e-01 4.858990000000000253e-01
-1.918489999999999918e-01 1.613789999999999947e-01 8.050000000000000515e-04
-3.041699999999999959e-02 3.634510000000000240e-01 5.215309999999999668e-01
-1.340749999999999997e-01 -1.118500000000000050e-01 -1.834469999999999990e-01
-9.227399999999999491e-02 4.860199999999999937e-02 3.441460000000000075e-01
4.872900000000000148e-02 2.466099999999999889e-02 3.647650000000000059e-01
-6.457400000000000639e-02 3.305890000000000217e-01 6.123859999999999859e-01
-4.028999999999999942e-02 -6.493799999999999573e-02 3.317559999999999953e-01
1.314869999999999928e-01 -1.424159999999999870e-01 5.707500000000000073e-02
1.219510000000000038e-01 2.960030000000000161e-01 -7.725000000000000096e-03
-1.070259999999999961e-01 -5.470159999999999467e-01 4.802399999999999725e-02
-1.235620000000000052e-01 -3.846069999999999767e-01 9.186999999999999333e-02
-1.857030000000000070e-01 1.472009999999999985e-01 5.472599999999999687e-02
1.525529999999999942e-01 -9.645600000000000007e-02 -6.882460000000000244e-01
1.882969999999999922e-01 1.869210000000000038e-01 -3.090049999999999741e-01
-1.308910000000000073e-01 -2.878510000000000235e-01 4.995100000000000234e-02
1.004049999999999943e-01 -5.453000000000000069e-01 6.060100000000000209e-02
-1.403389999999999915e-01 -8.268200000000000549e-02 2.508200000000000013e-02
-1.251200000000000090e-01 -3.887990000000000057e-01 8.995799999999999630e-02
-9.053300000000000236e-02 -2.281559999999999977e-01 1.517080000000000095e-01
-1.178870000000000057e-01 -3.088699999999999779e-01 -8.372169999999999890e-01
1.096789999999999987e-01 -6.311999999999999555e-02 2.512199999999999989e-01
-1.297079999999999900e-01 3.774239999999999817e-01 -5.522359999999999491e-01
-1.973169999999999924e-01 2.505410000000000137e-01 -3.097570000000000046e-01
-9.092799999999999494e-02 2.497500000000000067e-02 3.300390000000000268e-01
8.847900000000000209e-02 1.379879999999999995e-01 5.232310000000000016e-01
-1.873579999999999968e-01 5.994599999999999929e-02 -4.952079999999999815e-01
8.999999999999999667e-02 3.666059999999999874e-01 -6.759340000000000348e-01
-2.061600000000000099e-01 6.245300000000000157e-02 -6.392599999999999671e-02
4.828199999999999853e-02 8.907299999999999940e-02 8.301870000000000083e-01
-1.976940000000000086e-01 2.485179999999999889e-01 -1.883160000000000112e-01
-1.061050000000000049e-01 3.603069999999999884e-01 -2.813620000000000010e-01
9.255700000000000038e-02 1.945330000000000115e-01 5.799250000000000238e-01
-1.457559999999999967e-01 3.301490000000000258e-01 -7.554210000000000091e-01
-1.055249999999999938e-01 -1.330540000000000056e-01 -1.446330000000000116e-01
-7.310400000000000231e-02 -3.320890000000000231e-01 -7.701770000000000005e-01
-1.548509999999999887e-01 -7.489099999999999924e-02 -3.444400000000000239e-01
-1.864020000000000121e-01 1.760000000000000063e-03 1.171559999999999963e-01
7.218099999999999516e-02 -3.600659999999999972e-01 -7.918579999999999508e-01
1.419749999999999901e-01 1.647240000000000093e-01 -7.656269999999999465e-01
-1.695599999999999885e-02 5.516700000000000076e-02 5.627780000000000005e-01
8.947700000000000098e-02 1.283970000000000111e-01 -8.035039999999999960e-01
-3.763600000000000279e-02 4.098240000000000216e-01 -5.558769999999999545e-01
-9.225300000000000167e-02 2.111780000000000046e-01 4.632959999999999856e-01
4.530499999999999805e-02 -5.205269999999999619e-01 6.676700000000000690e-02
-1.119549999999999990e-01 3.518220000000000236e-01 -2.184919999999999918e-01
-6.687000000000000235e-03 2.564040000000000208e-01 7.217299999999999827e-01
-1.134800000000000045e-02 -1.855219999999999925e-01 -2.216660000000000019e-01
-1.857699999999999976e-02 -1.653080000000000105e-01 -9.348099999999999465e-02
-1.805460000000000120e-01 1.238940000000000041e-01 1.779489999999999961e-01
7.511199999999999821e-02 -6.490200000000000136e-02 -5.093860000000000054e-01
-9.897300000000000542e-02 -5.343700000000000117e-01 3.166700000000000070e-02
1.888849999999999973e-01 1.342499999999999943e-02 -1.613479999999999914e-01
1.294079999999999953e-01 2.930699999999999972e-01 -7.651750000000000496e-01
4.271500000000000297e-02 -1.479800000000000004e-01 4.537599999999999967e-02
-8.967200000000000171e-02 2.092140000000000111e-01 6.005479999999999707e-01
-4.551899999999999696e-02 2.082620000000000027e-01 -8.597879999999999967e-01
-1.175230000000000025e-01 3.347979999999999845e-01 -2.158600000000000102e-02
1.549280000000000102e-01 1.269840000000000135e-01 2.580230000000000024e-01
-9.471100000000000352e-02 1.316910000000000025e-01 4.038610000000000255e-01
1.554719999999999991e-01 -1.036600000000000021e-02 -3.896160000000000179e-01
-3.374400000000000316e-02 -9.442100000000000493e-02 -5.245030000000000525e-01
1.747199999999999864e-01 2.496859999999999913e-01 -2.040089999999999959e-01
-7.402300000000000546e-02 -6.219199999999999728e-02 -6.339780000000000415e-01
1.858059999999999989e-01 1.598880000000000023e-01 -3.860399999999999943e-02
-5.851800000000000057e-02 4.026500000000000079e-01 -5.869130000000000180e-01
-6.811599999999999600e-02 3.921140000000000181e-01 2.071999999999999953e-01
1.225699999999999984e-01 3.282829999999999915e-01 -7.007069999999999688e-01
-5.123599999999999682e-02 4.115539999999999754e-01 1.534399999999999931e-01
-1.305060000000000109e-01 3.696900000000000186e-01 -6.085059999999999913e-01
-1.999660000000000049e-01 1.164270000000000027e-01 -6.544210000000000305e-01
-9.514499999999999347e-02 -4.887449999999999850e-01 -8.534350000000000547e-01
1.078729999999999967e-01 -6.041300000000000142e-02 -6.629999999999999609e-04
-2.447500000000000023e-02 9.478000000000000314e-03 -7.485159999999999592e-01
1.408220000000000027e-01 -3.830140000000000211e-01 -8.139619999999999633e-01
-6.189499999999999863e-02 -5.585639999999999494e-01 -7.902449999999999752e-01
-6.632699999999999707e-02 -1.518460000000000087e-01 -8.017199999999999882e-01
1.468039999999999901e-01 -3.811470000000000136e-01 -7.993350000000000177e-01
-1.907490000000000019e-01 2.354739999999999889e-01 -8.312999999999999556e-02
-2.113549999999999873e-01 1.390899999999999914e-01 -7.271199999999999886e-02
-7.097000000000000010e-03 4.040989999999999860e-01 -3.963320000000000176e-01
1.791609999999999869e-01 7.034999999999999587e-03 -2.751839999999999842e-01
-6.597699999999999398e-02 -1.278650000000000064e-01 2.288350000000000106e-01
1.238979999999999942e-01 -3.257700000000000179e-02 -5.446379999999999555e-01
-1.459699999999999886e-01 -2.710210000000000119e-01 -7.941799999999999971e-01
7.784699999999999953e-02 -1.296339999999999992e-01 -8.382290000000000019e-01
-3.476100000000000023e-02 2.151780000000000082e-01 7.196559999999999624e-01
-1.560040000000000038e-01 2.587160000000000015e-01 1.125619999999999954e-01
-6.829000000000000348e-02 -4.708550000000000235e-01 -7.529670000000000529e-01
-8.394799999999999485e-02 2.157469999999999943e-01 5.356419999999999515e-01
-1.807149999999999868e-01 2.706100000000000172e-02 -5.154079999999999773e-01
1.849230000000000040e-01 1.688590000000000091e-01 -5.078150000000000164e-01
-1.040439999999999976e-01 1.201760000000000050e-01 -8.200939999999999896e-01
-1.336529999999999940e-01 -6.379400000000000348e-02 -4.366149999999999753e-01
-1.456999999999999962e-01 -2.196400000000000088e-02 -7.796640000000000237e-01
-1.824679999999999913e-01 6.792199999999999627e-02 -7.234840000000000160e-01
-1.905129999999999879e-01 1.231420000000000015e-01 3.061799999999999938e-02
5.246900000000000175e-02 2.316509999999999958e-01 7.189299999999999580e-01
-1.119419999999999998e-01 2.836389999999999745e-01 3.001210000000000266e-01
-1.583050000000000013e-01 3.431440000000000046e-01 -6.001210000000000155e-01
-5.598100000000000298e-02 3.884880000000000000e-01 -3.434539999999999815e-01
5.166899999999999965e-02 -1.419940000000000091e-01 -2.765000000000000097e-02
-9.706399999999999750e-02 2.111609999999999876e-01 4.400379999999999847e-01
-6.452199999999999602e-02 3.926640000000000130e-01 2.249190000000000078e-01
1.029069999999999985e-01 -5.124330000000000274e-01 4.788300000000000195e-02
-3.778499999999999914e-02 4.085139999999999882e-01 -6.095150000000000290e-01
1.991429999999999867e-01 2.959910000000000041e-01 5.401439999999999575e-01
-1.809230000000000005e-01 -1.551800000000000054e-02 1.190900000000000014e-01
-1.912109999999999921e-01 6.539100000000000468e-02 -1.208099999999999972e-02
-1.172160000000000007e-01 -1.152310000000000001e-01 2.552499999999999908e-02
-1.767789999999999917e-01 -2.641999999999999904e-02 -8.346199999999999453e-02
-1.078299999999999953e-01 -4.523479999999999723e-01 -8.578179999999999694e-01
-9.697000000000000758e-03 3.985719999999999819e-01 -1.168130000000000002e-01
-1.783140000000000003e-01 1.746800000000000089e-02 -2.360599999999999851e-02
1.484880000000000089e-01 -1.914420000000000011e-01 -7.534440000000000026e-01
-1.767060000000000020e-01 -7.547500000000000042e-02 6.469600000000000350e-02
-9.132200000000000040e-02 -4.825150000000000272e-01 -8.584460000000000424e-01
1.053950000000000026e-01 8.662799999999999667e-02 7.807709999999999928e-01
-2.202999999999999958e-01 4.091800000000000298e-02 -1.755069999999999963e-01
-2.154689999999999939e-01 1.667269999999999863e-01 -5.763580000000000370e-01
-5.029100000000000237e-02 -8.575599999999999890e-02 -7.436730000000000285e-01
1.955669999999999908e-01 1.935000000000000053e-01 -2.188789999999999902e-01
-1.881110000000000004e-01 7.173899999999999721e-02 7.885300000000000642e-02
9.915899999999999714e-02 -1.357589999999999908e-01 -6.630679999999999907e-01
-1.182890000000000053e-01 -4.580069999999999975e-01 -8.491370000000000307e-01
1.176620000000000027e-01 -1.491639999999999910e-01 -8.242359999999999687e-01
-7.918000000000000038e-02 -1.768319999999999892e-01 -8.482849999999999557e-01
6.689199999999999313e-02 -3.966930000000000178e-01 1.196989999999999998e-01
-1.148470000000000046e-01 2.809499999999999845e-02 -8.063510000000000399e-01
3.921600000000000086e-02 -2.916569999999999996e-01 1.423049999999999871e-01
7.898499999999999965e-02 2.906750000000000167e-01 3.778730000000000144e-01
-9.566399999999999904e-02 -9.193600000000000383e-02 -4.210820000000000118e-01
2.948500000000000079e-02 3.958670000000000244e-01 -3.818570000000000020e-01
4.253900000000000042e-02 -5.360179999999999945e-01 8.727500000000000535e-02
-7.095600000000000518e-02 2.573920000000000097e-01 -8.269729999999999581e-01
1.085490000000000066e-01 3.133719999999999839e-01 8.781500000000000417e-02
7.174099999999999921e-02 1.780879999999999963e-01 4.892630000000000035e-01
-1.494089999999999863e-01 3.629780000000000229e-01 -5.690410000000000190e-01
-1.226359999999999950e-01 3.846629999999999772e-01 -5.216549999999999798e-01
-1.010080000000000006e-01 -1.355619999999999881e-01 -1.341440000000000132e-01
1.513849999999999918e-01 1.913569999999999993e-01 1.090799999999999964e-01
-1.095079999999999942e-01 -5.563109999999999999e-01 5.361199999999999993e-02
-1.905300000000000049e-01 2.603460000000000218e-01 -4.040509999999999935e-01
-1.725160000000000027e-01 2.262300000000000075e-02 -4.669099999999999917e-01
-1.857850000000000057e-01 2.476199999999999929e-02 -5.384290000000000465e-01
-3.635599999999999943e-02 3.672050000000000036e-01 4.564090000000000091e-01
-1.670919999999999905e-01 -3.836699999999999833e-02 -4.003399999999999737e-01
-4.345199999999999757e-02 1.463679999999999981e-01 7.221940000000000026e-01
2.506200000000000094e-02 2.854749999999999788e-01 -8.268109999999999626e-01
1.479810000000000014e-01 -1.854899999999999952e-02 4.912199999999999900e-02
1.279099999999999959e-01 2.845900000000000096e-01 -1.012599999999999958e-02
-5.756100000000000105e-02 -1.445980000000000043e-01 2.012120000000000020e-01
1.098100000000000048e-01 2.750799999999999912e-01 2.229319999999999913e-01
1.523549999999999904e-01 -1.280119999999999869e-01 -7.327879999999999949e-01
-1.384120000000000072e-01 1.913630000000000053e-01 -7.966469999999999940e-01
-5.475499999999999812e-02 -5.045610000000000372e-01 8.430100000000000093e-02
-1.303219999999999934e-01 -5.075140000000000207e-01 -7.425460000000000393e-01
3.744399999999999812e-02 -4.553880000000000150e-01 7.509200000000000597e-02
-1.525350000000000039e-01 1.707110000000000016e-01 2.840369999999999839e-01
2.674800000000000094e-02 3.426640000000000241e-01 6.521479999999999499e-01
-1.487590000000000023e-01 -2.421619999999999884e-01 1.039439999999999947e-01
1.008600000000000052e-01 3.527279999999999860e-01 -3.742269999999999763e-01
-1.953650000000000109e-01 -3.096300000000000094e-02 -2.643440000000000234e-01
1.095010000000000011e-01 -1.641759999999999886e-01 4.667999999999999927e-02
-1.769489999999999952e-01 -2.804999999999999855e-02 1.285080000000000111e-01
1.410720000000000030e-01 3.041550000000000087e-01 -6.861420000000000297e-01
-6.321999999999999842e-02 -5.485600000000000476e-01 -7.002479999999999816e-01
-2.528599999999999945e-02 5.181700000000000195e-02 6.991159999999999597e-01
3.370999999999999865e-03 3.808119999999999838e-01 -7.881869999999999710e-01
-2.067829999999999946e-01 5.016899999999999832e-02 -5.396330000000000293e-01
1.917649999999999910e-01 2.186400000000000149e-02 -1.777110000000000078e-01
-4.796000000000000263e-02 -1.346799999999999942e-01 -4.166819999999999968e-01
1.658669999999999867e-01 2.132519999999999971e-01 -4.212239999999999873e-01
-7.003299999999999803e-02 -4.883419999999999983e-01 2.952400000000000163e-02
-9.513499999999999734e-02 2.923899999999999832e-01 -8.151230000000000420e-01
1.972140000000000004e-01 6.540999999999999592e-02 -5.867320000000000313e-01
2.618799999999999947e-02 -5.050500000000000128e-02 -6.298740000000000450e-01
-1.388600000000000112e-01 -4.930979999999999808e-01 -7.983339999999999881e-01
1.869570000000000121e-01 2.042190000000000116e-01 -5.568830000000000169e-01
1.688219999999999998e-01 2.573999999999999899e-02 2.041719999999999924e-01
1.565090000000000092e-01 -1.962300000000000155e-02 -3.287140000000000062e-01
-1.762579999999999980e-01 -1.511699999999999988e-01 9.017999999999999627e-02
1.700039999999999885e-01 5.470699999999999869e-02 -4.717080000000000162e-01
-6.008200000000000346e-02 3.396899999999999920e-02 3.766490000000000116e-01
1.584959999999999980e-01 7.774499999999999467e-02 2.795810000000000239e-01
-6.150200000000000111e-02 -2.580239999999999756e-01 -7.583299999999999486e-01
1.080330000000000040e-01 -4.295649999999999746e-01 6.709700000000000386e-02
-6.785000000000000232e-03 -9.766900000000000581e-02 -5.542070000000000052e-01
-1.170849999999999946e-01 3.435259999999999980e-01 -1.511119999999999963e-01
-4.726000000000000166e-03 -1.977839999999999876e-01 9.435499999999999443e-02
-2.495500000000000149e-02 -6.901599999999999402e-02 3.334469999999999934e-01
1.327089999999999936e-01 -6.936199999999999311e-02 -3.443599999999999994e-01
1.636350000000000027e-01 2.593670000000000142e-01 -3.375560000000000227e-01
1.402259999999999895e-01 -3.124640000000000195e-01 -8.089480000000000004e-01
-5.978699999999999987e-02 -5.568969999999999754e-01 -8.094479999999999453e-01
-1.213999999999999975e-02 -1.392960000000000031e-01 -4.499210000000000154e-01
3.901999999999999913e-02 -5.155999999999999993e-03 7.612539999999999862e-01
5.978800000000000087e-02 2.224500000000000088e-02 8.178109999999999546e-01
1.041289999999999993e-01 2.631999999999999965e-02 7.841590000000000504e-01
-3.442200000000000121e-02 1.702829999999999899e-01 7.275890000000000413e-01
-1.216000000000000067e-03 4.101589999999999958e-01 -6.576920000000000543e-01
-4.446599999999999858e-02 2.190439999999999887e-01 -8.613979999999999970e-01
4.563799999999999801e-02 3.996990000000000265e-01 -5.631960000000000299e-01
1.331249999999999933e-01 -2.454570000000000085e-01 -7.335909999999999931e-01
-2.056590000000000085e-01 2.069900000000000073e-01 -1.207889999999999936e-01
1.473959999999999992e-01 -5.274469999999999992e-01 -8.045660000000000034e-01
-8.642099999999999782e-02 2.057450000000000112e-01 4.948770000000000113e-01
9.705999999999999350e-02 1.510420000000000096e-01 6.236169999999999769e-01
-1.013199999999999934e-01 -1.123949999999999949e-01 -2.540200000000000097e-02
-1.885900000000000076e-01 -1.511700000000000023e-02 -6.439259999999999984e-01
-2.208519999999999928e-01 1.824679999999999913e-01 -2.638690000000000202e-01
1.399219999999999908e-01 -1.224459999999999993e-01 6.448700000000000265e-02
-1.293320000000000025e-01 3.172699999999999826e-02 -7.962449999999999806e-01
1.645159999999999956e-01 -4.402699999999999669e-02 1.293690000000000118e-01
-6.564200000000000590e-02 3.754339999999999899e-01 2.883660000000000112e-01
1.429449999999999887e-01 2.460130000000000094e-01 -7.575899999999999856e-01
3.436199999999999671e-02 2.650800000000000031e-02 6.617889999999999606e-01
1.398669999999999913e-01 -3.444650000000000212e-01 -8.096309999999999896e-01
9.634700000000000208e-02 1.477809999999999957e-01 6.852620000000000378e-01
1.392259999999999887e-01 -9.129700000000000315e-02 3.940300000000000052e-02
1.953900000000000081e-01 1.902119999999999922e-01 -1.515279999999999960e-01
-1.885600000000000123e-02 -1.968020000000000047e-01 2.120849999999999957e-01
-3.393100000000000283e-02 4.214809999999999945e-01 7.922600000000000475e-02
-1.520940000000000070e-01 1.573789999999999911e-01 2.954539999999999944e-01
8.121299999999999353e-02 -4.377659999999999885e-01 -7.587359999999999660e-01
2.978499999999999898e-02 6.169499999999999984e-02 5.220669999999999478e-01
-2.115920000000000023e-01 6.011899999999999883e-02 -5.608319999999999972e-01
1.434759999999999924e-01 2.728820000000000134e-01 -7.385180000000000078e-01
-2.296189999999999898e-01 1.142920000000000047e-01 -2.423839999999999884e-01
-4.053299999999999959e-02 -1.732360000000000011e-01 7.249600000000000488e-02
1.004379999999999995e-01 -4.370799999999999685e-02 -5.131609999999999783e-01
1.454429999999999890e-01 -1.904700000000000004e-01 -7.333169999999999966e-01
-2.117269999999999985e-01 1.209360000000000018e-01 -6.797300000000000564e-02
-9.495900000000000174e-02 3.894589999999999996e-01 -4.356229999999999825e-01
7.328199999999999992e-02 -9.659299999999999831e-02 -4.175599999999999867e-01
1.993429999999999924e-01 1.731199999999999961e-01 -1.548140000000000072e-01
1.178189999999999932e-01 2.941900000000000071e-01 9.819400000000000350e-02
8.214799999999999880e-02 -4.903009999999999868e-01 1.413030000000000119e-01
-2.518600000000000005e-02 1.192939999999999973e-01 7.522780000000000022e-01
1.470269999999999910e-01 2.845380000000000131e-01 -1.171159999999999979e-01
8.702699999999999325e-02 1.536260000000000125e-01 3.916740000000000221e-01
1.630800000000000027e-01 2.603400000000000158e-02 -4.248009999999999842e-01
-6.814999999999999877e-03 4.120539999999999758e-01 -6.158500000000000085e-01
-2.083079999999999932e-01 -5.309999999999999616e-03 -1.909220000000000084e-01
-8.580699999999999439e-02 1.799179999999999946e-01 5.338009999999999700e-01
-7.310700000000000531e-02 8.366099999999999925e-02 5.845879999999999965e-01
-1.840000000000000001e-04 -2.108800000000000119e-01 1.710440000000000016e-01
6.253300000000000525e-02 3.700030000000000263e-01 -1.035770000000000024e-01
1.648270000000000013e-01 -3.585399999999999698e-02 1.152230000000000060e-01
-1.174120000000000025e-01 2.867560000000000109e-01 2.558119999999999838e-01
-1.753939999999999944e-01 3.142369999999999886e-01 -4.197620000000000240e-01
2.570999999999999935e-03 -1.823259999999999881e-01 -2.269889999999999963e-01
9.394399999999999973e-02 -8.587400000000000588e-02 -5.330999999999999801e-03
-1.292540000000000078e-01 -1.972899999999999932e-01 -7.031969999999999610e-01
5.252999999999999857e-03 1.578299999999999842e-02 7.924670000000000325e-01
1.405659999999999965e-01 -1.137390000000000068e-01 5.912800000000000000e-02
-1.287629999999999886e-01 3.143980000000000108e-01 1.030390000000000056e-01
-1.306849999999999956e-01 3.052489999999999926e-01 1.723820000000000074e-01
-1.338100000000000123e-01 3.054600000000000024e-02 3.162179999999999991e-01
1.493569999999999898e-01 -5.079100000000000281e-02 -2.923640000000000128e-01
-5.714000000000000329e-03 -2.132479999999999931e-01 -2.850770000000000248e-01
1.606009999999999938e-01 1.496669999999999945e-01 9.178500000000000547e-02
-7.714799999999999436e-02 -1.733040000000000136e-01 -8.470990000000000464e-01
-9.867700000000000082e-02 -5.581720000000000015e-01 -8.194479999999999542e-01
-2.125209999999999877e-01 1.448019999999999863e-01 -5.318850000000000522e-01
-9.568799999999999528e-02 -4.998819999999999930e-01 -8.430630000000000068e-01
1.090300000000000019e-01 -4.714309999999999889e-01 5.024300000000000294e-02
7.752799999999999969e-02 -1.037119999999999986e-01 -6.648779999999999690e-01
-1.793220000000000092e-01 -1.607099999999999848e-02 -6.906060000000000532e-01
7.510500000000000509e-02 -6.638399999999999856e-02 -4.974970000000000225e-01
9.398600000000000010e-02 -4.204069999999999752e-01 1.103900000000000020e-01
-8.408100000000000296e-02 1.876950000000000007e-01 5.113050000000000095e-01
-1.116280000000000050e-01 -2.123309999999999920e-01 -7.019809999999999661e-01
-1.953290000000000026e-01 2.506030000000000202e-01 -3.582350000000000256e-01
-5.197500000000000037e-02 2.314110000000000056e-01 -8.361509999999999776e-01
5.546999999999999847e-02 -7.413699999999999457e-02 -6.557610000000000383e-01
1.455329999999999957e-01 -1.274300000000000085e-02 -5.179559999999999720e-01
1.911170000000000091e-01 1.977049999999999919e-01 -2.655290000000000150e-01
1.399040000000000006e-01 2.236009999999999942e-01 1.722110000000000030e-01
8.042900000000000049e-02 3.589470000000000161e-01 -3.692899999999999655e-02
-1.608640000000000070e-01 2.362289999999999945e-01 1.126459999999999961e-01
1.419479999999999908e-01 -4.292699999999999988e-02 -5.982099999999999917e-02
1.902629999999999877e-01 3.669800000000000145e-02 -5.885749999999999593e-01
-1.166520000000000057e-01 -2.465469999999999884e-01 4.078699999999999687e-02
6.959600000000000508e-02 -3.001789999999999736e-01 -7.729120000000000434e-01
6.805700000000000638e-02 2.984600000000000100e-02 3.534570000000000212e-01
1.389839999999999964e-01 2.406899999999999873e-01 5.396499999999999908e-02
3.091700000000000004e-02 -1.725389999999999979e-01 2.010290000000000132e-01
-1.853099999999999886e-02 -7.265999999999999889e-03 3.697179999999999911e-01
-1.822539999999999993e-01 -1.306049999999999989e-01 9.490400000000000225e-02
7.823299999999999699e-02 3.761939999999999729e-01 -3.635260000000000158e-01
-1.397259999999999891e-01 3.052779999999999938e-01 -3.003499999999999920e-02
-2.158529999999999893e-01 1.736320000000000086e-01 -3.433700000000000085e-01
-1.930000000000000049e-01 1.248279999999999945e-01 -4.783209999999999962e-01
-1.814020000000000077e-01 -2.450300000000000047e-02 -6.844820000000000348e-01
-4.509300000000000114e-02 -5.972000000000000225e-02 -6.879920000000000480e-01
-8.431800000000000406e-02 -7.852900000000000158e-02 -6.486680000000000224e-01
1.181529999999999941e-01 3.480570000000000053e-01 5.325130000000000141e-01
7.139199999999999713e-02 3.836010000000000253e-01 -6.317589999999999595e-01
-2.160130000000000106e-01 1.498470000000000080e-01 -3.615260000000000140e-01
-2.255860000000000087e-01 2.645879999999999899e-01 5.996580000000000243e-01
1.729370000000000074e-01 2.276739999999999875e-01 -3.359790000000000276e-01
-1.470410000000000050e-01 -1.192560000000000009e-01 1.925080000000000124e-01
-2.849300000000000097e-02 -1.463099999999999956e-01 -4.352449999999999930e-01
-1.568330000000000002e-01 2.472530000000000006e-01 3.870900000000000035e-02
8.414699999999999958e-02 -1.321289999999999965e-01 -2.075009999999999910e-01
7.994099999999999817e-02 -1.389009999999999967e-01 -2.402559999999999973e-01
-5.718299999999999772e-02 1.653080000000000105e-01 -8.341589999999999838e-01
-8.748499999999999333e-02 1.804489999999999983e-01 6.185310000000000530e-01
-1.715029999999999888e-01 8.366999999999999438e-03 -5.128160000000000496e-01
-1.392970000000000041e-01 -6.873999999999999902e-03 -7.891890000000000294e-01
-7.203600000000000281e-02 1.497410000000000130e-01 6.626159999999999828e-01
-1.014980000000000049e-01 2.439310000000000089e-01 4.099169999999999758e-01
1.667899999999999938e-01 5.651099999999999873e-02 5.475100000000000106e-02
-7.510000000000000399e-04 1.869230000000000058e-01 -8.301239999999999730e-01
6.997699999999999754e-02 -1.276559999999999917e-01 -7.228400000000000103e-02
-2.101999999999999980e-01 2.774679999999999924e-01 5.667090000000000183e-01
-2.192939999999999889e-01 9.464300000000000490e-02 -1.091199999999999948e-01
-2.703399999999999900e-02 3.929070000000000062e-01 -1.321920000000000039e-01
1.610860000000000070e-01 1.826019999999999865e-01 3.585599999999999898e-02
4.037299999999999917e-02 -1.508059999999999956e-01 5.267299999999999760e-02
-1.990180000000000005e-01 1.954009999999999914e-01 -4.153580000000000050e-01
-1.879979999999999984e-01 1.324380000000000002e-01 5.120299999999999851e-02
-5.983999999999999736e-02 -3.691139999999999977e-01 -8.154010000000000424e-01
-2.835899999999999879e-02 -1.876220000000000110e-01 1.274470000000000047e-01
1.028349999999999959e-01 -1.155709999999999932e-01 -2.222250000000000059e-01
-1.012929999999999942e-01 3.599209999999999909e-01 1.351090000000000069e-01
-4.869199999999999917e-02 -6.226700000000000290e-02 -6.779330000000000078e-01
-7.800500000000000489e-02 -1.415520000000000111e-01 -8.384530000000000038e-01
-1.852580000000000060e-01 -1.776999999999999934e-03 1.198779999999999984e-01
-6.266700000000000048e-02 -5.133330000000000393e-01 -7.317420000000000035e-01
-1.971440000000000137e-01 2.622430000000000039e-01 -5.365969999999999906e-01
-1.485839999999999939e-01 2.936739999999999906e-01 -3.590600000000000042e-02
7.053399999999999948e-02 -8.450699999999999878e-02 2.716569999999999818e-01
6.528299999999999381e-02 1.649899999999999978e-02 3.466380000000000017e-01
-1.882699999999999929e-01 2.465370000000000061e-01 -9.756299999999999695e-02
1.575370000000000104e-01 -5.106530000000000236e-01 -7.938150000000000484e-01
-1.335100000000000002e-02 3.995500000000000163e-01 -1.033720000000000055e-01
-8.958800000000000097e-02 -2.132219999999999949e-01 -8.540619999999999878e-01
-2.134199999999999986e-02 3.596360000000000112e-01 6.158979999999999455e-01
-2.246819999999999928e-01 1.617329999999999879e-01 -2.331100000000000116e-01
9.339400000000000479e-02 -3.382189999999999919e-01 1.252479999999999982e-01
-2.014839999999999964e-01 2.337450000000000083e-01 -1.631849999999999967e-01
5.339499999999999802e-02 -1.438919999999999921e-01 -3.180370000000000141e-01
1.020680000000000059e-01 2.865900000000000114e-01 2.267109999999999959e-01
-1.838960000000000039e-01 -5.052999999999999853e-02 -2.685790000000000122e-01
-6.714499999999999635e-02 -1.504810000000000036e-01 -3.076470000000000038e-01
-7.045999999999999486e-02 -1.678429999999999922e-01 -2.083689999999999987e-01
9.601200000000000012e-02 1.482249999999999956e-01 6.005439999999999667e-01
-1.039820000000000050e-01 -5.036589999999999678e-01 -7.321349999999999802e-01
8.643099999999999394e-02 2.814110000000000222e-01 -8.081990000000000007e-01
7.291799999999999671e-02 3.106140000000000012e-01 3.654399999999999871e-01
-5.932300000000000073e-02 -3.519889999999999963e-01 5.400300000000000239e-02
-1.977609999999999923e-01 2.340329999999999910e-01 -6.489399999999999613e-01
7.320000000000000118e-02 3.117489999999999983e-01 3.446969999999999756e-01
9.012199999999999378e-02 -1.331229999999999913e-01 3.327100000000000196e-02
-1.150120000000000031e-01 3.826370000000000049e-01 -4.364210000000000034e-01
-1.850519999999999943e-01 -6.496499999999999497e-02 1.029339999999999977e-01
9.075800000000000534e-02 2.310339999999999894e-01 5.971130000000000049e-01
-1.847070000000000101e-01 5.778099999999999903e-02 4.676600000000000201e-02
-6.994599999999999429e-02 8.382900000000000074e-02 4.131299999999999972e-01
-6.891500000000000403e-02 -1.426299999999999964e-02 -8.011589999999999545e-01
5.336799999999999877e-02 9.893799999999999817e-02 4.385720000000000174e-01
-1.113949999999999940e-01 -1.864790000000000059e-01 1.716390000000000138e-01
-1.535130000000000106e-01 2.619279999999999942e-01 8.358500000000000651e-02
-1.010889999999999983e-01 -8.304200000000000470e-02 -6.384130000000000082e-01
8.475199999999999401e-02 1.951519999999999921e-01 4.166340000000000043e-01
1.616190000000000127e-01 8.009000000000000494e-03 -7.035439999999999472e-01
-6.913800000000000501e-02 3.716380000000000239e-01 -1.328699999999999881e-01
-6.783799999999999553e-02 -1.235699999999999993e-01 -7.945459999999999745e-01
1.104890000000000039e-01 -2.377819999999999934e-01 -7.118980000000000308e-01
7.122299999999999465e-02 -4.507979999999999765e-01 -7.885940000000000172e-01
1.192229999999999956e-01 2.176879999999999926e-01 2.779789999999999761e-01
-4.279199999999999671e-02 -3.012429999999999830e-01 8.083799999999999319e-02
-5.517799999999999788e-02 -2.865960000000000174e-01 -7.879890000000000505e-01
-1.936940000000000051e-01 1.533009999999999928e-01 -6.810709999999999820e-01
-1.788949999999999985e-01 1.295749999999999957e-01 1.351209999999999911e-01
-1.824369999999999881e-01 1.344680000000000042e-01 9.716900000000000537e-02
-1.198999999999999979e-03 -1.766959999999999920e-01 1.698500000000000010e-02
-4.065699999999999870e-02 -3.016999999999999890e-02 3.468550000000000244e-01
1.369299999999999962e-01 -5.008479999999999599e-01 -8.234700000000000353e-01
-4.014000000000000207e-03 3.806769999999999876e-01 3.772349999999999870e-01
4.331999999999999740e-02 -1.579899999999999916e-01 -2.917730000000000046e-01
1.431749999999999967e-01 -4.219500000000000334e-02 -6.247599999999999681e-02
-3.403599999999999681e-02 -1.700309999999999877e-01 -1.587250000000000050e-01
1.353090000000000126e-01 -4.984700000000000242e-02 -5.576799999999999813e-02
1.867090000000000138e-01 1.442930000000000046e-01 -3.561700000000000282e-02
-6.229699999999999821e-02 1.646970000000000101e-01 6.932920000000000194e-01
-9.177399999999999447e-02 3.545150000000000245e-01 2.053379999999999928e-01
1.145200000000000037e-02 -1.192570000000000019e-01 -4.716569999999999929e-01
1.463220000000000076e-01 -5.330160000000000453e-01 8.859200000000000408e-02
1.227899999999999998e-02 3.652250000000000218e-01 5.066509999999999625e-01
-9.877800000000000469e-02 1.670590000000000130e-01 4.103229999999999933e-01
-4.383399999999999797e-02 -1.724080000000000057e-01 1.443830000000000113e-01
-4.925600000000000117e-02 -6.530299999999999994e-02 -6.146329999999999849e-01
1.041500000000000065e-01 -4.300749999999999851e-01 -8.478649999999999798e-01
6.728199999999999459e-02 2.895460000000000256e-01 4.470370000000000177e-01
6.652500000000000080e-02 3.167989999999999973e-01 3.768389999999999795e-01
9.953299999999999648e-02 -1.242859999999999937e-01 2.069310000000000038e-01
4.306200000000000305e-02 -3.798070000000000057e-01 1.129539999999999988e-01
-1.865340000000000054e-01 1.417819999999999914e-01 5.966500000000000276e-02
-8.732399999999999884e-02 -2.187870000000000092e-01 3.830900000000000277e-02
-1.350200000000000011e-02 4.121540000000000203e-01 -5.165410000000000279e-01
7.676399999999999890e-02 -1.008040000000000047e-01 -4.008610000000000229e-01
-7.776800000000000379e-02 2.292240000000000111e-01 7.032319999999999682e-01
-1.580000000000000016e-01 3.313659999999999939e-01 -3.896259999999999724e-01
-4.226699999999999902e-02 -5.034500000000000086e-02 -7.081330000000000124e-01
7.313400000000000456e-02 1.969990000000000074e-01 4.700110000000000121e-01
-3.861200000000000049e-02 2.771850000000000147e-01 7.155930000000000346e-01
-1.941400000000000070e-01 1.184699999999999989e-02 -6.383520000000000305e-01
1.436659999999999882e-01 -1.603249999999999953e-01 1.308050000000000046e-01
-5.992800000000000210e-02 -3.231260000000000243e-01 -7.908690000000000442e-01
-1.559280000000000110e-01 -1.417309999999999959e-01 -7.378919999999999924e-01
1.048489999999999978e-01 -4.885570000000000190e-01 1.317949999999999955e-01
-1.119679999999999981e-01 2.631700000000000150e-01 3.479030000000000178e-01
-3.650899999999999979e-02 -1.776250000000000051e-01 7.859299999999999620e-02
-1.472259999999999958e-01 -5.582059999999999800e-01 9.018500000000000127e-02
-9.746399999999999508e-02 -2.384209999999999940e-01 3.142500000000000154e-02
1.875989999999999880e-01 6.906500000000000139e-02 -4.976249999999999840e-01
-1.372009999999999896e-01 -1.639319999999999944e-01 3.230700000000000238e-02
-8.593299999999999550e-02 1.811480000000000035e-01 4.813239999999999741e-01
-5.628500000000000170e-02 -6.609900000000000497e-02 -6.604689999999999728e-01
8.236200000000000465e-02 -3.621989999999999932e-01 -8.212239999999999540e-01
1.374730000000000119e-01 2.454379999999999895e-01 4.998999999999999971e-02
-2.075929999999999997e-01 1.747879999999999989e-01 -3.868150000000000199e-01
-8.224499999999999866e-02 -8.086500000000000632e-02 -4.817040000000000211e-01
3.436000000000000165e-02 -1.564979999999999982e-01 -1.242830000000000046e-01
6.457499999999999352e-02 3.883929999999999882e-01 -4.057040000000000091e-01
-2.147540000000000004e-01 3.271299999999999902e-02 -3.093420000000000059e-01
7.260199999999999987e-02 -1.237869999999999943e-01 -5.814500000000000224e-02
1.192759999999999931e-01 -4.783810000000000007e-01 -7.239489999999999537e-01
6.307599999999999318e-02 3.771800000000000153e-01 1.598279999999999978e-01
1.603630000000000055e-01 -1.667099999999999832e-02 -3.137579999999999814e-01
1.171900000000000025e-02 3.977020000000000000e-01 -7.392750000000000155e-01
-4.238000000000000100e-02 3.975440000000000085e-01 2.670830000000000148e-01
7.269000000000000461e-02 2.362599999999999978e-01 7.029999999999999583e-01
6.576400000000000301e-02 3.454360000000000208e-01 2.154369999999999896e-01
-9.645900000000000307e-02 2.997940000000000049e-01 5.930239999999999956e-01
1.836399999999999977e-01 6.649999999999999661e-03 -2.392799999999999927e-01
-9.904799999999999716e-02 -1.225599999999999953e-02 2.978520000000000056e-01
-1.288630000000000053e-01 -2.418549999999999867e-01 -7.334929999999999506e-01
4.046099999999999697e-02 2.770500000000000046e-02 3.723890000000000255e-01
3.667999999999999820e-03 4.182150000000000034e-01 9.502000000000000030e-03
1.505809999999999926e-01 -5.219800000000000134e-02 -1.156890000000000002e-01
-1.327969999999999984e-01 -3.225879999999999859e-01 9.497099999999999986e-02
2.384899999999999867e-02 2.193000000000000071e-03 -7.699409999999999865e-01
-8.838600000000000623e-02 2.337349999999999983e-01 5.949140000000000539e-01
-2.282990000000000019e-01 9.179800000000000459e-02 -2.536769999999999858e-01
6.437500000000000167e-02 -3.463820000000000232e-01 4.355200000000000043e-02
6.409299999999999720e-02 3.739089999999999914e-01 -3.131680000000000019e-01
1.879010000000000125e-01 9.743999999999999884e-02 -6.427049999999999708e-01
-6.414000000000000257e-02 4.018550000000000177e-01 -5.730189999999999451e-01
-9.444500000000000117e-02 2.017490000000000117e-01 4.486249999999999960e-01
-6.510599999999999721e-02 -3.935449999999999782e-01 -7.822599999999999554e-01
1.400800000000000101e-01 3.040749999999999842e-01 -2.681120000000000170e-01
-5.933499999999999885e-02 1.313709999999999878e-01 6.927689999999999682e-01
7.402599999999999458e-02 -1.810380000000000045e-01 -8.402500000000000524e-01
-4.299100000000000144e-02 -1.290520000000000000e-01 -4.382409999999999917e-01
2.509799999999999878e-02 3.818540000000000267e-01 3.414119999999999933e-01
-7.470899999999999763e-02 -1.832570000000000032e-01 -6.994569999999999954e-01
-4.413000000000000256e-03 -2.042529999999999901e-01 2.267389999999999961e-01
1.677220000000000100e-01 6.101399999999999879e-02 5.758699999999999930e-02
1.556629999999999958e-01 1.472380000000000078e-01 2.162689999999999890e-01
-7.382900000000000573e-02 -4.442300000000000137e-01 -7.576739999999999586e-01
1.250660000000000105e-01 -2.273850000000000038e-01 -7.158959999999999768e-01
-2.243950000000000111e-01 1.622780000000000056e-01 -2.121359999999999912e-01
-7.580599999999999838e-02 3.212420000000000275e-01 4.308620000000000227e-01
1.949559999999999904e-01 1.500859999999999972e-01 -5.170690000000000008e-01
-1.512920000000000098e-01 2.686790000000000012e-01 3.595999999999999891e-02
1.012129999999999974e-01 -3.137610000000000121e-01 -7.419569999999999776e-01
-1.483490000000000086e-01 -4.833900000000000002e-02 -7.842400000000000482e-01
-1.724050000000000027e-01 2.890659999999999896e-01 -7.136190000000000033e-01
-1.746969999999999912e-01 3.493500000000000077e-02 2.772160000000000180e-01
-2.142650000000000110e-01 7.951199999999999934e-02 -5.388349999999999529e-01
-2.241420000000000079e-01 1.361110000000000098e-01 -1.517870000000000053e-01
8.399999999999999481e-03 4.087529999999999775e-01 -6.064739999999999576e-01
-1.297709999999999975e-01 -3.213860000000000050e-01 5.490699999999999747e-02
-1.765549999999999897e-01 -4.312200000000000061e-02 -1.161950000000000066e-01
4.381700000000000178e-02 -9.815000000000000113e-02 -7.258229999999999960e-01
-1.355550000000000088e-01 7.089999999999999948e-03 2.953120000000000189e-01
9.605600000000000249e-02 9.484299999999999675e-02 6.977999999999999758e-01
-2.249100000000000057e-02 1.046269999999999978e-01 7.649230000000000196e-01
-1.541140000000000010e-01 -5.147129999999999761e-01 8.215400000000000480e-02
-4.541499999999999704e-02 -3.226970000000000116e-01 8.099299999999999555e-02
