2.499240487813949585e-01 -4.856123030185699463e-01 3.803601115942001343e-02
2.561496496200561523e-01 -4.912723898887634277e-01 6.268083304166793823e-02
2.370920181274414062e-01 -4.865860641002655029e-01 5.944366753101348877e-02
2.427560985088348389e-01 -4.918687641620635986e-01 8.308066427707672119e-02
3.332963287830352783e-01 7.155998051166534424e-02 -4.621120393276214600e-01
3.351883292198181152e-01 6.749051064252853394e-02 -4.392378926277160645e-01
3.149821162223815918e-01 7.533474266529083252e-02 -4.460351169109344482e-01
3.170685768127441406e-01 7.116853445768356323e-02 -4.227994680404663086e-01
2.741448581218719482e-01 -4.204203486442565918e-01 -2.255208492279052734e-01
2.773348093032836914e-01 -4.236547052860260010e-01 -1.966681033372879028e-01
2.569098770618438721e-01 -4.199295341968536377e-01 -2.052504718303680420e-01
2.607788145542144775e-01 -4.236518442630767822e-01 -1.763811409473419189e-01
-5.464287996292114258e-01 -2.402905523777008057e-01 3.768107295036315918e-01
-5.355059504508972168e-01 -2.467513084411621094e-01 3.969568908214569092e-01
-5.407609939575195312e-01 -2.224020361900329590e-01 3.875031769275665283e-01
-5.294892787933349609e-01 -2.299187630414962769e-01 4.084786176681518555e-01
-2.488784790039062500e-01 7.207132130861282349e-02 3.317569196224212646e-01
-2.462831139564514160e-01 5.676695704460144043e-02 3.555461466312408447e-01
-2.360878288745880127e-01 7.787684351205825806e-02 3.438728749752044678e-01
-2.281026244163513184e-01 6.382730603218078613e-02 3.677652776241302490e-01
2.643882036209106445e-01 5.918219089508056641e-01 2.935042977333068848e-01
2.584107816219329834e-01 5.844952464103698730e-01 3.172665834426879883e-01
2.567532062530517578e-01 6.072205901145935059e-01 3.116832673549652100e-01
2.498989403247833252e-01 5.993649363517761230e-01 3.349930942058563232e-01
1.797758489847183228e-01 -2.011730372905731201e-01 -8.443249464035034180e-01
1.677508801221847534e-01 -2.204261273145675659e-01 -8.299655318260192871e-01
1.677950620651245117e-01 -1.821334809064865112e-01 -8.495828509330749512e-01
1.540932506322860718e-01 -2.015098780393600464e-01 -8.354122638702392578e-01
-2.465361058712005615e-01 7.253740429878234863e-01 1.095678359270095825e-01
-2.491842806339263916e-01 7.202579975128173828e-01 1.362363994121551514e-01
-2.420463562011718750e-01 7.405266761779785156e-01 1.340546160936355591e-01
-2.425018250942230225e-01 7.344312071800231934e-01 1.589522659778594971e-01
-2.792698889970779419e-02 7.211363315582275391e-01 -2.059639245271682739e-01
-5.213778093457221985e-02 7.253258228302001953e-01 -1.963905990123748779e-01
-4.045250639319419861e-02 7.458618879318237305e-01 -1.840026229619979858e-01
-6.493972241878509521e-02 7.505335211753845215e-01 -1.717861294746398926e-01
2.423105090856552124e-01 5.097163915634155273e-01 4.416928291320800781e-01
2.422432452440261841e-01 5.069983005523681641e-01 4.651412069797515869e-01
2.332872003316879272e-01 5.235803127288818359e-01 4.631082117557525635e-01
2.307870388031005859e-01 5.209500193595886230e-01 4.872575998306274414e-01
5.436985492706298828e-01 -2.658675611019134521e-02 -1.878579854965209961e-01
5.456218123435974121e-01 -2.857934869825839996e-02 -1.641916334629058838e-01
5.290414690971374512e-01 -1.911726407706737518e-02 -1.728220731019973755e-01
5.326893925666809082e-01 -2.215585112571716309e-02 -1.494533270597457886e-01
-2.343282103538513184e-01 7.240018248558044434e-01 2.096912115812301636e-01
-2.281825840473175049e-01 7.154135704040527344e-01 2.347822487354278564e-01
-2.175099998712539673e-01 7.319600582122802734e-01 2.291108071804046631e-01
-2.114632278680801392e-01 7.241973876953125000e-01 2.536813020706176758e-01
2.433743774890899658e-01 -3.058527708053588867e-01 -7.691699862480163574e-01
2.429823875427246094e-01 -3.199327886104583740e-01 -7.582250833511352539e-01
2.329936474561691284e-01 -2.906528711318969727e-01 -7.830971479415893555e-01
2.283609062433242798e-01 -3.080281019210815430e-01 -7.743816971778869629e-01
3.245972692966461182e-01 -4.286256432533264160e-02 4.191985726356506348e-01
3.204409778118133545e-01 -4.779443144798278809e-02 4.426141083240509033e-01
3.088420927524566650e-01 -3.267654776573181152e-02 4.371125400066375732e-01
3.046289384365081787e-01 -3.736612573266029358e-02 4.601306319236755371e-01
5.328880548477172852e-01 -2.840908467769622803e-01 -5.234147310256958008e-01
5.426445007324218750e-01 -2.888632118701934814e-01 -5.024861693382263184e-01
5.362986922264099121e-01 -2.662417590618133545e-01 -5.111116170883178711e-01
5.457810163497924805e-01 -2.703672647476196289e-01 -4.908232092857360840e-01
2.422883510589599609e-01 -2.688231766223907471e-01 -7.872150540351867676e-01
2.428271621465682983e-01 -2.828625738620758057e-01 -7.778268456459045410e-01
2.324042022228240967e-01 -2.497698813676834106e-01 -8.013926148414611816e-01
2.341566979885101318e-01 -2.626529633998870850e-01 -7.934736013412475586e-01
-6.950772404670715332e-01 -2.821016609668731689e-01 -5.776318907737731934e-02
-6.966293454170227051e-01 -2.829722762107849121e-01 -3.588132932782173157e-02
-6.996345520019531250e-01 -2.681569457054138184e-01 -4.337009415030479431e-02
-7.009245753288269043e-01 -2.694238126277923584e-01 -2.274826355278491974e-02
-1.386250704526901245e-01 -3.914040923118591309e-01 -2.361000776290893555e-01
-1.328177005052566528e-01 -3.936953842639923096e-01 -2.055035829544067383e-01
-1.585082709789276123e-01 -3.922724127769470215e-01 -2.170119583606719971e-01
-1.518061310052871704e-01 -3.939062356948852539e-01 -1.874921619892120361e-01
-6.288672089576721191e-01 -2.716436982154846191e-01 -3.534621298313140869e-01
-6.315000057220458984e-01 -2.749582231044769287e-01 -3.278253376483917236e-01
-6.338135600090026855e-01 -2.516615092754364014e-01 -3.398222923278808594e-01
-6.371657252311706543e-01 -2.553522884845733643e-01 -3.141931891441345215e-01
-6.748104840517044067e-02 -5.020260214805603027e-01 1.792278438806533813e-01
-6.282727420330047607e-02 -5.074160099029541016e-01 2.022972553968429565e-01
-8.581549674272537231e-02 -5.023508667945861816e-01 1.970433592796325684e-01
-8.113531768321990967e-02 -5.076454281806945801e-01 2.207447290420532227e-01
-1.384561508893966675e-01 6.907534599304199219e-01 3.371679782867431641e-01
-1.282927989959716797e-01 6.876980662345886230e-01 3.536995053291320801e-01
-1.239130049943923950e-01 7.075651288032531738e-01 3.412241041660308838e-01
-1.169201433658599854e-01 7.018652558326721191e-01 3.565975725650787354e-01
4.609458446502685547e-01 -3.170253038406372070e-01 4.718577861785888672e-01
4.501990377902984619e-01 -3.191663622856140137e-01 4.908535778522491455e-01
4.471153020858764648e-01 -2.951856553554534912e-01 4.797674417495727539e-01
4.357431232929229736e-01 -2.976708114147186279e-01 4.997254014015197754e-01
-2.205718308687210083e-01 2.153736650943756104e-01 -6.344448924064636230e-01
-2.199470996856689453e-01 2.049645036458969116e-01 -6.126419901847839355e-01
-2.396371662616729736e-01 2.101775854825973511e-01 -6.278635859489440918e-01
-2.347522228956222534e-01 2.024153023958206177e-01 -6.021316051483154297e-01
2.351588606834411621e-01 2.347331643104553223e-01 -7.219789624214172363e-01
2.400450259447097778e-01 2.309604287147521973e-01 -6.981813311576843262e-01
2.240554243326187134e-01 2.398624569177627563e-01 -7.017772793769836426e-01
2.256133258342742920e-01 2.358871698379516602e-01 -6.786177158355712891e-01
-2.001466602087020874e-02 1.405951231718063354e-01 4.184106588363647461e-01
-3.168039023876190186e-02 1.216605156660079956e-01 4.233250319957733154e-01
-3.964236378669738770e-02 1.542995274066925049e-01 4.144128262996673584e-01
-4.946308583021163940e-02 1.376833915710449219e-01 4.191581606864929199e-01
-4.406152963638305664e-01 -1.206832155585289001e-01 4.337548315525054932e-01
-4.369147717952728271e-01 -1.294917017221450806e-01 4.516773223876953125e-01
-4.257436096668243408e-01 -1.121854931116104126e-01 4.488559067249298096e-01
-4.212238490581512451e-01 -1.213638037443161011e-01 4.656003415584564209e-01
-8.391987532377243042e-02 -1.673983484506607056e-01 6.881983876228332520e-01
-8.885029703378677368e-02 -1.816970705986022949e-01 6.940382122993469238e-01
-9.933368116617202759e-02 -1.583954691886901855e-01 6.813352704048156738e-01
-1.049142330884933472e-01 -1.727575957775115967e-01 6.871193647384643555e-01
5.720743536949157715e-01 -2.381977885961532593e-01 -4.620977640151977539e-01
5.801060795783996582e-01 -2.414180934429168701e-01 -4.375097751617431641e-01
5.727757811546325684e-01 -2.224631309509277344e-01 -4.485351145267486572e-01
5.802283287048339844e-01 -2.250946462154388428e-01 -4.229955077171325684e-01
-2.805378846824169159e-02 -3.681516349315643311e-01 -3.588693737983703613e-01
-2.097638323903083801e-02 -3.689736723899841309e-01 -3.362466394901275635e-01
-4.931273311376571655e-02 -3.682690560817718506e-01 -3.358671069145202637e-01
-4.371356219053268433e-02 -3.687720596790313721e-01 -3.119678795337677002e-01
6.650427728891372681e-02 2.548771202564239502e-01 -8.464537858963012695e-01
7.881791889667510986e-02 2.660289108753204346e-01 -8.248951435089111328e-01
5.617190152406692505e-02 2.752443850040435791e-01 -8.306845426559448242e-01
6.811668723821640015e-02 2.851182222366333008e-01 -8.078086972236633301e-01
-3.924753665924072266e-01 -3.868983685970306396e-01 -5.517717599868774414e-01
-3.901520669460296631e-01 -3.917110264301300049e-01 -5.264981389045715332e-01
-4.124597012996673584e-01 -3.842235803604125977e-01 -5.382938981056213379e-01
-4.108240902423858643e-01 -3.873390257358551025e-01 -5.127637982368469238e-01
1.302460283041000366e-01 3.975597918033599854e-01 6.563581228256225586e-01
1.219461187720298767e-01 3.942407667636871338e-01 6.772509813308715820e-01
1.166249811649322510e-01 4.105038344860076904e-01 6.697183847427368164e-01
1.080095171928405762e-01 4.051728248596191406e-01 6.883751749992370605e-01
-5.266769528388977051e-01 -2.001694440841674805e-01 -5.834897160530090332e-01
-5.328080058097839355e-01 -2.065375894308090210e-01 -5.552282333374023438e-01
-5.340306758880615234e-01 -1.828276664018630981e-01 -5.684194564819335938e-01
-5.407434105873107910e-01 -1.894991844892501831e-01 -5.392182469367980957e-01
1.876090168952941895e-01 5.104854106903076172e-01 -2.276940047740936279e-01
2.064650803804397583e-01 5.123060941696166992e-01 -2.084755450487136841e-01
1.883259266614913940e-01 5.314959287643432617e-01 -2.156875729560852051e-01
2.075439244508743286e-01 5.325917601585388184e-01 -1.941791027784347534e-01
-2.130787819623947144e-01 1.754217445850372314e-01 -3.986804187297821045e-02
-2.235227078199386597e-01 1.704213470220565796e-01 -1.254083774983882904e-02
-2.198363542556762695e-01 1.926309913396835327e-01 -1.804321631789207458e-02
-2.302559614181518555e-01 1.874680370092391968e-01 1.026994548738002777e-02
5.069808363914489746e-01 -4.656380414962768555e-01 -2.581510543823242188e-01
5.139526128768920898e-01 -4.697996973991394043e-01 -2.357322871685028076e-01
4.955027699470520020e-01 -4.644009768962860107e-01 -2.430061250925064087e-01
5.027229189872741699e-01 -4.679173231124877930e-01 -2.212171107530593872e-01
-6.841044127941131592e-02 -3.789831995964050293e-01 -9.708560258150100708e-02
-6.541299074888229370e-02 -3.866713345050811768e-01 -7.891968637704849243e-02
-7.763745635747909546e-02 -3.763902485370635986e-01 -8.715064823627471924e-02
-7.404374331235885620e-02 -3.852770626544952393e-01 -6.977704167366027832e-02
-1.454449295997619629e-01 6.330073475837707520e-01 5.736778378486633301e-01
-1.403575241565704346e-01 6.324756145477294922e-01 5.985424518585205078e-01
-1.425609141588211060e-01 6.538879871368408203e-01 5.909089446067810059e-01
-1.390459239482879639e-01 6.521376371383666992e-01 6.150450110435485840e-01
-6.003922224044799805e-01 -3.749249577522277832e-01 2.465860098600387573e-01
-5.948639512062072754e-01 -3.752492964267730713e-01 2.674461305141448975e-01
-6.060981154441833496e-01 -3.607164025306701660e-01 2.632091939449310303e-01
-5.999068021774291992e-01 -3.609325289726257324e-01 2.838124036788940430e-01
-4.545175135135650635e-01 -3.093524575233459473e-01 -6.141114830970764160e-01
-4.615213572978973389e-01 -3.129051029682159424e-01 -5.955122113227844238e-01
-4.741725325584411621e-01 -2.963466942310333252e-01 -6.033530831336975098e-01
-4.807274341583251953e-01 -3.001646399497985840e-01 -5.838826298713684082e-01
1.627254188060760498e-01 2.320844233036041260e-01 -8.169732689857482910e-01
1.781289726495742798e-01 2.418784648180007935e-01 -7.953016757965087891e-01
1.560312807559967041e-01 2.502804100513458252e-01 -7.985190749168395996e-01
1.702958345413208008e-01 2.610836923122406006e-01 -7.762780189514160156e-01
2.526906728744506836e-01 -4.546504616737365723e-01 -7.105396687984466553e-02
2.575205564498901367e-01 -4.579669833183288574e-01 -4.484383389353752136e-02
2.374165356159210205e-01 -4.565148949623107910e-01 -4.379342496395111084e-02
2.420832663774490356e-01 -4.596879482269287109e-01 -1.723380573093891144e-02
-2.686193287372589111e-01 4.165540933609008789e-01 3.949648439884185791e-01
-2.628084719181060791e-01 4.134762585163116455e-01 4.142884314060211182e-01
-2.639719545841217041e-01 4.284631907939910889e-01 4.129780828952789307e-01
-2.589452564716339111e-01 4.254190623760223389e-01 4.318757057189941406e-01
3.317022323608398438e-01 2.664197087287902832e-01 -2.339548245072364807e-02
3.339132964611053467e-01 2.590322494506835938e-01 -2.343032974749803543e-03
3.400920629501342773e-01 2.723593711853027344e-01 -3.409955650568008423e-03
3.408125340938568115e-01 2.659319937229156494e-01 1.617595180869102478e-02
-1.404178142547607422e-01 1.113681122660636902e-01 -2.526442110538482666e-01
-1.360484361648559570e-01 1.094397827982902527e-01 -2.333842813968658447e-01
-1.475488990545272827e-01 1.139011383056640625e-01 -2.351880669593811035e-01
-1.430958658456802368e-01 1.119379252195358276e-01 -2.164725363254547119e-01
-4.804437607526779175e-02 -3.759759068489074707e-01 -3.300199210643768311e-01
-4.268046468496322632e-02 -3.764928877353668213e-01 -3.056865632534027100e-01
-6.408783793449401855e-02 -3.771899342536926270e-01 -3.094074130058288574e-01
-5.885474011301994324e-02 -3.776770532131195068e-01 -2.844403386116027832e-01
5.070527195930480957e-01 -3.725972473621368408e-01 4.056707620620727539e-01
4.996689260005950928e-01 -3.742016255855560303e-01 4.243943989276885986e-01
5.038431286811828613e-01 -3.551658689975738525e-01 4.207413792610168457e-01
4.955057501792907715e-01 -3.573888540267944336e-01 4.386123716831207275e-01
5.754312872886657715e-01 -4.932403936982154846e-02 -1.125387772917747498e-01
5.769001245498657227e-01 -5.174536630511283875e-02 -8.813297748565673828e-02
5.617619752883911133e-01 -4.293678700923919678e-02 -9.727028757333755493e-02
5.634813308715820312e-01 -4.587345197796821594e-02 -7.411853969097137451e-02
-3.274285793304443359e-01 7.297137379646301270e-02 -2.235658168792724609e-01
-3.157534301280975342e-01 7.137242704629898071e-02 -2.026403546333312988e-01
-3.374652266502380371e-01 7.036785036325454712e-02 -1.983611583709716797e-01
-3.258168995380401611e-01 6.850460916757583618e-02 -1.775290071964263916e-01
-6.870558261871337891e-01 -1.526912748813629150e-01 -1.079034283757209778e-01
-6.886159777641296387e-01 -1.568174958229064941e-01 -8.183488249778747559e-02
-6.854879260063171387e-01 -1.397646665573120117e-01 -8.734405040740966797e-02
-6.866207122802734375e-01 -1.445003747940063477e-01 -6.072312593460083008e-02
-1.619652360677719116e-01 2.718135714530944824e-01 -7.364024519920349121e-01
-1.698778271675109863e-01 2.653038799762725830e-01 -7.131495475769042969e-01
-1.650610715150833130e-01 2.856233119964599609e-01 -7.142782211303710938e-01
-1.720434427261352539e-01 2.774372994899749756e-01 -6.903018355369567871e-01
1.269909888505935669e-01 5.795488357543945312e-01 5.958514213562011719e-01
9.864891320466995239e-02 5.788227915763854980e-01 6.104382276535034180e-01
1.202002614736557007e-01 6.055791974067687988e-01 6.119845509529113770e-01
9.328497946262359619e-02 6.048454046249389648e-01 6.245118379592895508e-01
5.450245738029479980e-01 -3.812863826751708984e-01 -3.919064700603485107e-01
5.434857010841369629e-01 -3.967428803443908691e-01 -3.700631856918334961e-01
5.552507042884826660e-01 -3.728798627853393555e-01 -3.699378967285156250e-01
5.533648729324340820e-01 -3.865731656551361084e-01 -3.499294519424438477e-01
-5.849671363830566406e-01 -2.085423022508621216e-01 3.056930303573608398e-01
-5.776167511940002441e-01 -2.116579413414001465e-01 3.238862752914428711e-01
-5.749306082725524902e-01 -1.921674311161041260e-01 3.182471096515655518e-01
-5.663149356842041016e-01 -1.966339200735092163e-01 3.367354273796081543e-01
-4.635220766067504883e-02 4.732668697834014893e-01 5.837239623069763184e-01
-5.306558310985565186e-02 4.633308649063110352e-01 5.997789502143859863e-01
-6.663104891777038574e-02 4.721721112728118896e-01 5.883532762527465820e-01
-7.284357398748397827e-02 4.621773660182952881e-01 6.048072576522827148e-01
5.525779128074645996e-01 -9.936141222715377808e-02 1.689393073320388794e-01
5.511272549629211426e-01 -1.057182401418685913e-01 1.924449801445007324e-01
5.326845049858093262e-01 -9.230402112007141113e-02 1.844718009233474731e-01
5.311782956123352051e-01 -9.850529581308364868e-02 2.082465142011642456e-01
2.776376008987426758e-01 1.902214288711547852e-01 -7.192770242691040039e-01
2.839576005935668945e-01 1.873590350151062012e-01 -6.926165819168090820e-01
2.704653143882751465e-01 2.005753517150878906e-01 -6.984024047851562500e-01
2.737606465816497803e-01 1.977848857641220093e-01 -6.734389066696166992e-01
-4.949195981025695801e-01 -2.601367235183715820e-01 -5.950003266334533691e-01
-5.001379847526550293e-01 -2.638463675975799561e-01 -5.729387402534484863e-01
-5.054748058319091797e-01 -2.469014823436737061e-01 -5.780059695243835449e-01
-5.105510354042053223e-01 -2.506301999092102051e-01 -5.543196201324462891e-01
-1.566023826599121094e-01 -5.964472293853759766e-01 5.002903342247009277e-01
-1.533036828041076660e-01 -5.958233475685119629e-01 5.246254801750183105e-01
-1.734984070062637329e-01 -5.900658369064331055e-01 5.199043154716491699e-01
-1.684409528970718384e-01 -5.878710746765136719e-01 5.447679162025451660e-01
8.979316055774688721e-02 2.053901255130767822e-01 -5.993767976760864258e-01
8.120363950729370117e-02 1.973148435354232788e-01 -5.821168422698974609e-01
7.383018732070922852e-02 2.064573615789413452e-01 -5.916448235511779785e-01
6.490414589643478394e-02 1.978755742311477661e-01 -5.741192102432250977e-01
-9.713429212570190430e-02 6.116676330566406250e-02 -8.695099353790283203e-01
-1.209740415215492249e-01 5.780428647994995117e-02 -8.608375787734985352e-01
-1.116332188248634338e-01 7.701507210731506348e-02 -8.585132360458374023e-01
-1.347672343254089355e-01 7.591994851827621460e-02 -8.479771614074707031e-01
2.160013467073440552e-01 -2.847239375114440918e-01 6.830288767814636230e-01
1.996233612298965454e-01 -2.896004915237426758e-01 6.961426734924316406e-01
1.987023651599884033e-01 -2.701371908187866211e-01 6.940959095954895020e-01
1.821303814649581909e-01 -2.740129828453063965e-01 7.062317728996276855e-01
6.545927524566650391e-01 -1.695862263441085815e-01 1.731593348085880280e-02
6.542487740516662598e-01 -1.718511134386062622e-01 4.098244756460189819e-02
6.405445933341979980e-01 -1.511480361223220825e-01 3.485655412077903748e-02
6.406954526901245117e-01 -1.535451412200927734e-01 5.706809088587760925e-02
3.226852118968963623e-01 2.175328284502029419e-01 1.613696515560150146e-01
3.154737651348114014e-01 2.131540030241012573e-01 1.882775127887725830e-01
3.251179456710815430e-01 2.345239371061325073e-01 1.776106357574462891e-01
3.171074688434600830e-01 2.309757024049758911e-01 2.055648714303970337e-01
-1.643307209014892578e-01 -1.099286079406738281e-01 -8.523758649826049805e-01
-1.852617710828781128e-01 -1.150257289409637451e-01 -8.421510457992553711e-01
-1.847591102123260498e-01 -9.018843621015548706e-02 -8.466818928718566895e-01
-2.045018672943115234e-01 -9.401312470436096191e-02 -8.335313796997070312e-01
4.347674846649169922e-01 -2.585930824279785156e-01 4.915613830089569092e-01
4.250769317150115967e-01 -2.618057727813720703e-01 5.115579366683959961e-01
4.192870855331420898e-01 -2.501861155033111572e-01 5.056961774826049805e-01
4.094672203063964844e-01 -2.539925575256347656e-01 5.250648260116577148e-01
-5.532373189926147461e-01 -3.102614283561706543e-01 3.835408687591552734e-01
-5.431299805641174316e-01 -3.134738504886627197e-01 4.036005735397338867e-01
-5.495280027389526367e-01 -2.903190255165100098e-01 3.954275548458099365e-01
-5.384656190872192383e-01 -2.960025668144226074e-01 4.150295853614807129e-01
-4.986849427223205566e-01 -3.878154158592224121e-01 -4.577487707138061523e-01
-4.980455040931701660e-01 -3.923167288303375244e-01 -4.384034574031829834e-01
-5.094199180603027344e-01 -3.834870457649230957e-01 -4.434565901756286621e-01
-5.093057155609130859e-01 -3.886225223541259766e-01 -4.238357543945312500e-01
2.454845160245895386e-01 7.506457567214965820e-01 -4.329491406679153442e-02
2.528203725814819336e-01 7.480166554450988770e-01 -1.689972914755344391e-02
2.382907718420028687e-01 7.743607163429260254e-01 -2.908942848443984985e-02
2.458252012729644775e-01 7.703829407691955566e-01 -2.743882127106189728e-03
-1.996212005615234375e-01 9.885083138942718506e-02 -2.257774472236633301e-01
-1.901910305023193359e-01 9.259118139743804932e-02 -2.043998241424560547e-01
-2.102421224117279053e-01 1.060860008001327515e-01 -2.111644148826599121e-01
-2.005067914724349976e-01 9.991418570280075073e-02 -1.890798360109329224e-01
-1.379529386758804321e-01 -3.565095663070678711e-01 -5.453217625617980957e-01
-1.286533772945404053e-01 -3.561851978302001953e-01 -5.207925438880920410e-01
-1.565618813037872314e-01 -3.551908135414123535e-01 -5.214987397193908691e-01
-1.487659066915512085e-01 -3.539537489414215088e-01 -4.972895085811614990e-01
2.694285213947296143e-01 -5.371090769767761230e-01 5.822250843048095703e-01
2.516033053398132324e-01 -5.391339659690856934e-01 5.987930297851562500e-01
2.637806534767150879e-01 -5.235735774040222168e-01 6.019803285598754883e-01
2.460800260305404663e-01 -5.261264443397521973e-01 6.183828711509704590e-01
1.054303869605064392e-01 2.305235862731933594e-01 -1.886239945888519287e-01
1.050485000014305115e-01 2.118337303400039673e-01 -1.688455343246459961e-01
9.716061502695083618e-02 2.499162852764129639e-01 -1.963140964508056641e-01
9.191424399614334106e-02 2.274828851222991943e-01 -1.765259206295013428e-01
2.195451408624649048e-01 8.236796855926513672e-01 1.122258510440587997e-02
2.205287516117095947e-01 8.242695927619934082e-01 3.324468061327934265e-02
2.080508023500442505e-01 8.385151028633117676e-01 2.911171689629554749e-02
2.083869725465774536e-01 8.395325541496276855e-01 5.164471268653869629e-02
4.567422717809677124e-02 -4.613417387008666992e-01 2.923201024532318115e-02
5.013865232467651367e-02 -4.666793942451477051e-01 5.590298026800155640e-02
3.029907494783401489e-02 -4.601203799247741699e-01 4.716183990240097046e-02
3.468085080385208130e-02 -4.650063216686248779e-01 7.411805540323257446e-02
-9.897369891405105591e-02 -3.912166059017181396e-01 -2.482323348522186279e-01
-9.382496774196624756e-02 -3.934971988201141357e-01 -2.171657085418701172e-01
-1.143308058381080627e-01 -3.923534452915191650e-01 -2.257012426853179932e-01
-1.082626655697822571e-01 -3.944514691829681396e-01 -1.945649981498718262e-01
-1.945948451757431030e-01 8.208636045455932617e-01 5.015613511204719543e-02
-2.013384699821472168e-01 8.139514327049255371e-01 7.763677090406417847e-02
-1.911019980907440186e-01 8.339547514915466309e-01 8.029738068580627441e-02
-1.973180919885635376e-01 8.254219293594360352e-01 1.069396585226058960e-01
-6.134356856346130371e-01 -3.569503128528594971e-01 2.326874136924743652e-01
-6.067969202995300293e-01 -3.580039739608764648e-01 2.524312138557434082e-01
-6.160498857498168945e-01 -3.396505415439605713e-01 2.466358989477157593e-01
-6.094220280647277832e-01 -3.401553630828857422e-01 2.654800713062286377e-01
2.754468619823455811e-01 7.003412395715713501e-02 -2.616199553012847900e-01
2.778820693492889404e-01 6.995318830013275146e-02 -2.391687035560607910e-01
2.596350014209747314e-01 7.828183472156524658e-02 -2.473184168338775635e-01
2.627160251140594482e-01 7.767690718173980713e-02 -2.220918089151382446e-01
3.313075304031372070e-01 -5.645061731338500977e-01 2.601989507675170898e-01
3.355849683284759521e-01 -5.667817592620849609e-01 2.840209007263183594e-01
3.159715235233306885e-01 -5.636156797409057617e-01 2.804585993289947510e-01
3.195325434207916260e-01 -5.668587684631347656e-01 3.046056032180786133e-01
1.923823729157447815e-03 -3.872449323534965515e-02 -8.873768448829650879e-01
-1.467325910925865173e-02 -5.933904647827148438e-02 -8.821351528167724609e-01
-8.356317877769470215e-03 -1.553535275161266327e-02 -8.852650523185729980e-01
-2.539261803030967712e-02 -3.522218018770217896e-02 -8.802871704101562500e-01
5.922290682792663574e-01 -1.350502371788024902e-01 -4.364382326602935791e-01
5.978614091873168945e-01 -1.353479772806167603e-01 -4.099461734294891357e-01
5.867809057235717773e-01 -1.230483129620552063e-01 -4.144609868526458740e-01
5.919325351715087891e-01 -1.231524720788002014e-01 -3.870159089565277100e-01
2.541131675243377686e-01 9.325375407934188843e-02 -8.217722773551940918e-01
2.684964239597320557e-01 1.001631915569305420e-01 -8.038619756698608398e-01
2.509696483612060547e-01 1.160770058631896973e-01 -8.052942752838134766e-01
2.641851603984832764e-01 1.227881461381912231e-01 -7.870555520057678223e-01
-4.411212205886840820e-01 -7.627129554748535156e-02 3.733592033386230469e-01
-4.404552280902862549e-01 -8.653257787227630615e-02 3.932780027389526367e-01
-4.290028214454650879e-01 -7.223510742187500000e-02 3.916329145431518555e-01
-4.289291799068450928e-01 -8.212208747863769531e-02 4.095643162727355957e-01
4.011238813400268555e-01 1.352717727422714233e-02 -2.040649652481079102e-01
4.077086746692657471e-01 1.078358385711908340e-02 -1.828037351369857788e-01
3.871856331825256348e-01 1.890457980334758759e-02 -1.917244344949722290e-01
3.939228951930999756e-01 1.608349569141864777e-02 -1.704706102609634399e-01
-2.169021815061569214e-01 3.991453051567077637e-01 5.192456245422363281e-01
-2.050785422325134277e-01 4.027702808380126953e-01 5.431650876998901367e-01
-2.224863022565841675e-01 4.222925901412963867e-01 5.252169370651245117e-01
-2.112129479646682739e-01 4.230775535106658936e-01 5.480958223342895508e-01
-2.090459465980529785e-01 -2.150685191154479980e-01 6.876597404479980469e-01
-1.977497935295104980e-01 -2.209700196981430054e-01 6.987047791481018066e-01
-2.045470923185348511e-01 -1.974499970674514771e-01 6.852406859397888184e-01
-1.924404054880142212e-01 -2.015136778354644775e-01 6.978597044944763184e-01
1.704585403203964233e-01 -5.014514923095703125e-01 1.113076731562614441e-01
1.744978278875350952e-01 -5.057262182235717773e-01 1.335145384073257446e-01
1.488865017890930176e-01 -4.968795478343963623e-01 1.233320310711860657e-01
1.529483795166015625e-01 -5.017695426940917969e-01 1.472656577825546265e-01
-1.846682876348495483e-01 7.089901566505432129e-01 -1.304359734058380127e-01
-1.976470500230789185e-01 7.083663940429687500e-01 -1.048076227307319641e-01
-1.951525956392288208e-01 7.270763516426086426e-01 -1.074320971965789795e-01
-2.068727910518646240e-01 7.259293198585510254e-01 -8.167086541652679443e-02
5.473156571388244629e-01 -1.896122545003890991e-01 2.741501033306121826e-01
5.443927049636840820e-01 -1.949490457773208618e-01 2.956791520118713379e-01
5.374112725257873535e-01 -1.755792200565338135e-01 2.921094596385955811e-01
5.336216092109680176e-01 -1.813471168279647827e-01 3.135845363140106201e-01
-5.805194377899169922e-04 7.453233003616333008e-02 4.644279181957244873e-01
-5.784507375210523605e-03 6.150962784886360168e-02 4.819552898406982422e-01
-1.903597824275493622e-02 7.193176448345184326e-02 4.730117321014404297e-01
-2.470088191330432892e-02 5.882459133863449097e-02 4.902489781379699707e-01
-5.064784288406372070e-01 3.506914945319294930e-03 -2.763459086418151855e-02
-4.941506087779998779e-01 4.568060860037803650e-03 -6.187763065099716187e-03
-5.126469731330871582e-01 -3.484077751636505127e-04 5.200016777962446213e-03
-5.028186440467834473e-01 -9.961131727322936058e-04 2.515490725636482239e-02
1.503666043281555176e-01 2.377578169107437134e-01 4.242456257343292236e-01
1.292834877967834473e-01 2.415071725845336914e-01 4.425365924835205078e-01
1.481970697641372681e-01 2.639888226985931396e-01 4.486340284347534180e-01
1.309738755226135254e-01 2.684444487094879150e-01 4.697546958923339844e-01
1.235950142145156860e-01 -3.847705125808715820e-01 -6.628051400184631348e-01
1.305511593818664551e-01 -3.836958110332489014e-01 -6.386874914169311523e-01
1.136711537837982178e-01 -3.797353804111480713e-01 -6.410524249076843262e-01
1.207429841160774231e-01 -3.786925971508026123e-01 -6.180439591407775879e-01
-3.559741377830505371e-02 -2.931873202323913574e-01 -8.287492394447326660e-01
-5.102100223302841187e-02 -3.096517026424407959e-01 -8.130421638488769531e-01
-6.330627202987670898e-02 -2.826758921146392822e-01 -8.282876610755920410e-01
-7.985402643680572510e-02 -2.983567416667938232e-01 -8.128399848937988281e-01
-1.911285072565078735e-01 2.594075500965118408e-01 -7.209439873695373535e-01
-1.959108859300613403e-01 2.507245540618896484e-01 -6.975780129432678223e-01
-1.922205537557601929e-01 2.677592039108276367e-01 -6.948993206024169922e-01
-1.971176117658615112e-01 2.583238780498504639e-01 -6.709613800048828125e-01
5.557578206062316895e-01 -5.418493598699569702e-02 6.348093040287494659e-03
5.616220831871032715e-01 -5.789473280310630798e-02 2.926794067025184631e-02
5.443404912948608398e-01 -5.172343179583549500e-02 2.624171599745750427e-02
5.497254133224487305e-01 -5.485891178250312805e-02 4.861606657505035400e-02
3.539555966854095459e-01 5.008589625358581543e-01 2.077900618314743042e-01
3.514772653579711914e-01 4.998806118965148926e-01 2.333413064479827881e-01
3.416024446487426758e-01 5.106115341186523438e-01 2.321784049272537231e-01
3.387140631675720215e-01 5.097824335098266602e-01 2.578089535236358643e-01
-1.599823981523513794e-01 2.942129075527191162e-01 4.594221115112304688e-01
-1.495868712663650513e-01 3.006550967693328857e-01 4.859503507614135742e-01
-1.678316891193389893e-01 3.092232644557952881e-01 4.807395637035369873e-01
-1.579976379871368408e-01 3.164596855640411377e-01 5.084305405616760254e-01
-1.102904155850410461e-01 -3.696222603321075439e-01 -3.601845800876617432e-01
-1.015263423323631287e-01 -3.705948889255523682e-01 -3.358107507228851318e-01
-1.249159425497055054e-01 -3.687942028045654297e-01 -3.372626304626464844e-01
-1.165223419666290283e-01 -3.692464828491210938e-01 -3.112188875675201416e-01
2.277291268110275269e-01 3.954842090606689453e-01 5.153908133506774902e-01
2.171243578195571899e-01 3.917492926120758057e-01 5.370010733604431152e-01
2.274896949529647827e-01 4.167664349079132080e-01 5.296795368194580078e-01
2.162961214780807495e-01 4.130534827709197998e-01 5.508302450180053711e-01
-3.354770243167877197e-01 -1.576376557350158691e-01 -7.703974246978759766e-01
-3.491725623607635498e-01 -1.614414602518081665e-01 -7.518838644027709961e-01
-3.467592000961303711e-01 -1.460644006729125977e-01 -7.557103037834167480e-01
-3.590490221977233887e-01 -1.489366292953491211e-01 -7.366374731063842773e-01
-3.172554671764373779e-01 2.441650442779064178e-02 3.380987346172332764e-01
-3.227429091930389404e-01 1.025671605020761490e-02 3.628408908843994141e-01
-3.011638224124908447e-01 2.755989879369735718e-02 3.611198961734771729e-01
-3.051778376102447510e-01 1.296210195869207382e-02 3.842293024063110352e-01
2.070645987987518311e-01 -2.682065963745117188e-01 6.691679358482360840e-01
1.917987167835235596e-01 -2.724345922470092773e-01 6.811463236808776855e-01
1.893547326326370239e-01 -2.582059204578399658e-01 6.786623001098632812e-01
1.737568527460098267e-01 -2.616108059883117676e-01 6.903178095817565918e-01
-2.366554439067840576e-01 -5.105810761451721191e-01 2.247200012207031250e-01
-2.293245196342468262e-01 -5.127773880958557129e-01 2.517189979553222656e-01
-2.590956687927246094e-01 -5.113575458526611328e-01 2.454020828008651733e-01
-2.520580887794494629e-01 -5.135764479637145996e-01 2.719463407993316650e-01
-5.428068712353706360e-02 -1.469986587762832642e-01 6.957719326019287109e-01
-5.841772258281707764e-02 -1.614402532577514648e-01 7.029786109924316406e-01
-7.046862691640853882e-02 -1.387193500995635986e-01 6.885389089584350586e-01
-7.428470999002456665e-02 -1.533042341470718384e-01 6.958486437797546387e-01
9.063497185707092285e-02 2.811951041221618652e-01 -6.595946550369262695e-01
8.355601876974105835e-02 2.708086669445037842e-01 -6.417385339736938477e-01
7.353716343641281128e-02 2.872231006622314453e-01 -6.542083024978637695e-01
6.568149477243423462e-02 2.759680151939392090e-01 -6.366584300994873047e-01
-6.524680852890014648e-01 -1.554563343524932861e-01 -3.061273097991943359e-01
-6.580338478088378906e-01 -1.612404286861419678e-01 -2.810441851615905762e-01
-6.589966416358947754e-01 -1.404227614402770996e-01 -2.865808010101318359e-01
-6.642578840255737305e-01 -1.464379131793975830e-01 -2.621597945690155029e-01
6.369436532258987427e-02 1.309669315814971924e-01 -4.986684024333953857e-01
6.437970697879791260e-02 1.249183341860771179e-01 -4.791845977306365967e-01
4.459956660866737366e-02 1.318310797214508057e-01 -4.865094721317291260e-01
4.676066339015960693e-02 1.263002008199691772e-01 -4.667549133300781250e-01
-1.245112717151641846e-01 -4.309551417827606201e-01 -5.374354496598243713e-02
-1.191481351852416992e-01 -4.330601394176483154e-01 -3.194027021527290344e-02
-1.412871778011322021e-01 -4.339458644390106201e-01 -4.173783957958221436e-02
-1.353626400232315063e-01 -4.361559152603149414e-01 -2.015247754752635956e-02
3.879077434539794922e-01 3.253469467163085938e-01 1.143773868680000305e-01
3.831883668899536133e-01 3.237194716930389404e-01 1.375405788421630859e-01
3.804962933063507080e-01 3.363360464572906494e-01 1.318376362323760986e-01
3.752678334712982178e-01 3.357380628585815430e-01 1.554716080427169800e-01
3.903767466545104980e-01 -1.077589765191078186e-01 4.189644157886505127e-01
3.859749734401702881e-01 -1.134826615452766418e-01 4.415498077869415283e-01
3.745546042919158936e-01 -9.644200652837753296e-02 4.341502785682678223e-01
3.695462644100189209e-01 -1.023676320910453796e-01 4.570094048976898193e-01
4.584419075399637222e-03 3.726840317249298096e-01 6.584442853927612305e-01
1.322919037193059921e-02 3.810899555683135986e-01 6.785752773284912109e-01
-8.308195509016513824e-03 3.867231309413909912e-01 6.721870899200439453e-01
2.386470092460513115e-03 3.944457769393920898e-01 6.925250291824340820e-01
4.750830829143524170e-01 -3.698563873767852783e-01 -5.230543017387390137e-01
4.751373231410980225e-01 -3.816832005977630615e-01 -4.987854957580566406e-01
4.913243949413299561e-01 -3.625401556491851807e-01 -5.043318867683410645e-01
4.908095002174377441e-01 -3.772355616092681885e-01 -4.790434539318084717e-01
3.117594122886657715e-01 -1.011157482862472534e-01 5.075422525405883789e-01
3.044072091579437256e-01 -1.073653697967529297e-01 5.311318039894104004e-01
2.961765825748443604e-01 -8.580892533063888550e-02 5.147032141685485840e-01
2.892677485942840576e-01 -9.235837310552597046e-02 5.382589101791381836e-01
2.253530547022819519e-02 2.018490582704544067e-01 -5.860192775726318359e-01
1.496472023427486420e-02 1.900195032358169556e-01 -5.683003664016723633e-01
2.818596549332141876e-04 2.037351876497268677e-01 -5.849620699882507324e-01
-6.293272133916616440e-03 1.921312808990478516e-01 -5.668885111808776855e-01
5.535958707332611084e-02 -2.598068118095397949e-01 7.065313458442687988e-01
3.865086287260055542e-02 -2.793576121330261230e-01 7.165062427520751953e-01
3.898877277970314026e-02 -2.355641573667526245e-01 7.033805847167968750e-01
2.374165318906307220e-02 -2.571720182895660400e-01 7.134484052658081055e-01
5.660574883222579956e-02 3.502201735973358154e-01 -7.446061968803405762e-01
6.370301544666290283e-02 3.496564328670501709e-01 -7.225484848022460938e-01
4.889852553606033325e-02 3.574334383010864258e-01 -7.272531390190124512e-01
5.354928597807884216e-02 3.549401760101318359e-01 -7.056745290756225586e-01
-4.556181132793426514e-01 -3.987865746021270752e-01 -4.106666147708892822e-01
-4.475180506706237793e-01 -3.982749581336975098e-01 -3.858523666858673096e-01
-4.688371717929840088e-01 -3.985253274440765381e-01 -3.876708745956420898e-01
-4.603568911552429199e-01 -3.984678685665130615e-01 -3.624181151390075684e-01
3.530013859272003174e-01 -4.714876413345336914e-01 -7.349568605422973633e-02
3.571879267692565918e-01 -4.752424061298370361e-01 -5.388630554080009460e-02
3.389958441257476807e-01 -4.706775248050689697e-01 -5.777665227651596069e-02
3.427712619304656982e-01 -4.746393859386444092e-01 -3.748891502618789673e-02
5.115862488746643066e-01 -1.263264864683151245e-01 2.602391839027404785e-01
5.096594095230102539e-01 -1.339116841554641724e-01 2.852404117584228516e-01
4.955891668796539307e-01 -1.102717593312263489e-01 2.791407108306884766e-01
4.949554204940795898e-01 -1.180324628949165344e-01 3.050108253955841064e-01
-3.508954942226409912e-01 -3.994173109531402588e-01 -2.278337180614471436e-01
-3.427982330322265625e-01 -3.994249105453491211e-01 -2.043256461620330811e-01
-3.706603050231933594e-01 -4.042703509330749512e-01 -2.067450284957885742e-01
-3.626416623592376709e-01 -4.044997692108154297e-01 -1.833474934101104736e-01
8.722312003374099731e-02 6.582818031311035156e-01 -2.295554876327514648e-01
1.019839495420455933e-01 6.744527220726013184e-01 -2.158395797014236450e-01
8.083925396203994751e-02 6.749374270439147949e-01 -2.168436944484710693e-01
9.436510503292083740e-02 6.915465593338012695e-01 -2.028247117996215820e-01
-1.008066311478614807e-01 -4.459949731826782227e-01 -5.781803280115127563e-03
-9.626457840204238892e-02 -4.480566382408142090e-01 1.666828989982604980e-02
-1.178254634141921997e-01 -4.471535682678222656e-01 4.868210293352603912e-03
-1.122175753116607666e-01 -4.495196640491485596e-01 2.623721957206726074e-02
3.027126491069793701e-01 4.852231144905090332e-01 3.343991041183471680e-01
2.966043949127197266e-01 4.840712547302246094e-01 3.578693866729736328e-01
2.885842323303222656e-01 5.053332448005676270e-01 3.417856991291046143e-01
2.835389077663421631e-01 5.026305913925170898e-01 3.652924001216888428e-01
1.848853826522827148e-01 5.841252207756042480e-01 4.623614549636840820e-01
1.832179427146911621e-01 5.794330835342407227e-01 4.900382757186889648e-01
1.685730218887329102e-01 6.022281646728515625e-01 4.803791344165802002e-01
1.680183857679367065e-01 5.950155258178710938e-01 5.098913311958312988e-01
1.304902285337448120e-01 8.581849932670593262e-01 2.057338207960128784e-01
1.259740144014358521e-01 8.507595658302307129e-01 2.299436479806900024e-01
1.095115467905998230e-01 8.643660545349121094e-01 2.172753214836120605e-01
1.053581535816192627e-01 8.569121956825256348e-01 2.414070367813110352e-01
4.593272507190704346e-01 -4.056335985660552979e-01 4.649000763893127441e-01
4.503736495971679688e-01 -4.071577191352844238e-01 4.830098748207092285e-01
4.553341269493103027e-01 -3.875088989734649658e-01 4.821968376636505127e-01
4.458930492401123047e-01 -3.886584341526031494e-01 4.994058609008789062e-01
1.734291017055511475e-01 8.037485480308532715e-01 2.341798245906829834e-01
1.655740141868591309e-01 7.957694530487060547e-01 2.577842772006988525e-01
1.531729102134704590e-01 8.149654865264892578e-01 2.455278784036636353e-01
1.454358547925949097e-01 8.073644638061523438e-01 2.699443995952606201e-01
1.408443152904510498e-01 -5.045399665832519531e-01 1.447385698556900024e-01
1.451903879642486572e-01 -5.090525150299072266e-01 1.710328459739685059e-01
1.219037622213363647e-01 -5.030733942985534668e-01 1.634667217731475830e-01
1.263977736234664917e-01 -5.081170201301574707e-01 1.909300833940505981e-01
-4.682519659399986267e-02 -5.122844576835632324e-01 1.951791644096374512e-01
-4.237651452422142029e-02 -5.177738666534423828e-01 2.198715060949325562e-01
-6.321012228727340698e-02 -5.158293247222900391e-01 2.165604978799819946e-01
-5.868296697735786438e-02 -5.205922126770019531e-01 2.408947199583053589e-01
3.023170232772827148e-01 -5.471932291984558105e-01 2.313330173492431641e-01
3.056362867355346680e-01 -5.516763329505920410e-01 2.513965964317321777e-01
2.870858609676361084e-01 -5.483862161636352539e-01 2.467706799507141113e-01
2.895287871360778809e-01 -5.528879165649414062e-01 2.674274146556854248e-01
-2.650291323661804199e-01 2.665976285934448242e-01 -7.885405421257019043e-02
-2.719834446907043457e-01 2.629704177379608154e-01 -5.168730393052101135e-02
-2.818908095359802246e-01 2.856997251510620117e-01 -7.024630904197692871e-02
-2.891220450401306152e-01 2.823265790939331055e-01 -4.308570921421051025e-02
2.328850887715816498e-02 -4.399110376834869385e-01 -2.595968358218669891e-02
2.289364859461784363e-02 -4.484225213527679443e-01 -2.086488530039787292e-04
-1.090181758627295494e-03 -4.407028257846832275e-01 -5.787149071693420410e-03
-3.279943484812974930e-04 -4.479884207248687744e-01 1.990755274891853333e-02
3.239032924175262451e-01 -1.698113605380058289e-02 3.709504604339599609e-01
3.210583925247192383e-01 -2.165905945003032684e-02 3.947072625160217285e-01
3.081139028072357178e-01 -1.147362496703863144e-02 3.857611715793609619e-01
3.053339123725891113e-01 -1.634283363819122314e-02 4.095422029495239258e-01
8.184327185153961182e-02 6.919579505920410156e-01 6.228967308998107910e-01
7.765455543994903564e-02 6.919980049133300781e-01 6.431394815444946289e-01
6.590679287910461426e-02 7.063395977020263672e-01 6.333854198455810547e-01
6.062477827072143555e-02 7.066211700439453125e-01 6.539195179939270020e-01
-1.508194804191589355e-01 -1.084716171026229858e-01 6.465407609939575195e-01
-1.566846221685409546e-01 -1.218929961323738098e-01 6.608516573905944824e-01
-1.635906398296356201e-01 -9.506545215845108032e-02 6.364819407463073730e-01
-1.708459109067916870e-01 -1.092735007405281067e-01 6.527971625328063965e-01
1.037795171141624451e-01 6.641665101051330566e-02 -8.713640570640563965e-01
1.014407873153686523e-01 5.201234668493270874e-02 -8.717015981674194336e-01
8.792379498481750488e-02 8.484920859336853027e-02 -8.696269392967224121e-01
8.623527735471725464e-02 7.252494245767593384e-02 -8.694076538085937500e-01
5.450003147125244141e-01 -3.239863216876983643e-01 3.466530144214630127e-01
5.366966128349304199e-01 -3.240484595298767090e-01 3.680303096771240234e-01
5.296795964241027832e-01 -3.114475905895233154e-01 3.679260015487670898e-01
5.207193493843078613e-01 -3.115215599536895752e-01 3.889069557189941406e-01
2.785753309726715088e-01 7.059941887855529785e-01 1.712840050458908081e-01
2.757372558116912842e-01 7.042541503906250000e-01 1.998550146818161011e-01
2.644554376602172852e-01 7.248086929321289062e-01 1.819361597299575806e-01
2.614439129829406738e-01 7.220383286476135254e-01 2.101295590400695801e-01
5.960315465927124023e-01 -3.766694664955139160e-01 2.128397375345230103e-01
5.907371640205383301e-01 -3.785731494426727295e-01 2.369558662176132202e-01
5.910844206809997559e-01 -3.566160202026367188e-01 2.352813482284545898e-01
5.852644443511962891e-01 -3.577796816825866699e-01 2.591808736324310303e-01
3.774230182170867920e-01 -4.750100672245025635e-01 -8.842448890209197998e-02
3.825734555721282959e-01 -4.790536165237426758e-01 -6.939624249935150146e-02
3.635385334491729736e-01 -4.739138484001159668e-01 -7.359351217746734619e-02
3.680320084095001221e-01 -4.779419004917144775e-01 -5.386734381318092346e-02
2.275819480419158936e-01 -3.985453248023986816e-01 -6.191220283508300781e-01
2.343143969774246216e-01 -3.987583816051483154e-01 -5.976492762565612793e-01
2.092139720916748047e-01 -3.925695717334747314e-01 -6.053217649459838867e-01
2.164826244115829468e-01 -3.924051225185394287e-01 -5.841620564460754395e-01
1.787526905536651611e-01 4.827225580811500549e-02 -8.533954024314880371e-01
2.011713534593582153e-01 5.166699364781379700e-02 -8.459432125091552734e-01
1.644805073738098145e-01 6.909502297639846802e-02 -8.562060594558715820e-01
1.832735687494277954e-01 7.350637763738632202e-02 -8.494395017623901367e-01
-8.618263527750968933e-03 -4.231064617633819580e-01 -4.646260663866996765e-02
-1.161383092403411865e-02 -4.317075610160827637e-01 -2.211457304656505585e-02
-3.005058877170085907e-02 -4.205543696880340576e-01 -2.993340231478214264e-02
-3.021355904638767242e-02 -4.279739558696746826e-01 -7.447192445397377014e-03
1.337942183017730713e-01 -5.358444452285766602e-01 2.533522248268127441e-01
1.389096826314926147e-01 -5.402194261550903320e-01 2.768599092960357666e-01
1.218962743878364563e-01 -5.333536267280578613e-01 2.674834728240966797e-01
1.270505785942077637e-01 -5.367406606674194336e-01 2.905539572238922119e-01
-5.729561448097229004e-01 -1.067443471401929855e-02 -3.566696941852569580e-01
-5.795668959617614746e-01 -1.556674297899007797e-02 -3.349229395389556885e-01
-5.713804960250854492e-01 2.523198723793029785e-03 -3.386830687522888184e-01
-5.777836441993713379e-01 -3.456637961789965630e-03 -3.174998760223388672e-01
-1.476874202489852905e-01 -4.951724708080291748e-01 1.744969040155410767e-01
-1.430184394121170044e-01 -4.983112812042236328e-01 1.985972225666046143e-01
-1.691797077655792236e-01 -4.918899536132812500e-01 1.886926740407943726e-01
-1.635585278272628784e-01 -4.950669705867767334e-01 2.132102251052856445e-01
2.642317712306976318e-01 4.844320937991142273e-02 3.220635652542114258e-01
2.599382102489471436e-01 4.507028684020042419e-02 3.449389040470123291e-01
2.477944046258926392e-01 6.052016466856002808e-02 3.389386832714080811e-01
2.433376014232635498e-01 5.700384452939033508e-02 3.623567819595336914e-01
-4.014702141284942627e-01 -2.296632081270217896e-01 5.440364480018615723e-01
-3.852519690990447998e-01 -2.309421002864837646e-01 5.653119087219238281e-01
-3.849400281906127930e-01 -2.109179794788360596e-01 5.534676909446716309e-01
-3.686940073966979980e-01 -2.112401425838470459e-01 5.751656293869018555e-01
-5.398302078247070312e-01 -4.454573988914489746e-01 3.259004652500152588e-01
-5.367674231529235840e-01 -4.445569515228271484e-01 3.474465608596801758e-01
-5.482223033905029297e-01 -4.239011406898498535e-01 3.409859240055084229e-01
-5.443148612976074219e-01 -4.225809574127197266e-01 3.628802001476287842e-01
-3.245486319065093994e-01 -5.166659355163574219e-01 5.437644124031066895e-01
-3.119515180587768555e-01 -5.160848498344421387e-01 5.752463936805725098e-01
-3.416973948478698730e-01 -4.988695979118347168e-01 5.672506690025329590e-01
-3.277758359909057617e-01 -4.979711771011352539e-01 5.973321795463562012e-01
4.612591862678527832e-01 1.636500284075737000e-02 -5.877974629402160645e-01
4.633206725120544434e-01 2.027648314833641052e-02 -5.613989233970642090e-01
4.547412693500518799e-01 3.340727090835571289e-02 -5.652718544006347656e-01
4.558760225772857666e-01 3.721971064805984497e-02 -5.380595922470092773e-01
-3.045638203620910645e-01 -4.683378636837005615e-01 6.750738620758056641e-02
-2.970293462276458740e-01 -4.706390500068664551e-01 9.013199806213378906e-02
-3.176916539669036865e-01 -4.717401564121246338e-01 8.428643643856048584e-02
-3.105173110961914062e-01 -4.732310473918914795e-01 1.077579706907272339e-01
2.874522097408771515e-02 -5.759540796279907227e-01 4.027519226074218750e-01
3.452046960592269897e-02 -5.798097848892211914e-01 4.267581403255462646e-01
1.110612787306308746e-02 -5.797434449195861816e-01 4.205451011657714844e-01
1.619777455925941467e-02 -5.828424692153930664e-01 4.443998634815216064e-01
6.449061632156372070e-01 -2.189133614301681519e-01 -3.056163489818572998e-01
6.495791077613830566e-01 -2.252676784992218018e-01 -2.813114821910858154e-01
6.437208652496337891e-01 -2.020373195409774780e-01 -2.907340824604034424e-01
6.469359993934631348e-01 -2.073395699262619019e-01 -2.659954428672790527e-01
-3.426809310913085938e-01 3.988697826862335205e-01 -2.737846598029136658e-02
-3.490987718105316162e-01 3.977085351943969727e-01 -1.749123446643352509e-03
-3.483242690563201904e-01 4.170689582824707031e-01 -8.067054674029350281e-03
