-3.133329999999999727e-01 5.032590000000000119e-01 -3.978600000000000192e-02
5.219599999999999795e-01 -2.822870000000000101e-01 -5.339639999999999942e-01
-1.347230000000000094e-01 3.161140000000000061e-01 -2.135559999999999958e-01
-7.981599999999999806e-02 -6.721499999999999697e-02 6.232379999999999587e-01
-5.217779999999999641e-01 -1.781750000000000000e-01 3.858650000000000135e-01
-2.829630000000000201e-01 1.932860000000000134e-01 8.398999999999999522e-02
-3.084799999999999764e-01 2.307269999999999877e-01 1.352220000000000089e-01
-6.374000000000000325e-03 -4.612299999999999733e-01 4.742999999999999994e-02
-3.893050000000000122e-01 -4.056600000000000206e-01 -1.988370000000000137e-01
7.150499999999999912e-02 1.671610000000000040e-01 -5.484649999999999803e-01
-3.301699999999999774e-02 9.455700000000000216e-01 5.170700000000000296e-02
4.230199999999999932e-02 1.328840000000000021e-01 -4.935280000000000222e-01
4.124820000000000153e-01 -4.232339999999999991e-01 -4.950860000000000261e-01
-2.573999999999999899e-02 2.045710000000000028e-01 -5.781100000000000128e-01
1.922300000000000050e-02 8.272340000000000249e-01 2.875369999999999870e-01
-5.682679999999999954e-01 -4.486260000000000248e-01 -1.196829999999999977e-01
-5.744289999999999674e-01 -4.421160000000000090e-01 2.617889999999999939e-01
-2.251340000000000008e-01 5.034239999999999826e-01 4.254740000000000189e-01
-2.629499999999999893e-02 9.336250000000000382e-01 1.131680000000000047e-01
1.745599999999999929e-02 9.199699999999999545e-01 -5.254199999999999843e-02
-5.006909999999999972e-01 4.381899999999999684e-02 -3.206019999999999981e-01
2.190219999999999945e-01 4.354999999999999982e-01 5.779990000000000405e-01
-6.146479999999999722e-01 -3.125599999999999906e-02 -1.683520000000000016e-01
-6.851799999999999558e-02 9.233670000000000488e-01 8.475100000000000688e-02
2.444769999999999999e-01 6.845830000000000526e-01 -1.029920000000000002e-01
-3.186539999999999928e-01 2.479470000000000007e-01 1.310230000000000006e-01
-6.020199999999999996e-01 -1.632139999999999980e-01 -4.140969999999999929e-01
-1.963940000000000130e-01 1.156989999999999963e-01 -4.473570000000000046e-01
-5.701289999999999969e-01 -9.815000000000000807e-03 -4.098999999999999866e-02
3.451000000000000074e-03 9.398090000000000055e-01 -1.639200000000000032e-02
3.506299999999999695e-02 -3.629009999999999736e-01 -5.478469999999999729e-01
-6.119200000000000333e-02 -5.323989999999999556e-01 6.673989999999999645e-01
7.028299999999999825e-02 7.314310000000000533e-01 6.075390000000000512e-01
-6.508200000000000096e-02 -6.091379999999999573e-01 5.817489999999999606e-01
-2.550000000000000183e-03 7.034669999999999535e-01 -2.138100000000000001e-01
-1.181899999999999964e-02 -3.504929999999999990e-01 -8.991100000000000481e-02
3.660959999999999770e-01 4.911400000000000210e-01 1.687170000000000059e-01
4.326699999999999990e-02 -4.943159999999999776e-01 6.898819999999999952e-01
1.596049999999999969e-01 1.325409999999999922e-01 -5.170109999999999983e-01
4.351369999999999960e-01 -1.793099999999999902e-02 5.269700000000000079e-02
-4.133850000000000025e-01 -6.128399999999999820e-02 3.873039999999999816e-01
3.332930000000000059e-01 -5.225410000000000332e-01 1.208430000000000060e-01
-3.627790000000000181e-01 -1.489870000000000083e-01 -7.463340000000000529e-01
-1.366930000000000089e-01 8.602419999999999511e-01 1.536690000000000000e-01
4.387409999999999921e-01 -5.712329999999999908e-01 2.874410000000000021e-01
8.630000000000000171e-02 1.447710000000000108e-01 -1.323080000000000089e-01
-5.624289999999999567e-01 -2.040069999999999939e-01 3.399369999999999892e-01
2.844690000000000274e-01 4.382130000000000192e-01 3.951200000000000268e-01
3.816499999999999754e-02 3.408189999999999831e-01 -2.601370000000000071e-01
1.733079999999999898e-01 -4.847319999999999962e-01 8.676200000000000578e-02
4.742589999999999861e-01 2.802699999999999983e-02 -3.576520000000000254e-01
3.022940000000000071e-01 -2.973649999999999904e-01 6.216150000000000286e-01
6.092399999999999899e-02 -3.639939999999999842e-01 -5.255030000000000534e-01
3.858599999999999808e-01 4.055599999999999761e-01 1.270129999999999870e-01
-2.444669999999999899e-01 -4.646449999999999747e-01 7.889200000000000379e-02
-3.251689999999999858e-01 3.219779999999999864e-01 2.749699999999999922e-01
-6.136030000000000095e-01 -2.711230000000000029e-01 2.834439999999999737e-01
-3.711280000000000134e-01 2.028999999999999901e-02 2.427850000000000008e-01
2.382749999999999868e-01 8.128659999999999775e-01 1.028710000000000041e-01
6.355520000000000058e-01 -1.136349999999999999e-01 -1.119809999999999972e-01
6.235439999999999872e-01 -2.990459999999999785e-01 -3.202260000000000106e-01
4.111480000000000135e-01 -5.514900000000000357e-01 1.889309999999999878e-01
5.476999999999999924e-02 -5.171400000000000441e-01 2.243390000000000106e-01
-1.905270000000000019e-01 7.668890000000000429e-01 2.314100000000000046e-01
3.050820000000000198e-01 6.611999999999999822e-02 1.098559999999999953e-01
3.792500000000000038e-02 -3.762010000000000076e-01 -6.880500000000000504e-01
-4.188919999999999866e-01 -4.266900000000000137e-01 5.410530000000000062e-01
-2.441689999999999972e-01 -2.998680000000000234e-01 6.777609999999999468e-01
-3.482859999999999845e-01 -3.834299999999999931e-01 -3.260089999999999932e-01
2.753780000000000117e-01 -5.327899999999999997e-02 -8.173080000000000345e-01
-3.214069999999999983e-01 2.544210000000000083e-01 1.003689999999999999e-01
1.325969999999999926e-01 8.365139999999999798e-01 -9.494400000000000062e-02
3.400090000000000057e-01 -4.101600000000000246e-01 -5.782490000000000130e-01
9.836100000000000398e-02 9.392979999999999663e-01 3.381300000000000278e-02
5.100909999999999611e-01 -5.422580000000000178e-01 1.229390000000000066e-01
2.835860000000000047e-01 8.559000000000000635e-03 -8.091760000000000064e-01
2.718309999999999893e-01 7.047870000000000523e-01 -3.174600000000000338e-02
-3.001219999999999999e-01 9.270399999999999474e-02 -4.075500000000000234e-01
4.568570000000000131e-01 -3.794879999999999920e-01 -5.236539999999999528e-01
5.457520000000000149e-01 -3.190799999999999886e-02 -4.385629999999999806e-01
-5.858160000000000034e-01 -4.176679999999999837e-01 -2.028270000000000073e-01
3.198050000000000059e-01 6.208700000000000330e-01 7.373999999999999999e-02
2.105529999999999902e-01 2.015190000000000037e-01 -1.072150000000000047e-01
-4.786340000000000039e-01 -2.978870000000000129e-01 4.955729999999999857e-01
4.087000000000000077e-01 8.285999999999999963e-03 -1.413860000000000117e-01
-1.459739999999999926e-01 4.573690000000000255e-01 5.989499999999999824e-01
-3.149339999999999917e-01 -5.128279999999999506e-01 2.292130000000000001e-01
1.065340000000000037e-01 -4.556890000000000107e-01 8.224000000000000407e-03
-4.362099999999999866e-01 -3.717940000000000134e-01 -5.578109999999999458e-01
5.662810000000000343e-01 -2.695469999999999811e-01 -4.596589999999999843e-01
-2.703829999999999845e-01 4.071500000000000119e-02 3.633660000000000223e-01
2.483869999999999967e-01 5.144130000000000091e-01 3.970549999999999913e-01
-6.920920000000000405e-01 -2.708519999999999817e-01 -1.468609999999999915e-01
1.446449999999999958e-01 -3.797550000000000092e-01 -3.737570000000000059e-01
-1.563680000000000070e-01 6.171959999999999669e-01 6.081729999999999636e-01
-3.742079999999999851e-01 7.572500000000000064e-02 -4.072239999999999749e-01
1.504199999999999982e-01 7.569559999999999622e-01 2.892060000000000186e-01
1.954120000000000024e-01 9.608899999999999386e-02 -2.228229999999999933e-01
4.774419999999999775e-01 -7.251299999999999413e-02 2.228819999999999968e-01
6.066880000000000051e-01 -3.360650000000000026e-01 2.367869999999999975e-01
5.612019999999999786e-01 -3.611119999999999886e-01 -3.952910000000000035e-01
-5.304109999999999658e-01 -3.759000000000000119e-01 -4.232790000000000163e-01
-2.337400000000000033e-01 1.030770000000000020e-01 -2.740440000000000098e-01
1.169779999999999986e-01 3.328809999999999825e-01 -2.414229999999999987e-01
1.175770000000000010e-01 -1.966120000000000090e-01 -8.539670000000000316e-01
1.944980000000000042e-01 6.697089999999999987e-01 3.186390000000000056e-01
6.589999999999999721e-04 -2.172340000000000104e-01 -8.580769999999999786e-01
2.046880000000000088e-01 -4.442889999999999895e-01 -6.538900000000000268e-02
-1.777600000000000013e-01 -3.823090000000000099e-01 -2.636229999999999962e-01
4.600319999999999965e-01 -5.651690000000000325e-01 2.119290000000000063e-01
2.652639999999999998e-01 4.660230000000000206e-01 4.830559999999999854e-01
2.951440000000000174e-01 -5.994019999999999904e-01 4.224640000000000062e-01
-6.562379999999999880e-01 -2.648650000000000171e-01 -2.792859999999999787e-01
-3.321660000000000168e-01 4.269009999999999749e-01 -3.862100000000000255e-02
-3.332800000000000346e-02 2.000499999999999848e-02 5.425980000000000247e-01
-1.946930000000000049e-01 -5.818719999999999448e-01 4.825070000000000192e-01
-1.351060000000000039e-01 -4.282110000000000083e-01 -5.961500000000000132e-02
2.356900000000000106e-01 4.934589999999999810e-01 -1.880080000000000084e-01
-2.677800000000000180e-01 3.976959999999999940e-01 4.111710000000000087e-01
9.500599999999999323e-02 2.767959999999999865e-01 4.882190000000000141e-01
6.199259999999999771e-01 -1.581339999999999968e-01 -3.592389999999999750e-01
3.342780000000000196e-01 -9.974800000000000333e-02 -7.781730000000000036e-01
5.202740000000000142e-01 -4.483599999999999808e-01 -2.898870000000000058e-01
3.644760000000000222e-01 -4.658720000000000083e-01 -9.180599999999999872e-02
-6.231130000000000280e-01 -7.412900000000000045e-02 6.953600000000000059e-02
2.209019999999999873e-01 -4.214720000000000133e-01 -1.589569999999999872e-01
2.735509999999999886e-01 8.757600000000000107e-02 -4.561729999999999952e-01
7.585500000000000576e-02 5.300620000000000331e-01 5.778389999999999915e-01
-2.508589999999999987e-01 2.067499999999999893e-01 3.010680000000000023e-01
-1.826540000000000108e-01 5.561859999999999582e-01 -1.981110000000000093e-01
-3.622369999999999757e-01 -5.575400000000000356e-01 4.607249999999999956e-01
-6.999900000000000011e-01 -2.340450000000000030e-01 -7.329299999999999704e-02
-1.125700000000000034e-01 1.967500000000000082e-01 4.131739999999999857e-01
1.505630000000000024e-01 -1.756350000000000133e-01 6.871639999999999970e-01
4.141569999999999974e-01 -5.629640000000000200e-01 2.338159999999999961e-01
3.942919999999999758e-01 -1.613860000000000017e-01 4.825699999999999990e-01
-3.591860000000000053e-01 -3.796970000000000067e-01 -3.890020000000000144e-01
4.028249999999999886e-01 -2.027249999999999885e-01 5.024779999999999802e-01
5.333980000000000388e-01 -2.117040000000000033e-01 3.237639999999999962e-01
3.096000000000000141e-02 -1.201789999999999942e-01 6.874130000000000518e-01
-6.897399999999999365e-02 7.252309999999999590e-01 3.576019999999999754e-01
-2.784530000000000061e-01 6.793599999999999639e-02 -6.731299999999999784e-02
8.351799999999999502e-02 1.760690000000000033e-01 -5.619079999999999631e-01
-7.524500000000000632e-02 6.392099999999999449e-01 -2.261640000000000039e-01
-1.216020000000000018e-01 2.393969999999999987e-01 -1.630979999999999930e-01
-2.884030000000000205e-01 -4.942790000000000239e-01 1.706729999999999914e-01
-5.564649999999999874e-01 -2.915179999999999993e-01 -4.819640000000000035e-01
2.663400000000000212e-01 -3.989190000000000236e-01 -5.716529999999999667e-01
-5.160130000000000550e-01 -2.578059999999999796e-01 -5.617339999999999556e-01
5.977799999999999780e-02 4.323549999999999893e-01 7.059530000000000527e-01
3.606469999999999954e-01 5.096300000000000274e-01 1.268869999999999998e-01
5.301479999999999526e-01 -1.700700000000000128e-02 -2.026570000000000038e-01
5.069900000000000101e-02 -5.329519999999999813e-01 2.771159999999999735e-01
-3.427310000000000079e-01 -3.811629999999999741e-01 -5.705069999999999864e-01
-4.182969999999999744e-01 -4.996229999999999838e-01 1.616720000000000101e-01
-1.455960000000000032e-01 5.278509999999999591e-01 -2.294720000000000093e-01
-4.254879999999999773e-01 -4.470790000000000042e-01 -3.590100000000000235e-02
-2.205080000000000096e-01 1.562240000000000018e-01 3.004600000000000048e-01
-5.006490000000000107e-01 -4.107850000000000112e-01 -3.321259999999999768e-01
-1.010489999999999999e-01 8.620959999999999734e-01 1.933549999999999991e-01
-2.628070000000000128e-01 -5.106279999999999708e-01 6.157880000000000020e-01
4.140200000000000130e-02 1.860239999999999949e-01 -5.678860000000000019e-01
3.061719999999999997e-01 5.767900000000000110e-02 3.651299999999999685e-02
3.811999999999999850e-03 7.172299999999999509e-02 -8.764800000000000368e-01
4.746509999999999896e-01 -3.753560000000000230e-01 4.580670000000000019e-01
1.714179999999999870e-01 7.284890000000000532e-01 3.044870000000000076e-01
-5.310270000000000268e-01 2.033499999999999891e-02 -4.195450000000000013e-01
2.307019999999999904e-01 7.288679999999999604e-01 -9.103400000000000380e-02
-6.329999999999999516e-02 8.846100000000000074e-01 -7.205400000000000693e-02
2.831200000000000036e-02 -4.626359999999999917e-01 4.698499999999999899e-02
-1.831869999999999887e-01 5.519279999999999742e-01 4.388529999999999931e-01
2.922799999999999843e-01 1.821770000000000056e-01 1.927210000000000034e-01
4.061900000000000233e-02 -3.119219999999999771e-01 -8.176219999999999599e-01
4.649880000000000124e-01 4.251999999999999703e-03 -5.781870000000000065e-01
-7.492200000000000248e-02 -3.885669999999999957e-01 -2.394989999999999897e-01
-2.107880000000000031e-01 7.657370000000000010e-01 -3.215599999999999709e-02
-4.005779999999999896e-01 -1.566100000000000131e-02 -6.963340000000000085e-01
5.809189999999999632e-01 -9.475500000000000589e-02 1.196949999999999958e-01
6.327939999999999676e-01 -3.424920000000000186e-01 1.740569999999999895e-01
3.073199999999999821e-01 1.559480000000000033e-01 -6.328920000000000101e-01
-2.722729999999999873e-01 2.848870000000000013e-01 3.478530000000000233e-01
-2.211339999999999972e-01 5.315159999999999885e-01 3.996700000000000252e-01
-1.547719999999999929e-01 1.752700000000000091e-01 -5.507870000000000266e-01
-1.556339999999999946e-01 3.225669999999999926e-01 5.009350000000000191e-01
-4.302659999999999818e-01 2.654300000000000062e-02 -1.048889999999999961e-01
-5.693770000000000220e-01 -2.605870000000000131e-01 -4.727549999999999808e-01
-4.394339999999999913e-01 3.209999999999999963e-04 1.207140000000000019e-01
1.313870000000000038e-01 -3.341060000000000141e-01 7.242880000000000429e-01
6.528180000000000094e-01 -2.947350000000000247e-01 1.382259999999999878e-01
-5.678490000000000482e-01 -2.084719999999999906e-01 3.331359999999999877e-01
2.889840000000000186e-01 -4.011179999999999746e-01 -6.204699999999999660e-01
-9.953299999999999648e-02 -9.005599999999999716e-02 6.379050000000000553e-01
3.081610000000000182e-01 -4.052900000000000252e-02 -7.962029999999999941e-01
-2.443800000000000139e-02 1.166340000000000016e-01 -1.764129999999999865e-01
-1.363119999999999887e-01 6.722040000000000237e-01 3.586099999999999843e-01
3.178389999999999826e-01 -1.330320000000000114e-01 -7.857779999999999765e-01
-1.823049999999999948e-01 -3.583879999999999844e-01 -4.933029999999999915e-01
3.389199999999999852e-02 9.513099999999999890e-01 4.661400000000000265e-02
-3.540369999999999906e-01 4.325590000000000268e-01 3.043699999999999878e-02
4.139490000000000114e-01 -3.801889999999999992e-01 -5.686529999999999641e-01
-1.891069999999999973e-01 -2.105019999999999947e-01 6.969370000000000287e-01
5.004279999999999839e-01 -5.030170000000000474e-01 -5.729299999999999671e-02
9.950000000000000511e-02 7.162519999999999998e-01 3.581460000000000199e-01
-5.606210000000000360e-01 -4.875709999999999766e-01 8.157000000000000361e-02
3.883099999999999746e-02 7.392200000000000160e-02 4.616100000000000203e-01
-5.591540000000000399e-01 -1.788460000000000050e-01 -4.945740000000000136e-01
-6.940699999999999648e-02 3.088469999999999827e-01 -7.829239999999999533e-01
6.650979999999999670e-01 -1.787600000000000022e-01 -2.909000000000000127e-02
-3.863779999999999992e-01 -2.480650000000000077e-01 -7.065390000000000281e-01
-2.074989999999999890e-01 -4.554639999999999800e-01 4.984500000000000042e-02
4.538820000000000077e-01 -1.383300000000000085e-01 -6.605199999999999960e-01
-4.404350000000000209e-01 -1.768139999999999989e-01 -6.723949999999999649e-01
2.984809999999999963e-01 -4.118800000000000239e-01 -2.667889999999999984e-01
-2.373109999999999942e-01 -5.601429999999999465e-01 4.012149999999999883e-01
2.754880000000000106e-01 2.284770000000000134e-01 3.065620000000000012e-01
-4.161119999999999819e-01 -5.506529999999999481e-01 3.580829999999999846e-01
-3.125720000000000165e-01 -3.914000000000000257e-01 6.389280000000000515e-01
-6.408129999999999660e-01 -8.324600000000000055e-02 3.408400000000000318e-02
5.264320000000000110e-01 -4.792199999999999793e-01 -1.764390000000000125e-01
5.030289999999999484e-01 -1.302939999999999932e-01 -5.847029999999999728e-01
-3.041519999999999779e-01 8.473899999999999488e-02 -3.102249999999999730e-01
-2.140209999999999890e-01 7.541430000000000078e-01 -3.980199999999999710e-02
-6.635320000000000107e-01 -3.188130000000000130e-01 -2.074830000000000008e-01
-7.342799999999999327e-02 8.631469999999999976e-01 2.162910000000000110e-01
1.772710000000000119e-01 -7.446400000000000241e-02 -8.571210000000000218e-01
-6.667900000000000216e-02 8.635049999999999670e-01 -9.245299999999999352e-02
-2.964339999999999753e-01 8.700900000000000301e-02 -3.574069999999999747e-01
-6.015380000000000171e-01 -4.177870000000000195e-01 -1.521589999999999887e-01
-6.877799999999999470e-01 -2.938950000000000173e-01 8.133400000000000352e-02
6.418409999999999949e-01 -3.316649999999999876e-01 -2.252869999999999873e-01
2.991449999999999942e-01 2.439890000000000114e-01 2.832520000000000038e-01
2.333300000000000096e-01 -3.877289999999999903e-01 -4.521049999999999791e-01
-3.544459999999999833e-01 3.177610000000000157e-01 1.218650000000000011e-01
5.773200000000000554e-01 -6.459499999999999964e-02 -1.435900000000000024e-02
-2.815170000000000172e-01 1.819700000000000137e-02 -7.913160000000000194e-01
5.637919999999999598e-01 -1.506399999999999961e-01 -4.766619999999999746e-01
-5.552719999999999878e-01 -3.923209999999999753e-01 -3.434119999999999950e-01
-1.019530000000000020e-01 -3.699259999999999771e-01 -6.617809999999999526e-01
3.013419999999999987e-01 1.695020000000000138e-01 -6.877400000000000180e-01
-2.309269999999999934e-01 6.368730000000000224e-01 2.931400000000000117e-01
-3.242320000000000202e-01 -3.811350000000000016e-01 -6.428500000000000325e-01
3.902149999999999785e-01 -3.503699999999999870e-02 -7.248539999999999983e-01
2.327430000000000054e-01 -1.435259999999999869e-01 -8.300539999999999585e-01
-1.722930000000000017e-01 7.901099999999999790e-01 2.277810000000000112e-01
-3.393390000000000017e-01 -3.809660000000000268e-01 -3.436980000000000035e-01
2.268979999999999886e-01 -4.488159999999999927e-01 6.572770000000000001e-01
2.374340000000000062e-01 -3.937220000000000164e-01 -6.649669999999999748e-01
-1.706129999999999869e-01 -3.961529999999999774e-01 -1.966219999999999912e-01
3.509400000000000019e-02 3.127900000000000125e-02 5.216720000000000246e-01
3.514309999999999934e-01 -4.259419999999999873e-01 -2.553549999999999986e-01
-3.021789999999999754e-01 -5.044229999999999547e-01 5.954190000000000316e-01
3.208599999999999786e-01 -4.664860000000000118e-01 5.886200000000000321e-01
-6.487960000000000393e-01 -1.384950000000000070e-01 -3.056260000000000088e-01
3.452009999999999801e-01 4.968719999999999803e-01 2.514480000000000048e-01
1.874470000000000025e-01 -2.799099999999999852e-02 -8.554420000000000357e-01
-2.748280000000000167e-01 -3.729469999999999730e-01 -6.536659999999999693e-01
2.271100000000000063e-01 5.348819999999999686e-01 4.643200000000000105e-01
-2.464600000000000124e-02 2.143410000000000037e-01 -8.452570000000000361e-01
-5.908259999999999623e-01 -3.266069999999999807e-01 3.109480000000000022e-01
-1.716979999999999895e-01 -1.397899999999999976e-01 -8.478099999999999525e-01
-2.307499999999999829e-02 9.273919999999999941e-01 1.271249999999999880e-01
1.805990000000000095e-01 -9.443000000000000005e-02 -8.543079999999999563e-01
-1.012470000000000037e-01 -4.075179999999999914e-01 -1.516730000000000023e-01
-7.534200000000000619e-02 -5.982349999999999612e-01 5.982699999999999685e-01
-1.121560000000000057e-01 -1.272210000000000008e-01 -8.646519999999999762e-01
-5.883810000000000429e-01 -4.560049999999999937e-01 1.689549999999999941e-01
9.021500000000000352e-02 1.240529999999999966e-01 4.067629999999999857e-01
-3.716789999999999816e-01 5.267000000000000154e-02 -1.761089999999999878e-01
1.778270000000000128e-01 -4.127170000000000005e-01 -1.736489999999999978e-01
-7.759000000000000619e-02 1.171760000000000024e-01 -2.253219999999999945e-01
-4.010779999999999901e-01 -4.147739999999999760e-01 5.623609999999999998e-01
-2.256170000000000120e-01 2.645710000000000006e-01 3.884799999999999920e-01
-4.335249999999999937e-01 8.833000000000000573e-03 6.864000000000000656e-02
-1.915719999999999923e-01 -4.070920000000000094e-01 -1.504020000000000079e-01
4.190809999999999813e-01 -5.212679999999999536e-01 7.091100000000000181e-02
-1.666880000000000028e-01 5.619189999999999463e-01 5.879100000000000437e-01
-4.095199999999999951e-01 -5.468260000000000343e-01 3.340670000000000028e-01
-4.633559999999999901e-01 2.315700000000000050e-02 -1.432049999999999990e-01
-4.446220000000000172e-01 -5.363539999999999974e-01 2.855699999999999905e-01
-5.439599999999999991e-02 -1.388530000000000042e-01 6.947170000000000289e-01
4.273970000000000269e-01 -5.700530000000000319e-01 3.251550000000000273e-01
2.414930000000000132e-01 2.028949999999999920e-01 -6.432989999999999542e-01
-2.228549999999999975e-01 -3.484000000000000291e-02 5.374579999999999913e-01
-1.018960000000000005e-01 1.268189999999999873e-01 4.028109999999999746e-01
-1.093910000000000021e-01 1.175250000000000045e-01 -2.408109999999999973e-01
2.534839999999999871e-01 4.328739999999999810e-01 5.051569999999999672e-01
-6.810249999999999915e-01 -3.099480000000000013e-01 -1.403439999999999965e-01
5.274410000000000487e-01 -2.514140000000000263e-01 -5.397619999999999640e-01
2.750480000000000147e-01 9.417399999999999383e-02 1.886110000000000009e-01
2.555660000000000154e-01 3.626699999999999924e-01 -1.750520000000000131e-01
-2.763289999999999913e-01 -3.275859999999999883e-01 6.620570000000000066e-01
-5.597370000000000401e-01 -4.879660000000000108e-01 8.199499999999999844e-02
5.288549999999999640e-01 -5.263830000000000453e-01 9.308900000000000508e-02
-1.515299999999999980e-01 -1.570670000000000122e-01 -8.508449999999999624e-01
6.361949999999999550e-01 -1.336009999999999975e-01 2.178599999999999981e-02
3.068379999999999996e-01 2.542070000000000163e-01 -4.971899999999999931e-02
3.838840000000000030e-01 3.266229999999999967e-01 1.056850000000000012e-01
-1.772289999999999976e-01 2.679440000000000155e-01 -6.818610000000000504e-01
1.331100000000000061e-01 3.835850000000000093e-01 -2.530839999999999756e-01
-2.487540000000000029e-01 9.129199999999999815e-02 3.572800000000000281e-02
-2.260439999999999949e-01 -8.947199999999999598e-02 -8.298259999999999525e-01
4.452550000000000119e-01 -4.298600000000000337e-02 1.834179999999999977e-01
-6.962999999999999572e-03 -9.616700000000000248e-02 6.550550000000000539e-01
4.476689999999999836e-01 -5.036059999999999981e-01 4.254310000000000036e-01
1.792209999999999914e-01 -4.796690000000000120e-01 6.662850000000000161e-01
-2.853220000000000200e-01 5.927670000000000439e-01 -2.740000000000000074e-02
1.710560000000000136e-01 -3.859040000000000248e-01 -3.268920000000000159e-01
6.591660000000000297e-01 -3.662610000000000032e-01 -4.074000000000000364e-03
-8.379999999999999949e-02 -1.162429999999999991e-01 6.669829999999999925e-01
-6.965780000000000305e-01 -2.808109999999999773e-01 -6.206199999999999911e-02
-4.216230000000000255e-01 -3.935279999999999889e-01 -4.137020000000000142e-01
-1.564300000000000135e-01 1.137370000000000048e-01 -2.495539999999999980e-01
3.898550000000000071e-01 -4.240990000000000038e-01 -3.929679999999999840e-01
-6.925699999999999912e-02 7.171309999999999629e-01 3.628149999999999986e-01
1.037799999999999973e-01 -3.605949999999999989e-01 -7.830920000000000103e-01
-1.716999999999999915e-01 2.327120000000000022e-01 4.088959999999999817e-01
-2.506200000000000094e-02 2.995570000000000177e-01 -6.529049999999999576e-01
-9.420000000000000205e-04 5.303020000000000511e-01 5.759579999999999700e-01
1.361749999999999905e-01 2.011550000000000005e-01 -5.979179999999999495e-01
-2.386639999999999873e-01 -4.678100000000000036e-01 9.072600000000000109e-02
4.980040000000000022e-01 -2.320399999999999893e-02 -5.156100000000000266e-02
1.013710000000000028e-01 4.222710000000000075e-01 6.979670000000000041e-01
2.027279999999999915e-01 1.404040000000000010e-01 3.247940000000000271e-01
6.746469999999999967e-01 -3.144089999999999940e-01 -1.086889999999999940e-01
-3.913170000000000259e-01 -5.029660000000000242e-01 5.150609999999999911e-01
9.557200000000000417e-02 -5.254959999999999631e-01 6.650549999999999518e-01
-6.925310000000000077e-01 -3.003449999999999731e-01 -9.254999999999999338e-02
-5.043539999999999690e-01 -4.929959999999999898e-01 9.695600000000000052e-02
5.181099999999999595e-01 -4.857409999999999783e-01 3.134049999999999891e-01
-8.833299999999999486e-02 9.183459999999999956e-01 8.023999999999999883e-03
3.604010000000000269e-01 3.768389999999999795e-01 2.745870000000000255e-01
-1.194830000000000059e-01 1.762809999999999933e-01 3.937760000000000149e-01
-2.163130000000000053e-01 3.977350000000000052e-01 -1.905820000000000014e-01
-5.945070000000000077e-01 -3.545039999999999858e-01 2.916509999999999936e-01
-5.944249999999999812e-01 -9.803699999999999914e-02 1.945189999999999975e-01
-1.906690000000000051e-01 -1.434890000000000054e-01 6.666020000000000278e-01
2.107330000000000036e-01 6.249810000000000088e-01 -1.707639999999999991e-01
1.358520000000000005e-01 6.789020000000000055e-01 3.602609999999999979e-01
-2.778519999999999879e-01 -4.991019999999999901e-01 1.888569999999999971e-01
2.774059999999999859e-01 6.652700000000000280e-01 -5.271200000000000191e-02
-4.785559999999999814e-01 -2.435390000000000055e-01 4.832000000000000184e-01
-6.705200000000000049e-01 -3.079700000000000215e-01 1.427509999999999890e-01
1.972700000000000009e-01 6.183760000000000367e-01 5.742530000000000134e-01
-2.595339999999999869e-01 1.072500000000000016e-02 -8.059389999999999610e-01
2.260300000000000156e-02 6.671099999999999808e-01 4.529150000000000120e-01
8.127600000000000102e-02 -3.485610000000000097e-01 7.319179999999999575e-01
-9.632699999999999596e-02 6.834040000000000115e-01 5.880090000000000039e-01
2.729969999999999897e-01 2.861279999999999935e-01 3.643069999999999919e-01
-2.310359999999999914e-01 2.500939999999999830e-01 -9.235699999999999465e-02
5.812000000000000326e-03 2.789380000000000193e-01 5.131170000000000453e-01
-1.503329999999999944e-01 4.444350000000000245e-01 -2.352259999999999907e-01
3.623239999999999794e-01 4.422749999999999737e-01 2.554819999999999869e-01
-5.539439999999999920e-01 -3.267260000000000164e-01 -4.568079999999999918e-01
-3.108360000000000012e-01 5.554519999999999458e-01 4.655600000000000016e-02
7.252100000000000213e-02 4.509029999999999982e-01 6.583769999999999900e-01
-5.302059999999999551e-01 -2.176440000000000041e-01 3.993419999999999748e-01
3.734899999999999887e-01 2.753500000000000045e-02 -1.736850000000000060e-01
-1.650330000000000130e-01 6.528709999999999791e-01 3.554880000000000262e-01
-2.501240000000000130e-01 -3.067399999999999988e-02 5.130949999999999678e-01
1.731139999999999901e-01 5.902269999999999461e-01 4.245399999999999729e-01
3.060680000000000067e-01 -4.083140000000000103e-01 -3.069620000000000126e-01
-6.282699999999999396e-02 2.991469999999999962e-01 5.297920000000000407e-01
-1.397120000000000029e-01 6.847389999999999866e-01 -1.770720000000000072e-01
3.289759999999999907e-01 3.401170000000000027e-01 3.207510000000000083e-01
-5.372219999999999773e-01 -2.890550000000000064e-01 -5.149369999999999781e-01
-1.654799999999999882e-01 7.115620000000000278e-01 3.097230000000000261e-01
1.033599999999999935e-01 6.616940000000000044e-01 -2.199889999999999901e-01
-1.292109999999999925e-01 -1.178369999999999973e-01 6.699749999999999872e-01
-5.319760000000000044e-01 -4.324660000000000171e-01 -1.936980000000000091e-01
-1.915789999999999993e-01 2.145910000000000040e-01 -6.031300000000000550e-01
-5.442320000000000491e-01 -1.620219999999999994e-01 -5.189789999999999681e-01
-1.623970000000000136e-01 -3.743929999999999758e-01 -3.092679999999999874e-01
-6.185530000000000195e-01 -3.011920000000000153e-01 -3.456210000000000115e-01
-4.021719999999999740e-01 -7.095799999999999330e-02 4.173609999999999820e-01
2.076349999999999862e-01 2.020460000000000034e-01 -6.216380000000000239e-01
-2.282109999999999972e-01 7.659599999999999742e-01 1.427670000000000050e-01
-2.295510000000000050e-01 4.061370000000000258e-01 4.989350000000000174e-01
5.323350000000000026e-01 -3.488010000000000277e-01 3.710890000000000022e-01
-2.674699999999999994e-02 -4.373540000000000205e-01 -7.363999999999999886e-03
-4.091159999999999797e-01 2.639100000000000126e-02 -2.292599999999999846e-02
-2.809209999999999763e-01 5.110050000000000425e-01 3.243579999999999797e-01
-3.783730000000000149e-01 -5.130500000000000338e-02 4.146619999999999751e-01
2.178200000000000136e-01 -3.850830000000000086e-01 -4.912819999999999965e-01
6.804149999999999920e-01 -2.913259999999999739e-01 -7.739400000000000446e-02
1.282449999999999979e-01 -2.717149999999999843e-01 -8.257120000000000015e-01
-3.284000000000000027e-03 1.711529999999999996e-01 -1.501959999999999962e-01
1.481699999999999962e-01 -6.039250000000000451e-01 5.014009999999999856e-01
-2.957589999999999941e-01 5.005060000000000064e-01 -8.299600000000000033e-02
-5.918899999999999856e-02 -3.906129999999999880e-01 -2.311729999999999896e-01
-1.165889999999999982e-01 1.233350000000000002e-01 -1.223029999999999951e-01
-3.646909999999999874e-01 -3.805399999999999894e-01 -3.651869999999999838e-01
6.517830000000000013e-01 -2.818339999999999734e-01 -2.485539999999999972e-01
-3.584479999999999889e-01 -1.726080000000000114e-01 5.598429999999999795e-01
2.599580000000000224e-01 -5.843880000000000186e-01 3.928699999999999970e-01
2.725440000000000085e-01 1.606970000000000065e-01 2.156740000000000046e-01
-6.281240000000000157e-01 -6.004500000000000115e-02 -2.593059999999999810e-01
2.206800000000000081e-02 -1.284000000000000072e-02 -8.832929999999999948e-01
-4.327820000000000000e-01 -2.673630000000000173e-01 5.379840000000000177e-01
-4.745530000000000026e-01 -3.718099999999999877e-02 -5.921809999999999574e-01
-5.083929999999999838e-01 1.227499999999999945e-02 -6.374399999999999511e-02
1.167949999999999960e-01 3.649180000000000201e-01 -2.547249999999999792e-01
2.210660000000000125e-01 1.498929999999999985e-01 -3.857200000000000212e-02
3.791349999999999998e-01 -4.219379999999999797e-01 5.534419999999999895e-01
-5.135269999999999557e-01 -4.070199999999999929e-01 -3.774150000000000005e-01
3.831800000000000206e-01 3.633200000000000318e-02 -3.307979999999999809e-01
-5.914660000000000473e-01 -8.546700000000000130e-02 -4.098919999999999786e-01
-7.715800000000000436e-02 4.726139999999999786e-01 5.883199999999999541e-01
-2.670210000000000083e-01 -4.847080000000000277e-01 1.436929999999999874e-01
6.096000000000000030e-02 -5.672509999999999497e-01 6.392719999999999514e-01
1.047099999999999941e-02 2.454530000000000045e-01 4.707779999999999743e-01
-5.638980000000000103e-01 -2.751080000000000192e-01 3.663139999999999730e-01
-7.932999999999999774e-02 5.750159999999999716e-01 -2.458420000000000050e-01
-3.595999999999999804e-03 8.885720000000000285e-01 -8.551300000000000567e-02
-1.090020000000000017e-01 2.162290000000000045e-01 -8.207670000000000243e-01
-2.606970000000000121e-01 5.334699999999999998e-01 -1.269329999999999903e-01
1.938040000000000040e-01 2.809459999999999735e-01 -1.829890000000000128e-01
-3.218849999999999767e-01 2.557369999999999921e-01 1.729189999999999894e-01
-8.195900000000000407e-02 8.045740000000000114e-01 -1.351910000000000056e-01
3.006400000000000183e-01 6.752519999999999634e-01 1.372730000000000061e-01
4.750820000000000043e-01 -6.506000000000000671e-02 2.098369999999999957e-01
2.043129999999999946e-01 -6.093659999999999632e-01 5.394780000000000131e-01
5.022410000000000485e-01 -5.274280000000000079e-01 2.486119999999999997e-01
4.527599999999999958e-01 -4.948919999999999986e-01 -4.635600000000000137e-02
1.594279999999999864e-01 -2.968580000000000108e-01 -8.045970000000000066e-01
3.960790000000000144e-01 4.128699999999999731e-02 -3.818230000000000235e-01
1.322309999999999874e-01 -3.830970000000000208e-01 -6.495250000000000190e-01
2.258130000000000137e-01 -3.420949999999999824e-01 -7.505230000000000512e-01
1.252449999999999952e-01 5.170160000000000311e-01 -2.556590000000000251e-01
-3.853519999999999723e-01 -2.634200000000000083e-02 3.602119999999999767e-01
3.890099999999999808e-02 3.997099999999999959e-02 5.092229999999999812e-01
2.493289999999999951e-01 -3.988940000000000263e-01 -3.015180000000000082e-01
4.673249999999999904e-01 2.215800000000000061e-02 -5.523360000000000491e-01
-2.870460000000000234e-01 -5.010569999999999746e-01 6.077970000000000317e-01
-3.186309999999999976e-01 -4.396959999999999757e-01 -2.726200000000000151e-02
1.117419999999999941e-01 3.602850000000000219e-01 -2.543560000000000265e-01
-1.150370000000000004e-01 -6.056930000000000369e-01 5.559509999999999730e-01
3.493500000000000077e-02 7.099640000000000395e-01 5.536659999999999915e-01
5.747919999999999696e-01 -4.404460000000000042e-01 2.171099999999999974e-01
7.110299999999999954e-02 -3.736519999999999841e-01 -7.340290000000000425e-01
-4.342369999999999841e-01 -2.943259999999999765e-01 -6.383809999999999762e-01
8.630000000000000171e-02 3.414800000000000058e-01 -7.619569999999999954e-01
-1.267880000000000118e-01 -2.515600000000000058e-01 7.130239999999999911e-01
-1.283330000000000026e-01 1.163369999999999960e-01 -2.457149999999999890e-01
2.185199999999999920e-01 -3.889900000000000024e-01 -5.317530000000000312e-01
3.423100000000000032e-01 5.545579999999999954e-01 1.568239999999999912e-01
5.954030000000000156e-01 -4.386660000000000004e-01 -1.107059999999999989e-01
-3.436830000000000163e-01 3.466429999999999789e-01 2.436500000000000055e-01
5.045230000000000548e-01 -4.580569999999999919e-01 3.737770000000000259e-01
2.669340000000000046e-01 8.153399999999999537e-02 2.507460000000000244e-01
3.693159999999999776e-01 -5.188239999999999519e-01 8.750800000000000245e-02
2.786529999999999840e-01 1.495529999999999915e-01 1.379180000000000128e-01
3.109959999999999947e-01 8.941499999999999448e-02 -4.844129999999999825e-01
3.872820000000000151e-01 3.718110000000000026e-01 1.277989999999999959e-01
1.528269999999999906e-01 6.003700000000000009e-02 -8.612030000000000518e-01
-1.676080000000000070e-01 4.170800000000000063e-01 -2.242010000000000114e-01
-8.359999999999999376e-02 6.845679999999999543e-01 6.419479999999999631e-01
-6.479369999999999852e-01 -1.486590000000000134e-01 1.470319999999999960e-01
-3.210470000000000268e-01 3.534470000000000112e-01 3.025030000000000219e-01
-8.298899999999999333e-02 1.922419999999999962e-01 4.209319999999999729e-01
-4.005389999999999784e-01 -3.895819999999999839e-01 -4.474299999999999944e-01
1.031050000000000022e-01 -3.702710000000000168e-01 -5.020700000000000163e-01
5.775580000000000158e-01 -4.308279999999999887e-01 -2.015510000000000079e-01
2.263809999999999989e-01 2.468239999999999879e-01 3.786909999999999998e-01
6.015999999999999646e-03 -3.843070000000000097e-01 7.489949999999999664e-01
2.198469999999999869e-01 8.307989999999999542e-01 5.073400000000000132e-02
3.606509999999999994e-01 2.725500000000000145e-01 1.526740000000000042e-01
-2.675609999999999933e-01 1.747650000000000037e-01 6.860399999999999832e-02
4.530279999999999863e-01 -2.502280000000000060e-01 -6.384880000000000555e-01
-7.786200000000000065e-02 7.245369999999999866e-01 3.547009999999999885e-01
2.102360000000000062e-01 -5.111310000000000020e-01 1.600429999999999908e-01
-3.129029999999999867e-01 -2.362049999999999983e-01 -7.642930000000000001e-01
1.102950000000000041e-01 -2.233620000000000050e-01 7.137850000000000028e-01
-6.596720000000000361e-01 -2.043709999999999971e-01 -2.912049999999999916e-01
-2.178819999999999923e-01 5.233470000000000066e-01 5.335269999999999735e-01
-2.159270000000000078e-01 7.107799999999999674e-01 -8.349399999999999877e-02
3.028239999999999821e-01 -3.075709999999999833e-01 6.228369999999999740e-01
1.395800000000000096e-01 1.031379999999999936e-01 -3.387769999999999948e-01
-6.910730000000000484e-01 -2.791569999999999885e-01 -1.364180000000000115e-01
-2.547659999999999925e-01 -3.983570000000000166e-01 -1.899220000000000075e-01
3.882530000000000148e-01 3.086699999999999861e-02 -3.023700000000000276e-01
-2.318119999999999903e-01 3.097849999999999770e-01 4.149200000000000110e-01
-6.994400000000000617e-02 6.842530000000000001e-01 5.562519999999999687e-01
-1.742600000000000052e-02 9.449910000000000254e-01 8.491300000000000237e-02
3.459550000000000125e-01 -2.345559999999999867e-01 -7.428630000000000511e-01
-4.675300000000000289e-02 2.268989999999999896e-01 -5.974610000000000198e-01
3.313329999999999886e-01 4.451950000000000074e-01 -7.415299999999999669e-02
1.660840000000000094e-01 2.000949999999999951e-01 3.899889999999999746e-01
3.943000000000000324e-03 2.714420000000000166e-01 5.029689999999999994e-01
-2.273590000000000055e-01 2.388609999999999900e-01 3.641630000000000145e-01
-1.589540000000000119e-01 9.536699999999999344e-02 3.893750000000000266e-01
7.934599999999999986e-02 1.063179999999999958e-01 -3.956810000000000049e-01
-4.172399999999999998e-01 -1.594559999999999866e-01 5.004009999999999847e-01
-3.765589999999999771e-01 -1.125879999999999936e-01 -7.371459999999999679e-01
-7.321000000000000250e-03 5.117200000000000221e-02 5.007319999999999549e-01
3.823670000000000124e-01 -1.094999999999999966e-02 2.338530000000000053e-01
4.941799999999999665e-02 9.500330000000000163e-01 2.720200000000000048e-02
2.726020000000000110e-01 -5.468920000000000448e-01 2.609830000000000205e-01
1.746919999999999862e-01 9.380700000000000149e-02 -3.689430000000000209e-01
-1.965040000000000120e-01 1.333590000000000053e-01 -8.100519999999999943e-01
-3.112880000000000091e-01 6.817700000000000149e-02 -1.548289999999999944e-01
-5.324320000000000164e-01 -3.663250000000000117e-01 -4.379990000000000272e-01
5.160879999999999912e-01 -4.328569999999999918e-01 -3.402910000000000101e-01
2.617979999999999752e-01 4.264830000000000010e-01 4.784010000000000207e-01
-8.689399999999999902e-02 6.722789999999999599e-01 5.566860000000000142e-01
7.252000000000000113e-02 3.633600000000000163e-01 6.372719999999999496e-01
-7.957000000000000184e-02 7.648150000000000226e-01 3.260419999999999985e-01
6.665999999999999703e-02 7.647530000000000161e-01 3.359650000000000136e-01
4.550420000000000020e-01 -4.454219999999999846e-01 -3.466770000000000129e-01
1.968999999999999830e-03 3.296330000000000093e-01 5.903699999999999504e-01
3.124830000000000108e-01 2.878459999999999908e-01 3.091550000000000131e-01
2.305770000000000042e-01 7.312049999999999939e-01 2.394699999999999884e-01
2.391810000000000047e-01 8.828999999999999349e-02 -5.209099999999999842e-02
-1.483119999999999994e-01 -3.671459999999999724e-01 -3.524669999999999748e-01
-4.665309999999999735e-01 -5.195149999999999491e-01 3.756869999999999932e-01
2.279539999999999900e-01 2.118549999999999878e-01 -6.453410000000000535e-01
-5.437899999999999678e-02 7.903959999999999875e-01 -1.567139999999999922e-01
-2.479109999999999925e-01 1.471409999999999940e-01 2.415579999999999949e-01
-2.607699999999999949e-02 -3.224620000000000264e-01 -8.116520000000000401e-01
2.858600000000000030e-02 9.504930000000000323e-01 2.633299999999999877e-02
1.359799999999999898e-01 3.153679999999999817e-01 -2.279920000000000002e-01
-7.646999999999999631e-02 -4.084030000000000160e-01 -6.393899999999999584e-02
-3.666730000000000267e-01 1.166979999999999962e-01 -5.249040000000000372e-01
-2.358059999999999878e-01 -5.224250000000000282e-01 2.736500000000000044e-01
6.086880000000000068e-01 -1.508790000000000131e-01 -3.881149999999999878e-01
2.857419999999999960e-01 -5.581159999999999455e-01 2.840239999999999987e-01
9.676300000000000179e-02 3.380850000000000244e-01 -7.513889999999999736e-01
-6.898119999999999807e-01 -2.218849999999999989e-01 6.796800000000000064e-02
4.335450000000000137e-01 -5.163000000000000228e-02 2.468909999999999993e-01
-1.376960000000000128e-01 2.113220000000000098e-01 -5.849550000000000027e-01
3.214859999999999940e-01 1.010830000000000062e-01 -7.517979999999999663e-01
-1.027249999999999969e-01 2.233259999999999967e-01 -1.604589999999999905e-01
-1.094149999999999984e-01 2.656780000000000252e-01 -7.932510000000000394e-01
2.914800000000000030e-02 6.692850000000000188e-01 4.612609999999999766e-01
2.679300000000000084e-02 5.076599999999999863e-02 4.971570000000000156e-01
2.300049999999999872e-01 9.516499999999999959e-02 3.050059999999999993e-01
-6.248150000000000093e-01 -3.887050000000000227e-01 -1.810479999999999867e-01
2.359380000000000088e-01 -1.645349999999999868e-01 -8.244249999999999634e-01
-9.143400000000000138e-02 2.111290000000000111e-01 -5.827750000000000430e-01
-1.288040000000000018e-01 4.964799999999999769e-02 -8.579109999999999792e-01
7.402499999999999358e-02 2.216889999999999972e-01 -6.025749999999999718e-01
-5.399920000000000275e-01 -4.219040000000000012e-01 -2.785659999999999803e-01
2.475019999999999998e-01 2.154230000000000034e-01 -6.792650000000000077e-01
-1.827459999999999918e-01 7.025820000000000398e-01 3.003540000000000099e-01
-5.363919999999999799e-01 -2.625830000000000108e-01 4.093559999999999977e-01
2.965590000000000170e-01 -5.642650000000000166e-01 5.370639999999999858e-01
-3.608169999999999988e-01 -1.237189999999999956e-01 5.225990000000000357e-01
6.002699999999999703e-02 9.195000000000000048e-03 -8.815079999999999583e-01
2.339380000000000071e-01 2.553170000000000162e-01 3.785689999999999888e-01
3.285759999999999792e-01 -1.857709999999999917e-01 5.641960000000000308e-01
-4.736870000000000247e-01 -8.132000000000000339e-03 1.205630000000000035e-01
5.438859999999999806e-01 -4.800949999999999940e-01 2.473370000000000013e-01
-1.162610000000000032e-01 3.703279999999999905e-01 -2.405799999999999883e-01
2.111180000000000001e-01 -1.573410000000000086e-01 6.431580000000000075e-01
-2.351060000000000094e-01 -5.355809999999999738e-01 3.205489999999999728e-01
2.540979999999999905e-01 5.095330000000000137e-01 5.003410000000000357e-01
-2.480350000000000055e-01 -5.774850000000000261e-01 4.706679999999999753e-01
-2.744059999999999833e-01 5.289380000000000193e-01 -1.056880000000000042e-01
1.612129999999999952e-01 5.917000000000000384e-03 5.067829999999999835e-01
7.026000000000000127e-03 1.236140000000000017e-01 -8.692560000000000286e-01
1.853450000000000097e-01 3.465449999999999919e-01 5.126840000000000286e-01
-1.899349999999999927e-01 8.277759999999999563e-01 5.269100000000000172e-02
4.432590000000000141e-01 -2.542000000000000162e-02 9.798500000000000265e-02
-3.148540000000000227e-01 -2.586760000000000170e-01 -7.538960000000000106e-01
2.536200000000000121e-01 -3.699279999999999791e-01 -7.146150000000000002e-01
-1.796349999999999891e-01 6.001220000000000443e-01 -1.855430000000000135e-01
-1.098599999999999993e-01 6.396249999999999991e-01 5.147460000000000369e-01
-2.029549999999999965e-01 -2.829249999999999821e-01 -7.966269999999999740e-01
-4.945780000000000176e-01 4.716100000000000153e-02 -3.325110000000000010e-01
-5.722390000000000532e-01 -3.060109999999999775e-01 3.530360000000000165e-01
-3.310000000000000008e-03 7.193559999999999954e-01 -2.059499999999999942e-01
-1.154720000000000052e-01 8.579539999999999944e-01 -5.987499999999999767e-02
-2.208940000000000070e-01 1.117800000000000044e-02 4.717210000000000014e-01
2.857199999999999740e-01 -4.042769999999999975e-01 -3.026679999999999926e-01
4.867520000000000180e-01 -5.458749999999999991e-01 1.208869999999999945e-01
3.636199999999999849e-02 -5.579060000000000130e-01 6.507129999999999859e-01
-1.511750000000000038e-01 8.522469999999999768e-01 1.465450000000000086e-01
3.758290000000000242e-01 -2.439880000000000104e-01 -7.148459999999999814e-01
-2.452979999999999883e-01 3.552500000000000102e-01 4.305249999999999910e-01
-4.365800000000000236e-02 9.414679999999999715e-01 1.654100000000000015e-02
-2.996579999999999799e-01 -2.699650000000000105e-01 6.404790000000000205e-01
-4.094130000000000269e-01 -2.978990000000000249e-01 -6.598730000000000429e-01
3.021579999999999822e-01 6.745919999999999694e-01 1.081499999999999961e-01
-5.186479999999999979e-01 -3.929400000000000254e-02 -5.147639999999999993e-01
5.649980000000000002e-01 -4.341329999999999911e-01 2.625939999999999941e-01
-4.523039999999999838e-01 -3.754109999999999947e-01 5.220139999999999780e-01
2.189309999999999867e-01 5.471669999999999590e-01 4.479540000000000188e-01
-8.881200000000000205e-02 2.902429999999999732e-01 -7.870880000000000098e-01
1.905449999999999922e-01 5.617450000000000498e-01 -2.086929999999999896e-01
-3.108999999999999785e-03 -3.641530000000000045e-01 -7.911600000000000577e-02
5.637219999999999454e-01 -4.557869999999999977e-01 -1.592639999999999889e-01
1.002750000000000030e-01 -3.667770000000000197e-01 7.329029999999999712e-01
-4.915900000000000131e-02 6.205610000000000293e-01 6.256019999999999914e-01
-2.352420000000000067e-01 -1.596819999999999906e-01 -8.214540000000000175e-01
4.115070000000000117e-01 9.674999999999999573e-03 -1.712799999999999878e-01
2.599500000000000074e-02 -3.654910000000000103e-01 -4.251809999999999756e-01
3.675099999999999895e-02 -4.258739999999999748e-01 -4.228300000000000114e-02
-4.439899999999999958e-01 7.646600000000000619e-02 -5.151989999999999625e-01
5.392249999999999543e-01 -8.303499999999999770e-02 -5.051360000000000294e-01
1.871379999999999988e-01 -6.475899999999999712e-02 -8.542640000000000233e-01
6.817099999999999549e-02 4.620219999999999883e-01 -2.771370000000000222e-01
-5.793000000000000371e-01 -5.669199999999999934e-02 -4.113100000000000089e-01
2.913499999999999979e-01 6.974329999999999696e-01 3.414299999999999974e-02
-2.015969999999999984e-01 -3.304320000000000035e-01 7.120840000000000503e-01
-1.811979999999999980e-01 1.130619999999999958e-01 -2.922520000000000118e-01
5.661509999999999598e-01 -4.163300000000000334e-02 -1.738999999999999990e-01
-5.728790000000000271e-01 -4.760139999999999927e-01 3.914999999999999730e-02
4.883000000000000118e-01 -5.423820000000000308e-01 1.065220000000000056e-01
-2.940679999999999961e-01 5.630110000000000392e-01 2.179379999999999928e-01
-5.965880000000000072e-01 -4.005210000000000159e-01 2.509120000000000239e-01
-5.919400000000000217e-01 -3.086059999999999914e-01 3.120510000000000228e-01
3.814660000000000273e-01 -2.620799999999999796e-01 -7.026959999999999873e-01
4.860240000000000116e-01 -6.910700000000000176e-02 -5.941260000000000430e-01
8.877699999999999481e-02 1.081629999999999953e-01 -4.337119999999999864e-01
-3.089749999999999996e-01 6.422899999999999443e-02 -1.189209999999999989e-01
5.090050000000000407e-01 -4.437590000000000146e-01 -3.225799999999999779e-01
2.525350000000000095e-01 6.588099999999999512e-02 3.123349999999999738e-01
2.922660000000000258e-01 7.086550000000000349e-01 7.575800000000000589e-02
-5.594199999999999867e-02 -6.666800000000000503e-02 -8.784950000000000259e-01
-1.122940000000000049e-01 -5.811349999999999572e-01 6.134579999999999478e-01
-2.166119999999999990e-01 -1.738810000000000078e-01 6.708410000000000206e-01
6.772749999999999604e-01 -3.020590000000000219e-01 -7.653000000000000080e-03
-1.723729999999999984e-01 -5.608649999999999469e-01 6.126869999999999816e-01
1.981700000000000128e-01 -4.746509999999999896e-01 4.379000000000000253e-02
-9.363900000000000001e-02 -2.843089999999999784e-01 -8.248189999999999689e-01
5.472829999999999639e-01 -2.101300000000000043e-02 -2.355039999999999911e-01
-7.159500000000000586e-02 -6.929499999999999549e-02 -8.762729999999999686e-01
6.273609999999999465e-01 -1.032269999999999993e-01 -1.386729999999999907e-01
