1.933264732360839844e-01 1.472516655921936035e-01 -8.417243361473083496e-01
1.815502941608428955e-01 1.504534929990768433e-01 -8.388633131980895996e-01
1.839195936918258667e-01 1.516683846712112427e-01 -8.236886262893676758e-01
2.798834443092346191e-01 1.299335956573486328e-01 1.403194516897201538e-01
2.824248671531677246e-01 1.330878138542175293e-01 1.651268154382705688e-01
2.689400911331176758e-01 1.424501091241836548e-01 1.642187684774398804e-01
2.721425592899322510e-01 1.454962790012359619e-01 1.880644261837005615e-01
-4.524556696414947510e-01 1.974335126578807831e-02 6.726548075675964355e-01
-4.480288922786712646e-01 1.676345989108085632e-02 6.918439865112304688e-01
-4.509209692478179932e-01 3.522601723670959473e-02 6.865521073341369629e-01
-4.456110894680023193e-01 3.091361373662948608e-02 7.053788304328918457e-01
-2.453231960535049438e-01 7.598936557769775391e-02 -9.095956683158874512e-01
-2.543407976627349854e-01 7.978405058383941650e-02 -8.974933028221130371e-01
-2.537012994289398193e-01 9.039340913295745850e-02 -8.919377326965332031e-01
-2.606641650199890137e-01 9.546566009521484375e-02 -8.797878026962280273e-01
-2.884269654750823975e-01 -1.053984910249710083e-01 4.369905218482017517e-03
-2.871235907077789307e-01 -1.079729720950126648e-01 2.043599076569080353e-02
-2.974395155906677246e-01 -9.451584517955780029e-02 1.637374237179756165e-02
-2.969252467155456543e-01 -9.627559036016464233e-02 3.217974305152893066e-02
4.528238251805305481e-02 -1.938719004392623901e-01 -1.081277057528495789e-01
4.836069047451019287e-02 -1.956672817468643188e-01 -8.734409511089324951e-02
3.478508815169334412e-02 -1.939874440431594849e-01 -9.541708230972290039e-02
3.764638304710388184e-02 -1.953580230474472046e-01 -7.411396503448486328e-02
1.801921129226684570e-01 1.113926172256469727e-01 3.036144971847534180e-01
1.819152683019638062e-01 1.020325869321823120e-01 3.190902769565582275e-01
1.926650553941726685e-01 1.111713871359825134e-01 3.206530213356018066e-01
1.923299729824066162e-01 1.012081354856491089e-01 3.366441726684570312e-01
1.427257955074310303e-01 -1.432420462369918823e-01 2.351713627576828003e-01
1.506826430559158325e-01 -1.387197524309158325e-01 2.552301287651062012e-01
1.359376460313796997e-01 -1.329640001058578491e-01 2.504384517669677734e-01
1.438557356595993042e-01 -1.282041668891906738e-01 2.698175013065338135e-01
-2.707645595073699951e-01 1.306944489479064941e-01 -6.979817897081375122e-02
-2.761278450489044189e-01 1.250999122858047485e-01 -5.006195977330207825e-02
-2.649161517620086670e-01 1.371555030345916748e-01 -5.076350271701812744e-02
-2.709826827049255371e-01 1.316951662302017212e-01 -3.151537105441093445e-02
5.418595671653747559e-02 1.537661701440811157e-01 -2.053414285182952881e-01
5.250491574406623840e-02 1.605222672224044800e-01 -1.915414035320281982e-01
3.696317225694656372e-02 1.674036383628845215e-01 -1.878973245620727539e-01
3.816298395395278931e-02 1.731242537498474121e-01 -1.726200729608535767e-01
4.061552882194519043e-01 1.277265846729278564e-01 -4.657330214977264404e-01
4.102674126625061035e-01 1.257850229740142822e-01 -4.471758604049682617e-01
3.937277793884277344e-01 1.333869248628616333e-01 -4.499804973602294922e-01
3.987450301647186279e-01 1.308546066284179688e-01 -4.318296611309051514e-01
8.990615606307983398e-05 -1.427425295114517212e-01 8.085473179817199707e-01
3.129476681351661682e-03 -1.448296010494232178e-01 8.247409462928771973e-01
-1.018291246145963669e-02 -1.441738903522491455e-01 8.218895196914672852e-01
-6.690124049782752991e-03 -1.451606601476669312e-01 8.376703262329101562e-01
2.682805955410003662e-01 -1.340604126453399658e-01 3.218092396855354309e-02
2.633444666862487793e-01 -1.379441767930984497e-01 4.879254102706909180e-02
2.733228206634521484e-01 -1.295900940895080566e-01 5.498334765434265137e-02
2.680307030677795410e-01 -1.336373090744018555e-01 7.138177007436752319e-02
2.313153892755508423e-01 6.213137507438659668e-02 -4.621828794479370117e-01
2.263191193342208862e-01 6.039888411760330200e-02 -4.456582069396972656e-01
2.294696271419525146e-01 7.458175718784332275e-02 -4.495214819908142090e-01
2.238940596580505371e-01 7.286895811557769775e-02 -4.331950247287750244e-01
-1.105454042553901672e-01 -2.340484596788883209e-02 -9.857652783393859863e-01
-1.224498078227043152e-01 -2.910238318145275116e-02 -9.759349822998046875e-01
-1.203999444842338562e-01 -1.285124663263559341e-02 -9.820036888122558594e-01
-1.324397623538970947e-01 -1.856475882232189178e-02 -9.718999862670898438e-01
4.030250906944274902e-01 1.344978362321853638e-01 4.052315354347229004e-01
4.062086641788482666e-01 1.341573745012283325e-01 4.242639243602752686e-01
3.927869200706481934e-01 1.423530727624893188e-01 4.161531329154968262e-01
3.969874083995819092e-01 1.419508010149002075e-01 4.331744909286499023e-01
-1.351901441812515259e-01 1.424945443868637085e-01 -7.964463829994201660e-01
-1.302656382322311401e-01 1.380392909049987793e-01 -7.803865075111389160e-01
-1.467330157756805420e-01 1.433923095464706421e-01 -7.851890325546264648e-01
-1.432711035013198853e-01 1.397073566913604736e-01 -7.697318196296691895e-01
2.605920135974884033e-01 1.538075059652328491e-01 -2.645165324211120605e-01
2.674699723720550537e-01 1.538143008947372437e-01 -2.462182790040969849e-01
2.525525987148284912e-01 1.564988344907760620e-01 -2.433959096670150757e-01
2.591875195503234863e-01 1.558920741081237793e-01 -2.242013812065124512e-01
-1.237448528409004211e-01 1.488213390111923218e-01 -8.205085396766662598e-01
-1.172773241996765137e-01 1.443368494510650635e-01 -8.041115403175354004e-01
-1.350415349006652832e-01 1.497633159160614014e-01 -8.097387552261352539e-01
-1.292206645011901855e-01 1.452371478080749512e-01 -7.934466600418090820e-01
2.334856390953063965e-01 6.100242957472801208e-02 4.438398778438568115e-01
2.338772416114807129e-01 5.475024878978729248e-02 4.621947705745697021e-01
2.353918999433517456e-01 7.207573205232620239e-02 4.566141068935394287e-01
2.354521155357360840e-01 6.567121297121047974e-02 4.752802252769470215e-01
2.953581511974334717e-01 1.282934844493865967e-01 5.260820388793945312e-01
2.859786748886108398e-01 1.236085519194602966e-01 5.408442616462707520e-01
2.950591444969177246e-01 1.319434344768524170e-01 5.461083650588989258e-01
2.868826389312744141e-01 1.278832107782363892e-01 5.599253177642822266e-01
-7.705544121563434601e-03 6.532134860754013062e-02 -2.795138359069824219e-01
-2.064695209264755249e-02 6.719084829092025757e-02 -2.756656408309936523e-01
-2.104489132761955261e-02 8.005620539188385010e-02 -2.738574445247650146e-01
-2.560059167444705963e-02 8.733826875686645508e-02 -2.656700313091278076e-01
1.473991721868515015e-01 1.191512718796730042e-01 -7.524951696395874023e-01
1.476512998342514038e-01 1.088101565837860107e-01 -7.337688207626342773e-01
1.299209445714950562e-01 1.255664527416229248e-01 -7.638884186744689941e-01
1.309806853532791138e-01 1.155609413981437683e-01 -7.442518472671508789e-01
-2.312234789133071899e-01 6.099211052060127258e-02 5.008537173271179199e-01
-2.319568842649459839e-01 5.835198238492012024e-02 5.207651853561401367e-01
-2.396794408559799194e-01 7.272068411111831665e-02 5.108400583267211914e-01
-2.390721887350082397e-01 7.021824270486831665e-02 5.296702980995178223e-01
3.971683681011199951e-01 1.199170276522636414e-01 3.625353872776031494e-01
4.017967283725738525e-01 1.190051138401031494e-01 3.832058012485504150e-01
3.891631364822387695e-01 1.285783946514129639e-01 3.782180249691009521e-01
3.938640356063842773e-01 1.290581226348876953e-01 3.972817361354827881e-01
2.984683811664581299e-01 1.396252810955047607e-01 7.775094509124755859e-01
3.018772304058074951e-01 1.360693573951721191e-01 7.971417307853698730e-01
2.873419821262359619e-01 1.417879015207290649e-01 7.945382595062255859e-01
2.902546823024749756e-01 1.387448608875274658e-01 8.134744167327880859e-01
-2.968162298202514648e-01 1.360866129398345947e-01 -2.075320333242416382e-01
-2.844294309616088867e-01 1.309778541326522827e-01 -1.892863661050796509e-01
-2.889768779277801514e-01 1.359628587961196899e-01 -1.771051138639450073e-01
-2.818930447101593018e-01 1.297336965799331665e-01 -1.586694270372390747e-01
2.994886934757232666e-01 9.716740995645523071e-02 -8.686627745628356934e-01
3.062480390071868896e-01 1.012822985649108887e-01 -8.483398556709289551e-01
2.958121299743652344e-01 1.085095033049583435e-01 -8.480681777000427246e-01
3.011167347431182861e-01 1.128744706511497498e-01 -8.266498446464538574e-01
-4.528202414512634277e-01 8.132435381412506104e-02 -4.310139417648315430e-01
-4.533430635929107666e-01 7.445257157087326050e-02 -4.132298529148101807e-01
-4.474646449089050293e-01 9.190420061349868774e-02 -4.164872467517852783e-01
-4.477385878562927246e-01 8.491408079862594604e-02 -3.987152576446533203e-01
2.739533782005310059e-01 -1.538954675197601318e-01 -2.921360135078430176e-01
2.777887880802154541e-01 -1.543390303850173950e-01 -2.748172283172607422e-01
2.694263458251953125e-01 -1.497553884983062744e-01 -2.728476226329803467e-01
2.714247703552246094e-01 -1.507416516542434692e-01 -2.560946345329284668e-01
2.305252254009246826e-01 -7.751198112964630127e-02 -4.351257085800170898e-01
2.284018695354461670e-01 -7.890325784683227539e-02 -4.167942702770233154e-01
2.212065905332565308e-01 -6.548435986042022705e-02 -4.253353774547576904e-01
2.182875573635101318e-01 -6.623192131519317627e-02 -4.066207408905029297e-01
3.945711851119995117e-01 4.827008524443954229e-04 -2.167111784219741821e-01
3.919765353202819824e-01 -6.303989794105291367e-04 -2.037754654884338379e-01
3.923237323760986328e-01 1.161819137632846832e-02 -2.055183202028274536e-01
3.895065188407897949e-01 1.080488599836826324e-02 -1.921445578336715698e-01
-5.452613905072212219e-02 -1.304802298545837402e-01 2.234490513801574707e-01
-5.759801715612411499e-02 -1.251144260168075562e-01 2.376307249069213867e-01
-6.291157007217407227e-02 -1.168440505862236023e-01 2.482201009988784790e-01
-6.705021113157272339e-02 -1.111201718449592590e-01 2.609459161758422852e-01
-3.770933151245117188e-01 -1.410088241100311279e-01 -6.900113224983215332e-01
-3.774751722812652588e-01 -1.438396573066711426e-01 -6.718494296073913574e-01
-3.880782127380371094e-01 -1.322741806507110596e-01 -6.803935766220092773e-01
-3.891814649105072021e-01 -1.348480880260467529e-01 -6.616492867469787598e-01
2.222090512514114380e-01 -1.568012535572052002e-01 -1.251859813928604126e-01
2.268774211406707764e-01 -1.574377566576004028e-01 -1.103773117065429688e-01
2.227676510810852051e-01 -1.557333469390869141e-01 -9.931508451700210571e-02
2.237875759601593018e-01 -1.577597111463546753e-01 -8.420134335756301880e-02
-4.355606809258460999e-02 8.308761566877365112e-02 7.463310956954956055e-01
-3.515659272670745850e-02 9.096113592386245728e-02 7.594558596611022949e-01
-5.549030005931854248e-02 9.401019662618637085e-02 7.573564648628234863e-01
-4.595189169049263000e-02 1.023785844445228577e-01 7.713271379470825195e-01
3.026976287364959717e-01 9.387850016355514526e-02 2.440034411847591400e-03
3.035043478012084961e-01 9.016922116279602051e-02 2.482819184660911560e-02
2.929593324661254883e-01 1.027662679553031921e-01 1.826201938092708588e-02
2.943601012229919434e-01 9.859906136989593506e-02 4.051131755113601685e-02
2.083119004964828491e-01 1.453952491283416748e-01 7.559401392936706543e-01
2.099221795797348022e-01 1.477643698453903198e-01 7.705663442611694336e-01
1.965811997652053833e-01 1.478457599878311157e-01 7.808333635330200195e-01
2.005872726440429688e-01 1.495663821697235107e-01 7.956056594848632812e-01
1.145462132990360260e-02 2.037682384252548218e-01 -5.220450460910797119e-02
2.001256123185157776e-02 2.045052796602249146e-01 -3.344337269663810730e-02
4.917157348245382309e-03 2.055927515029907227e-01 -3.229936957359313965e-02
1.356400363147258759e-02 2.062177807092666626e-01 -1.466569490730762482e-02
1.909268051385879517e-01 -7.755140215158462524e-02 -3.707719147205352783e-01
1.874786466360092163e-01 -8.303613215684890747e-02 -3.532381355762481689e-01
1.841726303100585938e-01 -6.906455010175704956e-02 -3.592859506607055664e-01
1.789881885051727295e-01 -7.498382776975631714e-02 -3.424741625785827637e-01
-9.596318751573562622e-02 -1.897902041673660278e-01 9.851620346307754517e-02
-8.823245018720626831e-02 -1.871635019779205322e-01 1.184891164302825928e-01
-1.013018414378166199e-01 -1.829465925693511963e-01 1.170502752065658569e-01
-9.352701902389526367e-02 -1.805345118045806885e-01 1.371181905269622803e-01
1.877828240394592285e-01 -1.843966171145439148e-02 -3.968507051467895508e-01
1.786656826734542847e-01 -2.009536139667034149e-02 -3.767630159854888916e-01
1.797697693109512329e-01 -5.175483413040637970e-03 -3.862662315368652344e-01
1.691883057355880737e-01 -7.258399389684200287e-03 -3.661566972732543945e-01
-3.291233256459236145e-02 -1.925114095211029053e-01 9.628346562385559082e-02
-2.608979120850563049e-02 -1.905250251293182373e-01 1.137921437621116638e-01
-3.857260569930076599e-02 -1.874566227197647095e-01 1.162710487842559814e-01
-3.186378628015518188e-02 -1.851009577512741089e-01 1.339293569326400757e-01
3.601657450199127197e-01 1.119717434048652649e-01 -2.830755114555358887e-01
3.636374771595001221e-01 1.096669510006904602e-01 -2.642276287078857422e-01
3.544760048389434814e-01 1.229872852563858032e-01 -2.707524895668029785e-01
3.575670421123504639e-01 1.212950050830841064e-01 -2.528241276741027832e-01
2.812646925449371338e-01 -1.260621249675750732e-01 -4.707276523113250732e-01
2.826296389102935791e-01 -1.302137523889541626e-01 -4.498696625232696533e-01
2.710546851158142090e-01 -1.191591173410415649e-01 -4.585897028446197510e-01
2.720617651939392090e-01 -1.238297224044799805e-01 -4.375469088554382324e-01
-2.414573729038238525e-01 -1.567988097667694092e-01 6.872525811195373535e-02
-2.366339862346649170e-01 -1.566665470600128174e-01 8.478994667530059814e-02
-2.514281272888183594e-01 -1.498885154724121094e-01 7.979673892259597778e-02
-2.458936274051666260e-01 -1.505910158157348633e-01 9.655033051967620850e-02
3.006141781806945801e-01 -1.399605423212051392e-01 -5.575923919677734375e-01
3.023640513420104980e-01 -1.383786648511886597e-01 -5.378937721252441406e-01
2.920580506324768066e-01 -1.314211338758468628e-01 -5.394762754440307617e-01
2.929179966449737549e-01 -1.295261979103088379e-01 -5.189729928970336914e-01
-2.797890007495880127e-01 -1.373955756425857544e-01 1.198402121663093567e-01
-2.725580632686614990e-01 -1.396964639425277710e-01 1.383834779262542725e-01
-2.850363850593566895e-01 -1.309053003787994385e-01 1.348962783813476562e-01
-2.782229483127593994e-01 -1.332334727048873901e-01 1.542766243219375610e-01
1.641043126583099365e-01 -4.756862670183181763e-02 -9.668844938278198242e-01
1.540373712778091431e-01 -5.681476369500160217e-02 -9.576221108436584473e-01
1.533011347055435181e-01 -3.682860732078552246e-02 -9.718508124351501465e-01
1.431129276752471924e-01 -4.667596891522407532e-02 -9.629846215248107910e-01
1.234342157840728760e-01 -1.167739853262901306e-01 -2.680161595344543457e-01
1.213213503360748291e-01 -1.228355988860130310e-01 -2.562852799892425537e-01
1.133251413702964783e-01 -1.162241846323013306e-01 -2.608260214328765869e-01
1.103116869926452637e-01 -1.221771612763404846e-01 -2.491397410631179810e-01
6.788257509469985962e-02 -1.220673322677612305e-02 -9.918370246887207031e-01
5.896660313010215759e-02 -2.735348232090473175e-02 -9.881953597068786621e-01
5.667247995734214783e-02 1.660309731960296631e-03 -9.914448857307434082e-01
4.771660640835762024e-02 -1.454705186188220978e-02 -9.900844097137451172e-01
8.317223191261291504e-02 -2.708005905151367188e-02 -3.041448891162872314e-01
7.238032668828964233e-02 -3.057971037924289703e-02 -2.968215048313140869e-01
7.520715892314910889e-02 -1.839637942612171173e-02 -3.016581237316131592e-01
6.448570638895034790e-02 -2.182202413678169250e-02 -2.937978804111480713e-01
3.600746765732765198e-02 2.031042873859405518e-01 -1.642042770981788635e-02
4.278615862131118774e-02 2.034490555524826050e-01 3.095915075391530991e-03
2.645134180784225464e-02 2.053553760051727295e-01 -2.355362288653850555e-03
3.365661948919296265e-02 2.051505148410797119e-01 1.725621521472930908e-02
2.503499090671539307e-01 -9.222368896007537842e-02 4.742412567138671875e-01
2.534631490707397461e-01 -9.528867155313491821e-02 4.934988617897033691e-01
2.453773915767669678e-01 -8.124853670597076416e-02 4.871785342693328857e-01
2.468710094690322876e-01 -8.345148712396621704e-02 5.076289772987365723e-01
-4.753212034702301025e-01 -6.239264085888862610e-02 5.128680467605590820e-01
-4.757080674171447754e-01 -6.454470008611679077e-02 5.322151184082031250e-01
-4.813309609889984131e-01 -5.550171062350273132e-02 5.299875140190124512e-01
-4.817935824394226074e-01 -5.723010376095771790e-02 5.499355196952819824e-01
-2.073602229356765747e-01 5.737221240997314453e-02 -4.020763337612152100e-01
-2.012343406677246094e-01 5.845660716295242310e-02 -3.857535719871520996e-01
-2.163802087306976318e-01 6.831332296133041382e-02 -3.924857974052429199e-01
-2.101303488016128540e-01 6.932450830936431885e-02 -3.755089938640594482e-01
2.321031242609024048e-01 9.231131523847579956e-02 -9.137219190597534180e-01
2.421032190322875977e-01 9.922267496585845947e-02 -8.977341651916503906e-01
2.198589295148849487e-01 1.026290804147720337e-01 -9.062922000885009766e-01
2.289334386587142944e-01 1.094753742218017578e-01 -8.912582993507385254e-01
4.564784765243530273e-01 7.173046004027128220e-03 -3.978204429149627686e-01
4.550480246543884277e-01 1.993997022509574890e-03 -3.793507516384124756e-01
4.510096013545989990e-01 1.759672909975051880e-02 -3.861683309078216553e-01
4.509266018867492676e-01 1.265855878591537476e-02 -3.667617738246917725e-01
-2.894264161586761475e-01 -1.135654002428054810e-01 -1.035938262939453125e-01
-2.863716483116149902e-01 -1.133954748511314392e-01 -8.522873371839523315e-02
-2.969101071357727051e-01 -1.037056222558021545e-01 -9.131522476673126221e-02
-2.940632104873657227e-01 -1.035710722208023071e-01 -7.280822098255157471e-02
-1.253634244203567505e-01 -6.088744103908538818e-02 -3.152135908603668213e-01
-1.190688535571098328e-01 -6.831595301628112793e-02 -3.073099553585052490e-01
-1.320776790380477905e-01 -4.835572838783264160e-02 -3.226149678230285645e-01
-1.228214502334594727e-01 -5.248748511075973511e-02 -3.134484589099884033e-01
3.944813013076782227e-01 3.489938378334045410e-02 7.856306433677673340e-01
3.884447216987609863e-01 3.412025049328804016e-02 7.996940612792968750e-01
3.823657035827636719e-01 4.534579813480377197e-02 8.008716106414794922e-01
3.744319379329681396e-01 4.404435306787490845e-02 8.144204020500183105e-01
1.279940456151962280e-01 1.350593753159046173e-02 -3.300132155418395996e-01
1.152505278587341309e-01 1.123206410557031631e-02 -3.184791505336761475e-01
1.191405132412910461e-01 2.668195031583309174e-02 -3.207390606403350830e-01
1.047031730413436890e-01 2.494635991752147675e-02 -3.104574382305145264e-01
2.799609005451202393e-01 -1.491443365812301636e-01 6.682598590850830078e-01
2.861933112144470215e-01 -1.503633707761764526e-01 6.860939860343933105e-01
2.707625925540924072e-01 -1.459825485944747925e-01 6.870459914207458496e-01
2.763350605964660645e-01 -1.468245089054107666e-01 7.053240537643432617e-01
3.269799649715423584e-01 -1.519253551959991455e-01 4.526838660240173340e-01
3.327241539955139160e-01 -1.520302146673202515e-01 4.701285064220428467e-01
3.193084597587585449e-01 -1.484657227993011475e-01 4.653744101524353027e-01
3.248363435268402100e-01 -1.485705226659774780e-01 4.824579060077667236e-01
2.365837246179580688e-01 1.510696113109588623e-01 7.577849626541137695e-01
2.402694076299667358e-01 1.524373739957809448e-01 7.727763056755065918e-01
2.228571772575378418e-01 1.534200310707092285e-01 7.748989462852478027e-01
2.273665815591812134e-01 1.544176638126373291e-01 7.894597649574279785e-01
1.448626220226287842e-01 1.038643717765808105e-01 7.277146577835083008e-01
1.409288495779037476e-01 1.098746657371520996e-01 7.411895990371704102e-01
1.418978869915008545e-01 1.197464913129806519e-01 7.484560608863830566e-01
1.375060081481933594e-01 1.255558729171752930e-01 7.625336050987243652e-01
2.658057212829589844e-01 1.708203554153442383e-02 9.152287840843200684e-01
2.532296776771545410e-01 1.461421884596347809e-02 9.271383285522460938e-01
2.545800209045410156e-01 3.229554370045661926e-02 9.238145351409912109e-01
2.424464374780654907e-01 2.836899273097515106e-02 9.351298213005065918e-01
-1.650261580944061279e-01 -1.883836090564727783e-01 -1.586113497614860535e-02
-1.579836606979370117e-01 -1.884960383176803589e-01 5.110466852784156799e-03
-1.696506887674331665e-01 -1.817144453525543213e-01 7.914267480373382568e-04
-1.630924940109252930e-01 -1.810369342565536499e-01 2.215245738625526428e-02
3.769151866436004639e-01 2.163001522421836853e-02 -8.265198469161987305e-01
3.855528235435485840e-01 2.404402568936347961e-02 -8.086314201354980469e-01
3.750565350055694580e-01 3.737973794341087341e-02 -8.140885233879089355e-01
3.834501504898071289e-01 4.028790444135665894e-02 -7.959726452827453613e-01
-1.493474990129470825e-01 1.405737847089767456e-01 7.661088109016418457e-01
-1.408161073923110962e-01 1.454341560602188110e-01 7.843118906021118164e-01
-1.631913036108016968e-01 1.459221988916397095e-01 7.793259620666503906e-01
-1.532288193702697754e-01 1.479436159133911133e-01 7.993484735488891602e-01
3.299489915370941162e-01 -1.535165756940841675e-01 -3.615050613880157471e-01
3.311446607112884521e-01 -1.534170657396316528e-01 -3.456925451755523682e-01
3.180528581142425537e-01 -1.507799327373504639e-01 -3.397157192230224609e-01
3.201618790626525879e-01 -1.504535824060440063e-01 -3.245078921318054199e-01
-1.334526836872100830e-01 1.873580962419509888e-01 -8.849675953388214111e-02
-1.257334798574447632e-01 1.905532628297805786e-01 -6.963328272104263306e-02
-1.451952308416366577e-01 1.882965862751007080e-01 -6.010343134403228760e-02
-1.375678926706314087e-01 1.910136044025421143e-01 -4.159710928797721863e-02
2.983787953853607178e-01 -6.400413345545530319e-03 -8.951370120048522949e-01
3.098451495170593262e-01 -7.616225630044937134e-03 -8.848345875740051270e-01
2.992815077304840088e-01 1.157723460346460342e-02 -8.927248120307922363e-01
3.111228644847869873e-01 1.064311433583498001e-02 -8.806251883506774902e-01
1.154587566852569580e-01 -1.836796849966049194e-02 3.220467567443847656e-01
1.328890174627304077e-01 -1.529460586607456207e-02 3.343164920806884766e-01
1.239818632602691650e-01 1.877114875242114067e-03 3.257888257503509521e-01
1.403797864913940430e-01 4.224341828376054764e-03 3.393784463405609131e-01
4.768164157867431641e-01 1.860045455396175385e-02 -5.029356479644775391e-01
4.746392667293548584e-01 1.739203371107578278e-02 -4.827039241790771484e-01
4.723607301712036133e-01 3.036413155496120453e-02 -4.829066693782806396e-01
4.697929322719573975e-01 2.960894070565700531e-02 -4.620228409767150879e-01
-2.736136913299560547e-01 1.428056806325912476e-01 -8.059670329093933105e-01
-2.691968083381652832e-01 1.465239375829696655e-01 -7.906666398048400879e-01
-2.796165049076080322e-01 1.479568779468536377e-01 -7.799549102783203125e-01
-2.744090557098388672e-01 1.498887836933135986e-01 -7.643817663192749023e-01
3.615554273128509521e-01 -1.744019426405429840e-02 -1.250129938125610352e-01
3.564719855785369873e-01 -1.892715878784656525e-02 -1.039771288633346558e-01
3.578140735626220703e-01 -2.898887032642960548e-03 -1.084900274872779846e-01
3.523483276367187500e-01 -4.241210408508777618e-03 -8.768679201602935791e-02
3.168963789939880371e-01 -7.714252918958663940e-02 -1.888015121221542358e-02
3.142013251781463623e-01 -8.104502409696578979e-02 -3.548637032508850098e-04
3.224895596504211426e-01 -6.733082234859466553e-02 2.204054035246372223e-04
3.195708692073822021e-01 -7.113648205995559692e-02 1.870538480579853058e-02
-1.711232513189315796e-01 1.273620501160621643e-02 9.628027081489562988e-01
-1.588147878646850586e-01 3.481284016743302345e-03 9.721630215644836426e-01
-1.821877807378768921e-01 3.623389452695846558e-02 9.537405967712402344e-01
-1.741449534893035889e-01 2.259888499975204468e-02 9.640207290649414062e-01
3.584084287285804749e-02 5.705850198864936829e-04 -9.966140389442443848e-01
2.727468498051166534e-02 -1.316018681973218918e-02 -9.940784573554992676e-01
2.445165254175662994e-02 1.364123634994029999e-02 -9.966480135917663574e-01
1.464327983558177948e-02 8.116057142615318298e-04 -9.954618811607360840e-01
-3.164025843143463135e-01 -1.161352097988128662e-01 -8.314866423606872559e-01
-3.197624087333679199e-01 -1.210714504122734070e-01 -8.165960907936096191e-01
-3.255144059658050537e-01 -1.088840588927268982e-01 -8.202524781227111816e-01
-3.286950588226318359e-01 -1.135615929961204529e-01 -8.053920269012451172e-01
1.497872918844223022e-01 -1.183841228485107422e-01 -2.848898768424987793e-01
1.520040631294250488e-01 -1.255177408456802368e-01 -2.711421847343444824e-01
1.435668468475341797e-01 -1.150825992226600647e-01 -2.779236435890197754e-01
1.444136798381805420e-01 -1.215746924281120300e-01 -2.648862004280090332e-01
2.621043622493743896e-01 -1.262732744216918945e-01 -3.921190500259399414e-01
2.617025971412658691e-01 -1.292336136102676392e-01 -3.703818321228027344e-01
2.505849301815032959e-01 -1.179978102445602417e-01 -3.770388066768646240e-01
2.491074204444885254e-01 -1.212177798151969910e-01 -3.557197749614715576e-01
-3.034961521625518799e-01 1.204035580158233643e-01 8.139936923980712891e-01
-2.920851707458496094e-01 1.114332303404808044e-01 8.328694105148315430e-01
-3.044540584087371826e-01 1.188871562480926514e-01 8.264610171318054199e-01
-2.918303906917572021e-01 1.107028648257255554e-01 8.457610607147216797e-01
3.129155635833740234e-01 1.585246026515960693e-01 2.905144095420837402e-01
3.211451768875122070e-01 1.571748703718185425e-01 3.095403015613555908e-01
3.067985177040100098e-01 1.556971371173858643e-01 3.116424083709716797e-01
3.149056434631347656e-01 1.539281308650970459e-01 3.307716846466064453e-01
3.859026730060577393e-01 -3.184180334210395813e-02 1.853976398706436157e-01
3.861066699028015137e-01 -3.794226050376892090e-02 2.076949775218963623e-01
3.901368975639343262e-01 -2.372001856565475464e-02 2.043762058019638062e-01
3.919487297534942627e-01 -2.837481722235679626e-02 2.260338664054870605e-01
1.870878487825393677e-01 -1.061798557639122009e-01 -9.279102087020874023e-01
1.880948096513748169e-01 -1.140826791524887085e-01 -9.152857661247253418e-01
1.734422892332077026e-01 -9.727945923805236816e-02 -9.323535561561584473e-01
1.702687442302703857e-01 -1.063196882605552673e-01 -9.210684895515441895e-01
-4.212131202220916748e-01 -1.318139880895614624e-01 4.720853567123413086e-01
-4.192413985729217529e-01 -1.336928009986877441e-01 4.891074299812316895e-01
-4.270624816417694092e-01 -1.213966310024261475e-01 4.831736385822296143e-01
-4.253297448158264160e-01 -1.237418130040168762e-01 5.005302429199218750e-01
-8.807381242513656616e-02 -1.346586924046278000e-02 7.122563123703002930e-01
-7.778233289718627930e-02 -1.299491897225379944e-02 7.198421955108642578e-01
-9.523123502731323242e-02 2.768373116850852966e-03 7.133912444114685059e-01
-8.285576850175857544e-02 5.599515512585639954e-03 7.220965027809143066e-01
1.015121862292289734e-01 1.092951521277427673e-01 2.559480965137481689e-01
1.035989299416542053e-01 9.850016981363296509e-02 2.703584730625152588e-01
9.139724075794219971e-02 1.121964603662490845e-01 2.582055032253265381e-01
9.313812106847763062e-02 1.010236591100692749e-01 2.721992731094360352e-01
-1.516116559505462646e-01 2.069442346692085266e-02 -9.675645232200622559e-01
-1.660156548023223877e-01 1.821703091263771057e-02 -9.595146775245666504e-01
-1.611101180315017700e-01 3.555567935109138489e-02 -9.629052281379699707e-01
-1.774426251649856567e-01 3.515657410025596619e-02 -9.556542634963989258e-01
-2.455875873565673828e-01 7.706510275602340698e-02 5.368185639381408691e-01
-2.442383766174316406e-01 7.519018650054931641e-02 5.546447038650512695e-01
-2.518949806690216064e-01 8.597458899021148682e-02 5.508018136024475098e-01
-2.502553164958953857e-01 8.496215939521789551e-02 5.684851408004760742e-01
3.819712400436401367e-01 -1.283176541328430176e-01 -7.087002992630004883e-01
3.782683014869689941e-01 -1.359620094299316406e-01 -6.927012801170349121e-01
3.833415210247039795e-01 -1.248001679778099060e-01 -6.929707527160644531e-01
3.804382681846618652e-01 -1.326698213815689087e-01 -6.776577234268188477e-01
3.238813579082489014e-01 -8.744300901889801025e-02 -1.076473891735076904e-01
3.170806765556335449e-01 -9.031075984239578247e-02 -8.874037861824035645e-02
3.214908242225646973e-01 -7.709871232509613037e-02 -8.859439194202423096e-02
3.156428933143615723e-01 -7.964912056922912598e-02 -6.882260739803314209e-02
3.644578158855438232e-01 2.503556013107299805e-02 1.189912334084510803e-01
3.665319383144378662e-01 2.405392751097679138e-02 1.426142901182174683e-01
3.596910834312438965e-01 3.300123661756515503e-02 1.372903734445571899e-01
3.618868887424468994e-01 3.246078640222549438e-02 1.610873341560363770e-01
-3.341787159442901611e-01 1.408537328243255615e-01 3.097743690013885498e-01
-3.283969163894653320e-01 1.413489580154418945e-01 3.249550163745880127e-01
-3.368139564990997314e-01 1.456576138734817505e-01 3.262830078601837158e-01
-3.343964815139770508e-01 1.450966298580169678e-01 3.416171669960021973e-01
9.230525791645050049e-02 -4.425515234470367432e-02 -3.030231595039367676e-01
8.217272162437438965e-02 -4.854861274361610413e-02 -2.963569760322570801e-01
8.013468980789184570e-02 -3.754874318838119507e-02 -2.986797988414764404e-01
6.994512677192687988e-02 -4.171748086810112000e-02 -2.919067740440368652e-01
-2.494517564773559570e-01 1.436831057071685791e-01 -3.095297217369079590e-01
-2.460492849349975586e-01 1.446153968572616577e-01 -2.962143421173095703e-01
-2.559106647968292236e-01 1.514357328414916992e-01 -2.946093976497650146e-01
-2.522518336772918701e-01 1.521527916193008423e-01 -2.812965512275695801e-01
3.891499713063240051e-02 -7.022684812545776367e-02 7.478779554367065430e-01
3.272783383727073669e-02 -8.232469856739044189e-02 7.585522532463073730e-01
2.169551327824592590e-02 -6.174380704760551453e-02 7.448338270187377930e-01
1.488313917070627213e-02 -7.470291852951049805e-02 7.548509836196899414e-01
2.278914749622344971e-01 5.384128540754318237e-03 5.531570911407470703e-01
2.246586680412292480e-01 3.385627642273902893e-03 5.718094706535339355e-01
2.247928231954574585e-01 2.100705541670322418e-02 5.635390281677246094e-01
2.207511216402053833e-01 1.919181831181049347e-02 5.804480314254760742e-01
3.704426586627960205e-01 -6.061757728457450867e-02 1.755459755659103394e-01
3.705222606658935547e-01 -6.796480715274810791e-02 1.961447000503540039e-01
3.747477233409881592e-01 -5.118804797530174255e-02 1.930737495422363281e-01
3.743893504142761230e-01 -5.781671777367591858e-02 2.148491442203521729e-01
-3.085816800594329834e-01 -1.147855073213577271e-01 8.215794563293457031e-01
-3.017781674861907959e-01 -1.128601208329200745e-01 8.373236656188964844e-01
-3.158401846885681152e-01 -1.056368723511695862e-01 8.357242941856384277e-01
-3.085386753082275391e-01 -1.033567190170288086e-01 8.514501452445983887e-01
-2.099392116069793701e-01 -1.553025394678115845e-01 -8.087409734725952148e-01
-2.040701955556869507e-01 -1.544825583696365356e-01 -7.869770526885986328e-01
-2.216515988111495972e-01 -1.482112109661102295e-01 -7.825834751129150391e-01
-2.157124876976013184e-01 -1.477608531713485718e-01 -7.608196735382080078e-01
4.687790274620056152e-01 3.986380994319915771e-02 6.233798861503601074e-01
4.668270945549011230e-01 3.869526460766792297e-02 6.444506049156188965e-01
4.599506258964538574e-01 5.140596628189086914e-02 6.387970447540283203e-01
4.582203626632690430e-01 4.975897446274757385e-02 6.601051092147827148e-01
1.491382718086242676e-01 -1.522082537412643433e-01 8.646525144577026367e-01
1.514389812946319580e-01 -1.475524455308914185e-01 8.821724653244018555e-01
1.415720582008361816e-01 -1.420459300279617310e-01 8.905144929885864258e-01
1.418554484844207764e-01 -1.368034482002258301e-01 9.061511158943176270e-01
-1.065960973501205444e-01 1.057338491082191467e-01 2.672989070415496826e-01
-1.135029941797256470e-01 9.945097565650939941e-02 2.777459323406219482e-01
-1.172044053673744202e-01 1.068813130259513855e-01 2.757586836814880371e-01
-1.235359981656074524e-01 1.009320244193077087e-01 2.867211103439331055e-01
-3.355781137943267822e-01 5.299395695328712463e-02 -6.869764626026153564e-02
-3.371592760086059570e-01 4.600511863827705383e-02 -4.489101842045783997e-02
-3.319841027259826660e-01 5.888633802533149719e-02 -4.784297570586204529e-02
-3.348169922828674316e-01 5.188354849815368652e-02 -2.444935590028762817e-02
-9.782699495553970337e-02 -6.595671176910400391e-02 -9.743809700012207031e-01
-1.095041856169700623e-01 -7.308143377304077148e-02 -9.655845165252685547e-01
-1.132873073220252991e-01 -5.770939588546752930e-02 -9.723880290985107422e-01
-1.248664259910583496e-01 -6.425125151872634888e-02 -9.627408981323242188e-01
-3.038655221462249756e-01 -1.344807595014572144e-01 4.715106785297393799e-01
-3.014342784881591797e-01 -1.365089267492294312e-01 4.887084364891052246e-01
-2.986269891262054443e-01 -1.285282373428344727e-01 4.887772500514984131e-01
-2.995209097862243652e-01 -1.309168934822082520e-01 5.054731965065002441e-01
-4.163444340229034424e-01 -1.025023236870765686e-01 3.585634827613830566e-01
-4.167333245277404785e-01 -1.075871363282203674e-01 3.756261467933654785e-01
-4.217946827411651611e-01 -9.428882598876953125e-02 3.729867637157440186e-01
-4.222185909748077393e-01 -9.968023747205734253e-02 3.895054757595062256e-01
-2.809611558914184570e-01 1.459800750017166138e-01 -7.666687965393066406e-01
-2.750233113765716553e-01 1.472963094711303711e-01 -7.494581341743469238e-01
-2.877037227153778076e-01 1.525125354528427124e-01 -7.421620488166809082e-01
-2.818273901939392090e-01 1.528306901454925537e-01 -7.228226661682128906e-01
-3.955851495265960693e-01 5.277269706130027771e-02 2.386056333780288696e-01
-4.002026021480560303e-01 5.023028329014778137e-02 2.552207410335540771e-01
-3.983137309551239014e-01 6.436103582382202148e-02 2.509912252426147461e-01
-4.030145704746246338e-01 6.198573112487792969e-02 2.667824029922485352e-01
3.524740412831306458e-02 1.259160935878753662e-01 -2.372019737958908081e-01
3.340104222297668457e-02 1.331756561994552612e-01 -2.257379591464996338e-01
2.662692219018936157e-02 1.400451213121414185e-01 -2.171042859554290771e-01
2.415112964808940887e-02 1.472123265266418457e-01 -2.050750702619552612e-01
-1.271359436213970184e-02 1.257912665605545044e-01 -9.344592690467834473e-01
-8.909723721444606781e-03 1.339310705661773682e-01 -9.213306307792663574e-01
-2.061380259692668915e-02 1.344358623027801514e-01 -9.214157462120056152e-01
-1.403839606791734695e-02 1.394002139568328857e-01 -9.064341783523559570e-01
2.823315560817718506e-01 -1.372196972370147705e-01 -4.097370803356170654e-01
2.827649712562561035e-01 -1.400213688611984253e-01 -3.881504833698272705e-01
2.714331150054931641e-01 -1.304523497819900513e-01 -3.935937285423278809e-01
2.715448737144470215e-01 -1.327012479305267334e-01 -3.721253573894500732e-01
-3.520993590354919434e-01 1.457705050706863403e-01 3.548569679260253906e-01
-3.538252413272857666e-01 1.431508958339691162e-01 3.706704974174499512e-01
-3.529338836669921875e-01 1.525718271732330322e-01 3.714159727096557617e-01
-3.545405864715576172e-01 1.497543305158615112e-01 3.886868655681610107e-01
-3.405932486057281494e-01 -6.357948482036590576e-02 -8.518744111061096191e-01
-3.488071858882904053e-01 -6.619418412446975708e-02 -8.345633745193481445e-01
-3.520563840866088867e-01 -4.887672513723373413e-02 -8.439242839813232422e-01
-3.617533147335052490e-01 -5.121382698416709900e-02 -8.255972862243652344e-01
-2.531720101833343506e-01 -1.620605587959289551e-01 -2.240802943706512451e-01
-2.504085898399353027e-01 -1.621168702840805054e-01 -2.064658552408218384e-01
-2.632888555526733398e-01 -1.558793485164642334e-01 -2.124368548393249512e-01
-2.599686086177825928e-01 -1.565742790699005127e-01 -1.936169117689132690e-01
-1.639788039028644562e-02 2.025197148323059082e-01 -4.378324374556541443e-02
-8.000426925718784332e-03 2.037244737148284912e-01 -2.582508884370326996e-02
-2.785436064004898071e-02 2.061333805322647095e-01 -2.666181698441505432e-02
-1.935058087110519409e-02 2.066009193658828735e-01 -9.420212358236312866e-03
-3.514389991760253906e-01 5.098792910575866699e-02 1.085618957877159119e-01
-3.558445870876312256e-01 4.815521463751792908e-02 1.256797909736633301e-01
-3.506724536418914795e-01 6.163626909255981445e-02 1.215616464614868164e-01
-3.555622398853302002e-01 5.876740440726280212e-02 1.375744938850402832e-01
9.200738370418548584e-02 -2.021009027957916260e-01 3.134651854634284973e-02
9.804356098175048828e-02 -2.009401619434356689e-01 4.753514006733894348e-02
8.486663550138473511e-02 -2.005608975887298584e-01 5.167961493134498596e-02
9.064794331789016724e-02 -1.990012526512145996e-01 6.775456666946411133e-02
-1.200488116592168808e-02 -8.978100121021270752e-02 2.536632418632507324e-01
-2.119972929358482361e-02 -8.555763214826583862e-02 2.643721699714660645e-01
-1.695613190531730652e-02 -7.086131721735000610e-02 2.717692255973815918e-01
-2.838209643959999084e-02 -6.831108778715133667e-02 2.816466093063354492e-01
-4.484355449676513672e-01 1.055329963564872742e-01 -5.607627630233764648e-01
-4.542032778263092041e-01 9.850919991731643677e-02 -5.424935817718505859e-01
-4.424488544464111328e-01 1.164051815867424011e-01 -5.450126528739929199e-01
-4.482814371585845947e-01 1.102033108472824097e-01 -5.278284549713134766e-01
4.354424476623535156e-01 -8.936926722526550293e-02 6.461294293403625488e-01
4.288036823272705078e-01 -9.329159557819366455e-02 6.640399694442749023e-01
4.390887320041656494e-01 -7.868132740259170532e-02 6.655248999595642090e-01
4.315038025379180908e-01 -8.190021663904190063e-02 6.837373375892639160e-01
8.924949169158935547e-02 6.811701506376266479e-02 9.718639254570007324e-01
8.012355118989944458e-02 5.851776525378227234e-02 9.791749119758605957e-01
7.777417451143264771e-02 7.550675421953201294e-02 9.725831747055053711e-01
6.886210292577743530e-02 6.592547893524169922e-02 9.801408648490905762e-01
8.986619114875793457e-02 -1.029125750064849854e-01 7.463915944099426270e-01
8.528544753789901733e-02 -1.091584414243698120e-01 7.614497542381286621e-01
7.600670307874679565e-02 -9.413985908031463623e-02 7.497771978378295898e-01
7.106038928031921387e-02 -1.018040031194686890e-01 7.636120319366455078e-01
-2.685804069042205811e-01 1.272953748703002930e-01 -4.337604343891143799e-02
-2.742821574211120605e-01 1.215405762195587158e-01 -2.440286427736282349e-02
-2.626263797283172607e-01 1.333563327789306641e-01 -2.658179774880409241e-02
-2.684213817119598389e-01 1.279191970825195312e-01 -9.851844981312751770e-03
2.289444804191589355e-01 -4.187400639057159424e-02 4.619013667106628418e-01
2.294567823410034180e-01 -4.381195083260536194e-02 4.827062785625457764e-01
2.260123789310455322e-01 -3.175286203622817993e-02 4.787892699241638184e-01
2.256468385457992554e-01 -3.385957330465316772e-02 4.991458356380462646e-01
1.993045061826705933e-01 -1.682084798812866211e-01 -8.151747286319732666e-02
2.027197182178497314e-01 -1.687647253274917603e-01 -6.711388379335403442e-02
1.945945918560028076e-01 -1.697927862405776978e-01 -5.684653669595718384e-02
1.959080398082733154e-01 -1.706940680742263794e-01 -4.121797159314155579e-02
2.058454304933547974e-01 -5.053260363638401031e-03 -9.526053071022033691e-01
2.211261391639709473e-01 -3.060983028262853622e-03 -9.441775679588317871e-01
2.128443419933319092e-01 1.213286351412534714e-02 -9.470655918121337891e-01
2.266934067010879517e-01 1.657194457948207855e-02 -9.356315732002258301e-01
-7.143381237983703613e-02 1.051388531923294067e-01 -2.553210854530334473e-01
-6.529293209314346313e-02 1.154068410396575928e-01 -2.417993396520614624e-01
-7.848368585109710693e-02 1.238570436835289001e-01 -2.349064499139785767e-01
-7.530952990055084229e-02 1.325024515390396118e-01 -2.203137278556823730e-01
-2.440335899591445923e-01 -1.243279874324798584e-01 8.566624522209167480e-01
-2.401321083307266235e-01 -1.217336431145668030e-01 8.691144585609436035e-01
-2.499479800462722778e-01 -1.158750578761100769e-01 8.688737750053405762e-01
-2.450015544891357422e-01 -1.131776571273803711e-01 8.812391757965087891e-01
-3.768352046608924866e-02 -1.556397974491119385e-01 8.402193188667297363e-01
-3.314081579446792603e-02 -1.555372476577758789e-01 8.565511703491210938e-01
-4.688315093517303467e-02 -1.540809869766235352e-01 8.543532490730285645e-01
-4.145548492670059204e-02 -1.534235626459121704e-01 8.707551360130310059e-01
4.046971797943115234e-01 1.103748306632041931e-01 -7.104525566101074219e-01
4.076478183269500732e-01 1.126125901937484741e-01 -6.889451146125793457e-01
4.009287953376770020e-01 1.232510879635810852e-01 -6.937593817710876465e-01
4.035997688770294189e-01 1.254465281963348389e-01 -6.726099252700805664e-01
-4.224834144115447998e-01 -8.584871888160705566e-02 -6.908985972404479980e-01
-4.249052703380584717e-01 -8.882313966751098633e-02 -6.750513911247253418e-01
-4.290524125099182129e-01 -7.798089087009429932e-02 -6.772760152816772461e-01
-4.309407770633697510e-01 -8.138595521450042725e-02 -6.611533761024475098e-01
1.943084150552749634e-01 -2.152878977358341217e-02 3.927045762538909912e-01
2.035653293132781982e-01 -2.282884344458580017e-02 4.131111204624176025e-01
1.961320638656616211e-01 -6.689156871289014816e-03 4.045080542564392090e-01
2.041983902454376221e-01 -8.860741741955280304e-03 4.245768189430236816e-01
-3.943585455417633057e-01 -1.428064107894897461e-01 5.975674986839294434e-01
-3.909610211849212646e-01 -1.423465460538864136e-01 6.167629361152648926e-01
-4.055301249027252197e-01 -1.329911947250366211e-01 6.151459217071533203e-01
-4.033794403076171875e-01 -1.323193013668060303e-01 6.354533433914184570e-01
-1.450589857995510101e-03 8.061113953590393066e-02 9.744035005569458008e-01
-5.394894629716873169e-03 6.485258042812347412e-02 9.825556278228759766e-01
-1.680777966976165771e-02 8.667419105768203735e-02 9.730839133262634277e-01
-1.986728236079216003e-02 7.006060332059860229e-02 9.820009469985961914e-01
1.690715551376342773e-01 -8.774925023317337036e-02 -3.341369926929473877e-01
1.637067347764968872e-01 -9.381245076656341553e-02 -3.196299374103546143e-01
1.587228327989578247e-01 -7.003291696310043335e-02 -3.282147347927093506e-01
1.506121605634689331e-01 -7.566008716821670532e-02 -3.140737712383270264e-01
-2.621920108795166016e-01 -2.542997151613235474e-02 -9.227057695388793945e-01
-2.724906802177429199e-01 -2.702620811760425568e-02 -9.125533699989318848e-01
-2.665257155895233154e-01 -1.029677037149667740e-02 -9.147681593894958496e-01
-2.773862481117248535e-01 -1.056095585227012634e-02 -9.041562676429748535e-01
8.131694793701171875e-02 4.865335673093795776e-02 7.270277142524719238e-01
6.807860732078552246e-02 4.865814745426177979e-02 7.345518469810485840e-01
7.134865224361419678e-02 6.126950681209564209e-02 7.344136238098144531e-01
5.515414848923683167e-02 5.978148803114891052e-02 7.417858839035034180e-01
3.572398722171783447e-01 1.028698384761810303e-01 -2.419920116662979126e-01
3.585539162158966064e-01 1.004839166998863220e-01 -2.229658067226409912e-01
3.463400304317474365e-01 1.119811460375785828e-01 -2.290450483560562134e-01
3.469294905662536621e-01 1.095175147056579590e-01 -2.097676843404769897e-01
1.256136447191238403e-01 -6.920661032199859619e-02 7.059327363967895508e-01
1.160594448447227478e-01 -7.405827194452285767e-02 7.197119593620300293e-01
1.120274141430854797e-01 -6.037481874227523804e-02 7.139074802398681641e-01
1.023445874452590942e-01 -6.483844667673110962e-02 7.276462316513061523e-01
1.416911631822586060e-01 -8.392146229743957520e-02 7.080777287483215332e-01
1.329868882894515991e-01 -8.919712156057357788e-02 7.221540212631225586e-01
1.277770400047302246e-01 -7.526065409183502197e-02 7.171273827552795410e-01
1.185995265841484070e-01 -8.071602880954742432e-02 7.313563227653503418e-01
-4.718015491962432861e-01 -1.083900965750217438e-02 -6.287320852279663086e-01
-4.733623564243316650e-01 -1.058865617960691452e-02 -6.127358675003051758e-01
-4.772142171859741211e-01 -2.658087993040680885e-03 -6.153555512428283691e-01
-4.788300991058349609e-01 -2.292212331667542458e-03 -5.995302200317382812e-01
-3.665125370025634766e-01 -1.526086479425430298e-01 -6.551389098167419434e-01
-3.639338314533233643e-01 -1.527015566825866699e-01 -6.331654191017150879e-01
-3.784874677658081055e-01 -1.454030275344848633e-01 -6.368647813796997070e-01
-3.767680823802947998e-01 -1.468699276447296143e-01 -6.151770353317260742e-01
3.900986015796661377e-01 -2.369980141520500183e-02 -8.002108931541442871e-01
3.993958830833435059e-01 -2.675539813935756683e-02 -7.841568589210510254e-01
3.929796516895294189e-01 -1.176387816667556763e-02 -7.930591106414794922e-01
4.019483625888824463e-01 -1.412336993962526321e-02 -7.760541439056396484e-01
4.417405426502227783e-01 3.291951864957809448e-02 -3.715948164463043213e-01
4.420874416828155518e-01 2.848056331276893616e-02 -3.511255383491516113e-01
4.353863596916198730e-01 4.183857887983322144e-02 -3.580756485462188721e-01
4.346845746040344238e-01 3.876084834337234497e-02 -3.356833457946777344e-01
2.107169777154922485e-01 2.884409949183464050e-02 4.198566377162933350e-01
2.146138250827789307e-01 2.469464950263500214e-02 4.364401400089263916e-01
2.139804810285568237e-01 4.262990504503250122e-02 4.290023744106292725e-01
2.160587608814239502e-01 3.729587420821189880e-02 4.461985826492309570e-01
-1.295783370733261108e-01 2.824840880930423737e-02 -3.270817697048187256e-01
-1.164765506982803345e-01 3.131017461419105530e-02 -3.169774115085601807e-01
-1.339817941188812256e-01 4.633530229330062866e-02 -3.222220242023468018e-01
-1.205489709973335266e-01 4.928807541728019714e-02 -3.120363354682922363e-01
1.784634143114089966e-01 9.176822006702423096e-02 -9.362118840217590332e-01
1.855499446392059326e-01 1.003095805644989014e-01 -9.242533445358276367e-01
1.733855903148651123e-01 1.029774174094200134e-01 -9.238583445549011230e-01
1.803612709045410156e-01 1.113418340682983398e-01 -9.119726419448852539e-01
-1.673912703990936279e-01 1.126026511192321777e-01 -7.335504889488220215e-01
-1.717414408922195435e-01 1.062251627445220947e-01 -7.135177850723266602e-01
-1.813963949680328369e-01 1.224087327718734741e-01 -7.302844524383544922e-01
-1.842382252216339111e-01 1.164337247610092163e-01 -7.096047997474670410e-01
-3.151359260082244873e-01 -1.561564654111862183e-01 7.189832925796508789e-01
-3.111875653266906738e-01 -1.539543271064758301e-01 7.386941909790039062e-01
-3.270778357982635498e-01 -1.476712971925735474e-01 7.336664199829101562e-01
-3.237309157848358154e-01 -1.451759487390518188e-01 7.526533007621765137e-01
4.305249154567718506e-01 5.664891377091407776e-02 -7.230706810951232910e-01
4.359267354011535645e-01 5.584371089935302734e-02 -7.056380510330200195e-01
4.262878000736236572e-01 7.052984833717346191e-02 -7.119423747062683105e-01
4.314808547496795654e-01 7.031705975532531738e-02 -6.935561299324035645e-01
3.885264396667480469e-01 4.411032795906066895e-02 -7.957003116607666016e-01
3.976335525512695312e-01 4.498555511236190796e-02 -7.784861326217651367e-01
3.836911320686340332e-01 5.510253831744194031e-02 -7.839943170547485352e-01
3.922454416751861572e-01 5.769629031419754028e-02 -7.672079801559448242e-01
2.155345529317855835e-01 -8.741539716720581055e-02 3.800153136253356934e-01
2.227047979831695557e-01 -8.338432759046554565e-02 4.009531140327453613e-01
2.160098701715469360e-01 -6.984587013721466064e-02 3.956790864467620850e-01
2.243802100419998169e-01 -6.776969879865646362e-02 4.171357154846191406e-01
3.676236271858215332e-01 6.488282978534698486e-02 -1.970583796501159668e-01
3.658251464366912842e-01 6.310358643531799316e-02 -1.798517554998397827e-01
3.589260876178741455e-01 7.553827017545700073e-02 -1.887003779411315918e-01
3.571253716945648193e-01 7.334063202142715454e-02 -1.704571247100830078e-01
