-1.720150000000000012e-01 -8.170000000000000179e-04 -6.520289999999999697e-01
-3.534030000000000227e-01 -1.503899999999999959e-01 -6.211889999999999912e-01
2.192250000000000032e-01 -1.119779999999999942e-01 -8.980209999999999582e-01
-2.871349999999999736e-01 -1.360770000000000035e-01 4.211469999999999936e-01
-8.856600000000000583e-02 1.218830000000000052e-01 7.758770000000000389e-01
-1.499929999999999874e-01 4.091100000000000292e-02 3.382890000000000064e-01
-4.423759999999999915e-01 -8.279999999999999600e-04 3.376179999999999737e-01
4.561700000000000199e-01 -4.168899999999999689e-02 4.081699999999999773e-01
1.919410000000000005e-01 -9.171899999999999498e-02 9.255060000000000509e-01
-3.857229999999999825e-01 1.424020000000000008e-01 4.652290000000000036e-01
-4.144390000000000018e-01 1.054559999999999942e-01 -3.597029999999999950e-01
3.108380000000000032e-01 1.457229999999999914e-01 -4.460870000000000113e-01
2.303350000000000120e-01 1.200900000000000023e-01 3.477520000000000056e-01
-2.678119999999999945e-01 -1.353090000000000126e-01 -6.418779999999999486e-01
5.135599999999999887e-02 1.380889999999999895e-01 9.181719999999999882e-01
-3.174549999999999872e-01 -1.445539999999999881e-01 5.370350000000000401e-01
2.430599999999999983e-01 -1.393300000000000094e-01 -3.256910000000000083e-01
-4.021129999999999982e-01 1.437090000000000034e-01 -5.466680000000000428e-01
2.348750000000000004e-01 -9.188999999999999946e-02 4.181099999999999817e-01
-3.645400000000000029e-02 1.729100000000000081e-02 -7.313119999999999621e-01
-2.737749999999999906e-01 -1.448869999999999880e-01 -3.614350000000000063e-01
8.333100000000000229e-02 -1.611430000000000085e-01 1.983850000000000058e-01
1.523740000000000094e-01 -4.389500000000000346e-02 -3.407060000000000088e-01
4.479029999999999956e-01 1.080330000000000040e-01 5.109029999999999960e-01
-4.056130000000000013e-01 -1.343530000000000002e-01 -4.918839999999999879e-01
-1.195360000000000034e-01 -1.600000000000000033e-02 3.232269999999999865e-01
1.401119999999999866e-01 2.325199999999999836e-02 9.739560000000000439e-01
-3.367820000000000258e-01 -4.564599999999999907e-02 -8.534059999999999979e-01
-4.103749999999999898e-01 1.417029999999999956e-01 -5.432329999999999659e-01
-3.020769999999999844e-01 -1.518690000000000040e-01 6.736940000000000150e-01
-2.123230000000000117e-01 -4.599199999999999816e-02 4.214800000000000213e-01
-3.042079999999999784e-01 1.428049999999999875e-01 -4.276050000000000129e-01
-1.564290000000000125e-01 -1.124610000000000054e-01 -9.263639999999999652e-01
-2.632990000000000053e-01 -1.371570000000000011e-01 3.627819999999999934e-01
-1.050399999999999945e-01 8.742999999999999383e-02 -7.384579999999999478e-01
3.110600000000000170e-02 9.290800000000000447e-02 9.652319999999999789e-01
-3.330060000000000242e-01 1.486510000000000054e-01 -3.363889999999999936e-01
-3.801680000000000059e-01 1.431840000000000057e-01 -6.553259999999999641e-01
-2.671649999999999858e-01 -1.273209999999999897e-01 3.960629999999999984e-01
4.165070000000000161e-01 -1.225109999999999949e-01 4.735389999999999877e-01
-2.934160000000000101e-01 -1.159629999999999966e-01 -1.029299999999999937e-01
4.161700000000000121e-02 -1.296980000000000077e-01 -9.293510000000000382e-01
2.786549999999999860e-01 1.472140000000000115e-01 -1.847199999999999953e-01
3.726490000000000080e-01 1.058300000000000039e-02 8.222279999999999589e-01
2.217449999999999977e-01 2.383999999999999835e-03 4.844769999999999910e-01
-3.100959999999999828e-01 -1.041920000000000068e-01 1.100909999999999944e-01
3.810290000000000066e-01 -7.909399999999999764e-02 -7.795830000000000259e-01
-3.349179999999999935e-01 9.952099999999999835e-02 1.745180000000000065e-01
-2.468269999999999909e-01 9.645399999999999807e-02 4.598010000000000153e-01
2.417080000000000062e-01 -7.516699999999999771e-02 -4.826360000000000094e-01
-3.630510000000000126e-01 7.616799999999999959e-02 -8.045980000000000354e-01
-4.794140000000000068e-01 2.378699999999999912e-02 -5.011240000000000139e-01
5.727000000000000146e-02 -1.177150000000000002e-01 -7.788509999999999600e-01
1.190829999999999944e-01 -1.513950000000000018e-01 -8.285289999999999599e-01
-2.837129999999999930e-01 -1.416860000000000064e-01 3.858829999999999760e-01
-3.797320000000000140e-01 5.990899999999999698e-02 2.060430000000000039e-01
1.044999999999999922e-02 -8.495099999999999874e-02 9.730400000000000160e-01
1.461280000000000079e-01 1.454030000000000045e-01 -8.795680000000000165e-01
-2.189419999999999977e-01 -9.814199999999999313e-02 3.748409999999999798e-01
-2.387189999999999868e-01 6.937300000000000411e-02 9.180829999999999824e-01
-2.234230000000000105e-01 -1.585030000000000050e-01 1.398830000000000073e-01
-2.529899999999999857e-02 -2.432399999999999840e-02 7.339529999999999665e-01
2.856119999999999770e-01 -1.543519999999999892e-01 7.182570000000000343e-01
3.410469999999999891e-01 -1.222479999999999956e-01 -2.450410000000000088e-01
4.721999999999999635e-03 -3.143200000000000160e-02 2.844639999999999946e-01
3.953240000000000087e-01 1.419519999999999949e-01 -5.941469999999999807e-01
1.119180000000000036e-01 -1.210920000000000052e-01 -2.527610000000000134e-01
4.736719999999999819e-01 1.093300000000000001e-02 6.233239999999999892e-01
-2.410100000000000020e-01 1.618410000000000126e-01 1.771089999999999887e-01
-3.050169999999999826e-01 1.436280000000000057e-01 -5.771290000000000031e-01
2.176499999999999962e-02 7.724899999999999822e-02 -2.695819999999999883e-01
2.248449999999999893e-01 -1.455889999999999962e-01 8.386949999999999683e-01
2.562490000000000046e-01 1.481659999999999922e-01 7.151380000000000514e-01
-1.012320000000000025e-01 -3.248100000000000293e-02 -9.809499999999999886e-01
3.090490000000000181e-01 1.126189999999999969e-01 -1.319629999999999970e-01
-2.595939999999999914e-01 -9.990300000000000569e-02 5.348450000000000149e-01
5.465799999999999825e-02 1.784550000000000025e-01 -1.559589999999999865e-01
-4.161489999999999911e-01 1.488800000000000019e-02 2.706959999999999922e-01
3.658649999999999958e-01 8.038599999999999912e-02 -2.076099999999999890e-01
-9.133700000000000152e-02 -1.147470000000000018e-01 9.442089999999999650e-01
-6.439699999999999591e-02 -1.433349999999999902e-01 9.102989999999999693e-01
2.063240000000000074e-01 -3.805200000000000249e-02 -6.098999999999999977e-01
-7.400000000000000328e-03 5.068099999999999689e-02 -9.886869999999999825e-01
3.900600000000000178e-01 -8.045800000000000174e-02 -2.655279999999999863e-01
-1.274510000000000087e-01 -7.801999999999999907e-03 3.310359999999999969e-01
-1.267739999999999978e-01 -1.333729999999999916e-01 -2.510000000000000009e-01
1.952939999999999954e-01 -1.511280000000000123e-01 -8.281490000000000240e-01
-1.627959999999999963e-01 4.036399999999999710e-02 -6.741679999999999895e-01
4.580239999999999867e-01 -6.288100000000000633e-02 -6.470320000000000515e-01
7.082099999999999507e-02 4.662499999999999978e-02 9.832429999999999781e-01
-1.961910000000000043e-01 1.217310000000000059e-01 7.090060000000000251e-01
3.415150000000000130e-01 -1.054620000000000002e-01 -8.034569999999999768e-01
-1.382309999999999928e-01 1.136859999999999954e-01 -7.412339999999999485e-01
-2.878769999999999940e-01 -1.182750000000000051e-01 -9.477299999999999613e-02
-1.441599999999999999e-02 -1.723530000000000062e-01 -1.672079999999999955e-01
3.529459999999999820e-01 -6.668100000000000416e-02 -8.252080000000000526e-01
2.962859999999999938e-01 -2.861800000000000108e-02 8.908270000000000355e-01
1.236379999999999979e-01 1.025849999999999956e-01 -9.454820000000000446e-01
2.724710000000000187e-01 -1.294500000000000095e-01 -8.087300000000000044e-02
-3.958760000000000057e-01 4.165699999999999958e-02 -2.359199999999999908e-01
8.401500000000000634e-02 1.417879999999999974e-01 -9.071829999999999616e-01
2.971059999999999812e-01 1.490849999999999953e-01 -6.614039999999999919e-01
3.541139999999999843e-01 6.206400000000000111e-02 1.448879999999999890e-01
-2.871500000000000094e-02 1.507209999999999939e-01 8.853619999999999823e-01
8.758999999999999425e-03 4.959100000000000313e-02 -9.905169999999999808e-01
-9.498800000000000299e-02 1.794400000000000162e-02 -7.134960000000000191e-01
3.488760000000000194e-01 1.527679999999999871e-01 -4.958009999999999917e-01
-3.933719999999999994e-01 3.575600000000000306e-02 2.228890000000000038e-01
1.268479999999999885e-01 4.957500000000000101e-02 -9.733429999999999582e-01
1.863960000000000061e-01 1.375359999999999916e-01 7.466840000000000144e-01
-2.203400000000000150e-02 1.952560000000000129e-01 9.923200000000000076e-02
9.372800000000000575e-02 -3.207800000000000235e-02 9.822089999999999987e-01
-1.948010000000000019e-01 -1.239119999999999944e-01 8.959470000000000489e-01
4.878999999999999657e-03 2.040440000000000031e-01 4.183300000000000213e-02
-1.590000000000000050e-03 1.036610000000000031e-01 -9.608489999999999531e-01
1.421789999999999998e-01 -2.727999999999999869e-02 -6.867980000000000196e-01
-3.713670000000000027e-01 -6.212999999999999773e-03 -1.434040000000000037e-01
-3.843949999999999867e-01 7.299999999999999545e-02 7.784259999999999513e-01
3.869270000000000209e-01 1.286789999999999878e-01 -3.871899999999999786e-01
2.208199999999999885e-01 -1.346529999999999949e-01 7.081250000000000044e-01
2.769329999999999847e-01 1.229539999999999939e-01 -5.642869999999999830e-01
1.306150000000000089e-01 -1.343350000000000100e-01 -9.046509999999999829e-01
1.811490000000000045e-01 -1.918600000000000166e-02 9.585439999999999516e-01
-3.410179999999999878e-01 -1.228220000000000006e-01 7.749800000000000022e-01
-5.670300000000000340e-02 1.474719999999999920e-01 -8.942740000000000133e-01
-1.689930000000000043e-01 -1.513899999999999968e-01 -8.047549999999999981e-01
2.946730000000000183e-01 -8.170900000000000385e-02 8.680020000000000513e-01
-2.497600000000000098e-01 -9.916600000000000414e-02 5.772659999999999458e-01
-2.319509999999999905e-01 7.301799999999999957e-02 -4.344870000000000121e-01
2.244440000000000046e-01 -7.123000000000000165e-02 -9.268389999999999684e-01
-2.704219999999999957e-01 1.468309999999999893e-01 -6.889950000000000241e-01
-3.614479999999999915e-01 -1.268799999999999928e-01 -7.347259999999999902e-01
-4.350629999999999775e-01 1.104340000000000044e-01 -6.146089999999999609e-01
4.427150000000000252e-01 1.009410000000000029e-01 -5.602519999999999722e-01
1.236759999999999943e-01 -1.457509999999999917e-01 -8.841109999999999802e-01
-5.845299999999999802e-02 -8.602999999999999536e-03 -9.911769999999999747e-01
-3.503700000000000148e-01 1.790299999999999878e-02 -8.482739999999999725e-01
-3.921859999999999791e-01 1.265370000000000106e-01 -6.808130000000000015e-01
-1.047519999999999979e-01 5.216500000000000303e-02 3.065240000000000187e-01
1.951799999999999924e-01 1.126650000000000013e-01 -9.074200000000000044e-01
4.707729999999999970e-01 4.823999999999999816e-02 -5.537720000000000420e-01
4.292300000000000004e-01 -9.327000000000000221e-03 -7.430489999999999595e-01
9.612900000000000611e-02 -6.235700000000000270e-02 -2.970280000000000142e-01
-1.076030000000000042e-01 1.612319999999999864e-01 -1.894329999999999903e-01
-2.187630000000000130e-01 1.461999999999999932e-02 4.670440000000000147e-01
-3.878299999999999803e-02 -2.020770000000000066e-01 4.438700000000000284e-02
-2.087999999999999926e-02 1.168550000000000005e-01 7.835750000000000215e-01
-7.768600000000000505e-02 2.138500000000000123e-02 9.867329999999999712e-01
-2.649929999999999786e-01 -1.095949999999999980e-01 5.405969999999999942e-01
-4.405209999999999959e-01 -4.494000000000000078e-02 6.997480000000000366e-01
-3.423240000000000172e-01 -1.516889999999999905e-01 4.401160000000000072e-01
2.861699999999999799e-01 1.403490000000000015e-01 6.198569999999999913e-01
1.881569999999999909e-01 7.952700000000000047e-02 -3.569330000000000003e-01
-1.642319999999999891e-01 -3.820500000000000285e-02 -3.512040000000000162e-01
5.113800000000000290e-02 2.413600000000000120e-02 7.316359999999999530e-01
-2.913330000000000086e-01 -1.309250000000000136e-01 -4.944569999999999799e-01
4.653199999999999698e-02 3.615899999999999670e-02 -2.881360000000000032e-01
-1.922619999999999885e-01 -1.556899999999999951e-02 -3.898289999999999811e-01
4.274499999999999966e-01 5.545699999999999935e-02 -3.307329999999999992e-01
-2.574060000000000237e-01 -1.532169999999999921e-01 7.697570000000000245e-01
-7.767699999999999605e-02 1.524610000000000132e-01 -8.701799999999999535e-01
4.271400000000000197e-02 -1.542439999999999922e-01 -8.679499999999999993e-01
2.300699999999999967e-01 1.023840000000000028e-01 6.312130000000000241e-01
4.726259999999999906e-01 -3.816200000000000148e-02 4.878000000000000114e-01
-2.332940000000000014e-01 5.574699999999999794e-02 -5.346530000000000449e-01
-3.713359999999999994e-01 -1.513170000000000071e-01 5.544569999999999776e-01
-3.930919999999999970e-01 -1.173150000000000026e-01 -3.628910000000000191e-01
-1.253690000000000082e-01 -1.862240000000000006e-01 -1.345860000000000112e-01
1.148340000000000055e-01 -1.316789999999999905e-01 -2.403480000000000061e-01
-3.544800000000000034e-02 2.018349999999999866e-01 4.984399999999999942e-02
-1.738099999999999923e-01 -8.669399999999999329e-02 -3.324179999999999913e-01
2.901329999999999742e-01 -1.397410000000000041e-01 5.967109999999999914e-01
-4.645799999999999930e-02 -1.577479999999999993e-01 -1.977009999999999879e-01
1.057799999999999990e-01 1.318390000000000117e-01 -7.844039999999999901e-01
1.663060000000000094e-01 1.221750000000000058e-01 -9.084309999999999885e-01
-3.686530000000000085e-01 8.352600000000000302e-02 7.905039999999999845e-01
4.352519999999999722e-01 -5.199999999999999544e-04 -3.169500000000000095e-01
2.009809999999999930e-01 8.441400000000000292e-02 3.588230000000000031e-01
7.027899999999999425e-02 -1.275139999999999885e-01 7.872700000000000253e-01
1.665139999999999953e-01 3.598699999999999816e-02 3.507939999999999947e-01
-4.192690000000000028e-01 -8.362500000000000488e-02 -3.546730000000000160e-01
2.448990000000000056e-01 1.353509999999999991e-01 6.827739999999999920e-01
1.624619999999999953e-01 1.071949999999999986e-01 -9.293150000000000022e-01
-3.554419999999999802e-01 1.351640000000000064e-01 7.246650000000000036e-01
-1.805100000000000107e-02 -1.981700000000000128e-01 8.617199999999999860e-02
6.412099999999999744e-02 -1.974450000000000094e-01 -6.770299999999999929e-02
-6.195699999999999819e-02 -4.646600000000000036e-02 2.892140000000000266e-01
-3.700620000000000021e-01 6.490899999999999448e-02 8.059790000000000010e-01
2.261739999999999862e-01 1.542530000000000012e-01 7.928380000000000427e-01
4.218990000000000240e-01 5.986400000000000055e-02 -7.384230000000000516e-01
2.411629999999999885e-01 -1.603410000000000113e-01 2.606939999999999813e-01
-3.015689999999999760e-01 1.000510000000000010e-01 -5.950799999999999840e-02
1.199459999999999971e-01 -1.901239999999999875e-01 -5.473700000000000093e-02
-9.079600000000000171e-02 -6.295800000000000007e-02 7.273899999999999810e-01
-2.238739999999999897e-01 6.296000000000000381e-03 5.107180000000000053e-01
-4.313020000000000187e-01 -6.604999999999999760e-03 3.083389999999999742e-01
-2.488470000000000126e-01 -1.501300000000000134e-01 -3.068009999999999904e-01
1.735009999999999886e-01 -1.526079999999999937e-01 -8.346780000000000310e-01
-1.067940000000000000e-01 1.925149999999999917e-01 9.057099999999999873e-02
-1.516550000000000120e-01 -1.699690000000000090e-01 -1.882439999999999947e-01
2.392900000000000027e-01 1.124600000000000044e-01 8.833600000000000341e-01
2.531010000000000204e-01 6.969999999999999807e-02 9.079159999999999453e-01
-2.157099999999999990e-02 -1.431399999999999895e-01 -9.159920000000000284e-01
3.927410000000000068e-01 -6.175699999999999940e-02 -2.416240000000000054e-01
-3.404200000000000004e-01 -6.856900000000000495e-02 1.115619999999999945e-01
4.034670000000000201e-01 6.279500000000000359e-02 -7.614060000000000272e-01
2.045190000000000063e-01 1.546379999999999977e-01 -2.493080000000000018e-01
-2.073750000000000038e-01 1.656209999999999904e-01 2.004309999999999981e-01
-3.679870000000000085e-01 -1.387859999999999927e-01 6.946269999999999945e-01
3.732389999999999874e-01 -1.402509999999999868e-01 6.793120000000000269e-01
-3.340100000000000013e-02 1.313419999999999865e-01 8.010680000000000023e-01
-1.692279999999999895e-01 -3.565000000000000113e-02 6.646499999999999631e-01
1.686719999999999886e-01 1.488970000000000016e-01 -8.527909999999999657e-01
-1.518029999999999935e-01 4.875499999999999973e-02 3.384019999999999806e-01
-2.170459999999999889e-01 7.452100000000000390e-02 6.221759999999999513e-01
2.212159999999999960e-01 8.334199999999999942e-02 -6.249500000000000055e-01
-2.085670000000000024e-01 -2.455900000000000097e-02 -9.460929999999999618e-01
1.073439999999999950e-01 6.634700000000000319e-02 -2.999029999999999752e-01
-2.755889999999999729e-01 -1.436949999999999894e-01 -3.717349999999999821e-01
-2.753149999999999764e-01 -1.168980000000000019e-01 5.015060000000000073e-01
2.132799999999999974e-01 -1.211190000000000044e-01 3.360609999999999986e-01
-4.065079999999999805e-01 6.333999999999999353e-02 2.823039999999999994e-01
9.273699999999999999e-02 -1.275660000000000127e-01 -2.373949999999999949e-01
4.279470000000000218e-01 7.628200000000000258e-02 3.522549999999999848e-01
-2.799599999999999866e-01 1.477769999999999917e-01 6.783789999999999543e-01
1.491550000000000098e-01 6.407899999999999707e-02 3.251789999999999958e-01
1.496280000000000110e-01 1.496510000000000062e-01 2.280119999999999925e-01
-5.417099999999999693e-02 -1.644279999999999908e-01 1.771069999999999867e-01
-6.788700000000000290e-02 -1.274329999999999907e-01 7.883649999999999824e-01
1.468830000000000136e-01 -1.980300000000000116e-02 -3.423689999999999789e-01
3.708310000000000217e-01 1.439360000000000084e-01 -4.327280000000000015e-01
-3.288269999999999804e-01 -6.869100000000000206e-02 7.193800000000000194e-02
-4.326010000000000133e-01 -9.588299999999999601e-02 -4.293250000000000122e-01
3.676530000000000076e-01 -2.021799999999999986e-02 -1.436040000000000094e-01
3.122759999999999980e-01 1.439829999999999999e-01 -4.767529999999999824e-01
1.407569999999999932e-01 9.485599999999999588e-02 -7.234979999999999745e-01
-2.664070000000000049e-01 -9.631199999999999484e-02 8.795819999999999750e-01
-3.335369999999999724e-01 -1.114109999999999961e-01 1.923630000000000062e-01
2.274639999999999995e-01 3.941399999999999765e-02 4.643499999999999850e-01
1.185670000000000057e-01 -7.778300000000000491e-02 -7.248059999999999503e-01
1.724360000000000059e-01 -5.256600000000000161e-02 -9.552819999999999645e-01
-1.176890000000000019e-01 -1.306039999999999979e-01 2.430110000000000048e-01
-7.580699999999999938e-02 -1.863410000000000066e-01 1.152910000000000046e-01
-3.468010000000000259e-01 6.015399999999999914e-02 -1.150749999999999967e-01
2.246140000000000081e-01 1.419699999999999955e-02 4.901860000000000106e-01
4.741469999999999851e-01 -3.290400000000000269e-02 -4.826369999999999827e-01
-3.710840000000000249e-01 1.737500000000000155e-02 -8.226369999999999516e-01
3.083080000000000265e-01 1.474949999999999872e-01 -2.632030000000000203e-01
-2.164010000000000100e-01 4.629300000000000082e-02 4.342409999999999881e-01
3.554570000000000229e-01 1.530269999999999964e-01 4.805170000000000274e-01
-3.435860000000000025e-01 1.105799999999999977e-01 2.162270000000000025e-01
2.839979999999999727e-01 -1.326799999999999924e-01 5.861939999999999928e-01
-4.703109999999999791e-01 2.088299999999999879e-02 -6.341489999999999627e-01
-3.284670000000000090e-01 1.391330000000000067e-01 -7.585349999999999593e-01
-2.058010000000000117e-01 -1.451669999999999905e-01 8.498729999999999896e-01
2.774800000000000044e-01 -1.479280000000000039e-01 -7.796560000000000157e-01
4.760650000000000159e-01 5.925500000000000211e-02 5.199179999999999913e-01
-2.421399999999999941e-01 -8.583799999999999764e-02 -4.561870000000000092e-01
3.466929999999999734e-01 -1.011009999999999964e-01 -8.014120000000000132e-01
-3.979630000000000112e-01 8.729499999999999760e-02 -2.933740000000000236e-01
-3.515599999999999975e-02 1.519419999999999937e-01 -2.037829999999999919e-01
3.836919999999999775e-01 1.034650000000000014e-01 7.553720000000000434e-01
-4.533100000000000324e-02 1.443969999999999976e-01 -8.196590000000000265e-01
2.288000000000000034e-01 1.528849999999999931e-01 -2.718169999999999753e-01
1.390760000000000052e-01 -1.990499999999999908e-02 -6.871899999999999675e-01
-1.687309999999999921e-01 -1.814540000000000042e-01 2.382300000000000043e-02
-2.782080000000000108e-01 1.365439999999999987e-01 8.159140000000000281e-01
-2.141099999999999948e-01 -3.939299999999999746e-02 -5.948719999999999564e-01
3.818030000000000035e-01 -6.869899999999999618e-02 2.286960000000000104e-01
-3.964809999999999723e-01 3.681999999999999856e-02 -2.352559999999999929e-01
1.797950000000000104e-01 -8.960100000000000009e-02 6.859070000000000444e-01
2.350549999999999862e-01 -7.453200000000000103e-02 -5.762420000000000320e-01
-3.660459999999999825e-01 -1.271289999999999920e-01 7.316289999999999738e-01
1.542479999999999962e-01 -1.452980000000000105e-01 7.843989999999999574e-01
-3.758029999999999982e-01 8.058500000000000385e-02 2.340530000000000110e-01
1.328640000000000099e-01 6.238699999999999801e-02 3.129109999999999947e-01
-4.333310000000000217e-01 1.155240000000000017e-01 -4.608740000000000059e-01
4.303629999999999955e-01 4.234399999999999969e-02 3.215660000000000185e-01
2.069900000000000073e-01 6.037100000000000105e-02 -9.379840000000000400e-01
2.483799999999999897e-02 -2.015000000000000124e-01 7.352300000000000502e-02
-3.683649999999999980e-01 5.798899999999999888e-02 -1.807239999999999958e-01
-2.476829999999999865e-01 -9.814900000000000013e-02 4.372780000000000000e-01
-2.241299999999999959e-01 -1.331450000000000133e-01 -3.285210000000000075e-01
2.591299999999999853e-02 1.260979999999999879e-01 -9.379180000000000295e-01
3.792820000000000080e-01 1.173609999999999931e-01 -7.298590000000000355e-01
-1.859600000000000142e-02 -2.036409999999999887e-01 -4.992300000000000210e-02
1.842799999999999994e-02 -1.398109999999999908e-01 8.125890000000000057e-01
-6.660000000000000642e-02 1.446369999999999878e-01 -2.148639999999999994e-01
-4.001970000000000249e-01 -4.555700000000000027e-02 7.774349999999999872e-01
-2.702749999999999875e-01 1.460029999999999939e-01 -3.318699999999999983e-01
-2.964749999999999885e-01 1.534040000000000126e-01 -3.032790000000000208e-01
1.198199999999999960e-01 -1.904859999999999887e-01 1.046030000000000015e-01
1.201499999999999964e-02 1.408159999999999967e-01 -2.161599999999999910e-01
2.648889999999999856e-01 -1.001549999999999940e-01 -8.777540000000000342e-01
-3.605940000000000256e-01 9.520399999999999696e-02 7.907980000000000009e-01
-2.345720000000000027e-01 -1.298989999999999867e-01 6.841629999999999656e-01
4.367460000000000231e-01 1.049930000000000030e-01 -4.757440000000000002e-01
3.411489999999999800e-01 1.493520000000000125e-01 6.797050000000000036e-01
3.543049999999999811e-01 1.407940000000000025e-01 -3.458069999999999755e-01
4.473320000000000074e-01 -8.647100000000000619e-02 -6.275929999999999565e-01
4.353679999999999772e-01 1.186399999999999955e-02 -3.233889999999999820e-01
-4.121389999999999776e-01 1.891400000000000026e-02 2.625129999999999963e-01
3.582640000000000269e-01 -1.502989999999999882e-01 4.924160000000000204e-01
-1.847489999999999966e-01 -1.540300000000000002e-01 -8.085040000000000004e-01
-1.337200000000000055e-01 1.789229999999999987e-01 -1.459070000000000089e-01
3.078520000000000145e-01 1.439549999999999996e-01 5.717140000000000555e-01
-1.390609999999999902e-01 1.892679999999999918e-01 3.898499999999999882e-02
-3.116670000000000273e-01 -1.396100000000000119e-01 -2.403849999999999876e-01
-4.303799999999999987e-02 -1.159039999999999931e-01 -2.457689999999999875e-01
3.658199999999999785e-01 2.007600000000000010e-02 -8.285449999999999759e-01
2.132330000000000059e-01 -1.670210000000000028e-01 2.141480000000000050e-01
-4.620759999999999867e-01 2.229000000000000078e-03 6.644870000000000498e-01
-3.532710000000000017e-01 -1.332299999999999977e-02 7.236299999999999677e-02
2.213479999999999892e-01 1.475140000000000062e-01 7.489050000000000429e-01
-4.082089999999999885e-01 -2.577499999999999930e-02 -2.570830000000000060e-01
-4.546930000000000138e-01 2.579700000000000049e-02 -3.821740000000000137e-01
-3.456069999999999975e-01 4.273799999999999821e-02 7.954899999999999471e-02
-1.475779999999999870e-01 -1.085040000000000032e-01 2.885969999999999924e-01
1.307250000000000079e-01 1.183120000000000005e-01 -9.283919999999999950e-01
-4.054039999999999866e-01 -8.907400000000000040e-02 -7.308649999999999869e-01
4.536680000000000157e-01 -3.037899999999999975e-02 3.868840000000000057e-01
3.226600000000000301e-02 -1.117459999999999981e-01 7.754950000000000454e-01
4.218379999999999908e-01 1.307439999999999991e-01 5.180690000000000017e-01
3.446850000000000191e-01 -5.675399999999999889e-02 -9.861200000000000521e-02
4.557749999999999857e-01 6.042800000000000255e-02 -6.449230000000000240e-01
1.699910000000000032e-01 -1.370750000000000024e-01 -8.878310000000000368e-01
-2.333459999999999979e-01 1.576079999999999981e-01 8.479200000000000625e-02
-1.028509999999999980e-01 1.492469999999999908e-01 -8.761079999999999979e-01
-4.517780000000000129e-01 -2.668200000000000086e-02 3.756410000000000027e-01
-1.917530000000000068e-01 -5.566999999999999900e-03 9.565080000000000249e-01
-7.403999999999999471e-02 -1.369420000000000082e-01 -9.156320000000000014e-01
3.084419999999999940e-01 -1.429370000000000085e-01 -4.540509999999999824e-01
2.063699999999999909e-02 1.474340000000000095e-01 -8.985360000000000014e-01
4.328580000000000205e-01 2.826800000000000146e-02 3.223159999999999914e-01
-6.562600000000000378e-02 -1.638890000000000069e-01 1.776439999999999964e-01
8.308100000000000207e-02 -9.485000000000000375e-02 -9.597839999999999705e-01
-1.895850000000000035e-01 -2.644099999999999923e-02 9.540570000000000439e-01
2.777939999999999854e-01 -1.280300000000000049e-01 -4.266280000000000072e-01
1.668070000000000108e-01 -1.722629999999999995e-01 -1.341720000000000135e-01
-3.066849999999999854e-01 -9.301700000000000246e-02 5.196499999999999730e-02
-1.765999999999999992e-03 -1.501850000000000129e-01 -8.864630000000000010e-01
-2.514460000000000028e-01 -1.136790000000000023e-01 4.057209999999999983e-01
3.640050000000000230e-01 1.537199999999999955e-01 5.409180000000000099e-01
-1.238780000000000020e-01 3.538399999999999879e-02 7.043650000000000189e-01
-1.196979999999999988e-01 -3.996000000000000420e-03 -9.840600000000000458e-01
-3.260370000000000212e-01 -3.884900000000000159e-02 -8.640149999999999775e-01
-5.788200000000000289e-02 -1.021460000000000007e-01 -2.611459999999999892e-01
3.911040000000000072e-01 9.927199999999999913e-02 7.458810000000000162e-01
-1.313719999999999888e-01 -9.071799999999999309e-02 2.941250000000000253e-01
4.566819999999999768e-01 -8.168799999999999673e-02 5.006239999999999579e-01
-2.633409999999999918e-01 -1.439900000000000069e-01 8.177969999999999962e-01
4.024420000000000219e-01 -6.223200000000000259e-02 -7.677009999999999668e-01
-2.224770000000000081e-01 8.789399999999999991e-02 -3.877630000000000243e-01
2.350250000000000117e-01 -6.032099999999999962e-02 5.226910000000000167e-01
-4.345160000000000133e-01 -3.998000000000000165e-02 -3.391339999999999910e-01
8.276600000000000623e-02 -1.274059999999999915e-01 -7.837739999999999707e-01
1.474119999999999875e-01 1.729640000000000066e-01 -1.780090000000000006e-01
-4.087740000000000262e-01 -1.247100000000000014e-01 -4.521350000000000091e-01
2.206170000000000075e-01 -1.424199999999999910e-01 -2.924700000000000077e-01
4.473400000000000154e-01 9.530500000000000083e-02 4.446820000000000217e-01
-1.326600000000000001e-02 9.887400000000000355e-02 -7.659700000000000397e-01
-2.433899999999999952e-01 1.477580000000000005e-01 4.878500000000000197e-02
-2.967230000000000145e-01 1.111869999999999942e-01 9.484800000000000175e-02
3.862260000000000137e-01 9.641600000000000170e-02 2.810150000000000148e-01
-5.614000000000000240e-02 -7.269100000000000561e-02 -2.772310000000000052e-01
-4.585540000000000171e-01 3.314199999999999785e-02 6.565689999999999582e-01
3.743130000000000068e-01 -1.419910000000000061e-01 4.188640000000000141e-01
-1.229200000000000015e-01 -1.264099999999999946e-02 -3.232499999999999818e-01
-1.335520000000000040e-01 -1.502499999999999947e-01 2.112400000000000111e-01
-2.415750000000000119e-01 -8.602500000000000424e-02 -5.756489999999999663e-01
2.375309999999999921e-01 -6.583100000000000063e-02 5.303160000000000096e-01
3.837180000000000035e-01 -1.067120000000000013e-01 7.435300000000000242e-01
6.618999999999999884e-03 1.896750000000000103e-01 1.200729999999999992e-01
-1.009560000000000041e-01 -4.882399999999999934e-02 3.048319999999999919e-01
-3.520139999999999936e-01 -1.517809999999999993e-01 -4.919839999999999769e-01
1.203950000000000020e-01 7.928100000000000425e-02 -7.234730000000000327e-01
-7.105100000000000304e-02 -1.660540000000000072e-01 -1.857509999999999994e-01
2.122280000000000000e-01 1.439549999999999996e-01 -2.933629999999999849e-01
2.805320000000000036e-01 1.287919999999999898e-01 8.309860000000000024e-01
-4.574619999999999798e-01 -6.378300000000000636e-02 -4.510419999999999985e-01
-2.117330000000000045e-01 -1.072649999999999992e-01 -6.667370000000000241e-01
2.333510000000000029e-01 1.789299999999999918e-02 9.373340000000000005e-01
4.123519999999999963e-01 -1.298279999999999990e-01 -6.043260000000000298e-01
-2.008030000000000093e-01 1.673139999999999905e-01 1.786989999999999967e-01
-4.293660000000000254e-01 6.772899999999999754e-02 7.060920000000000529e-01
-3.460039999999999782e-01 -1.532540000000000013e-01 5.720699999999999674e-01
-1.354269999999999918e-01 1.471619999999999873e-01 -8.058189999999999520e-01
1.394189999999999874e-01 8.178799999999999959e-02 -9.553559999999999830e-01
1.703210000000000002e-01 -1.225350000000000050e-01 -2.826629999999999976e-01
-7.865500000000000269e-02 6.282500000000000584e-02 9.767029999999999879e-01
-3.300649999999999973e-01 -1.524099999999999899e-01 3.624290000000000012e-01
-2.210290000000000032e-01 1.771100000000000105e-02 -4.534179999999999877e-01
-1.052789999999999976e-01 -1.472269999999999968e-01 -8.844020000000000215e-01
-4.776389999999999803e-01 -3.325299999999999784e-02 -5.177629999999999733e-01
-7.479999999999999670e-04 7.597800000000000387e-02 2.688389999999999946e-01
4.698330000000000006e-01 -1.492899999999999956e-02 -4.432599999999999874e-01
5.740499999999999770e-02 -1.874699999999999978e-02 -7.293789999999999996e-01
3.805919999999999859e-01 2.519599999999999965e-02 -1.823700000000000043e-01
4.002809999999999979e-01 -6.074500000000000038e-02 -7.716730000000000533e-01
1.641279999999999961e-01 7.871300000000000519e-02 -9.462049999999999628e-01
-2.874990000000000046e-01 -1.313950000000000118e-01 -4.671520000000000117e-01
9.269600000000000062e-02 8.379599999999999549e-02 9.648780000000000134e-01
2.064280000000000004e-01 6.299899999999999944e-02 -4.023360000000000269e-01
-3.033540000000000125e-01 1.430869999999999920e-01 -4.202069999999999972e-01
-1.046819999999999973e-01 1.449139999999999873e-01 8.939700000000000424e-01
3.412600000000000078e-01 -1.468980000000000008e-01 -3.405549999999999966e-01
-1.624210000000000098e-01 9.914900000000000102e-02 3.124350000000000183e-01
3.958599999999999897e-01 1.401149999999999896e-01 6.234509999999999774e-01
4.534929999999999795e-01 1.247000000000000018e-02 -6.815670000000000339e-01
-2.768829999999999902e-01 -1.200279999999999958e-01 -5.502110000000000056e-01
-2.834059999999999913e-01 -1.535739999999999883e-01 -7.159020000000000383e-01
1.720649999999999957e-01 1.080829999999999985e-01 -7.088510000000000089e-01
-3.892840000000000189e-01 5.703899999999999942e-02 -7.879040000000000488e-01
-1.620920000000000138e-01 -9.418600000000000583e-02 9.362869999999999804e-01
2.661299999999999777e-01 1.197130000000000000e-01 5.959590000000000165e-01
2.518239999999999923e-01 1.007500000000000062e-01 -4.691480000000000095e-01
-2.234460000000000057e-01 1.593729999999999869e-01 -1.786129999999999940e-01
3.310029999999999917e-01 -5.147000000000000186e-02 -2.749899999999999914e-02
-2.441049999999999887e-01 -9.244399999999999840e-02 -5.801549999999999763e-01
-3.649259999999999726e-01 -8.956000000000000072e-02 -2.245999999999999941e-01
3.441549999999999887e-01 -1.049559999999999937e-01 2.083139999999999992e-01
-1.760309999999999930e-01 -1.693199999999999913e-02 -9.610309999999999686e-01
2.664449999999999874e-01 -1.477630000000000055e-01 -1.878610000000000002e-01
-2.743659999999999988e-01 1.061509999999999954e-01 8.664739999999999664e-01
3.607020000000000226e-01 1.196399999999999963e-01 2.805119999999999836e-01
-3.783899999999999764e-02 -1.449969999999999870e-01 9.052270000000000039e-01
3.641389999999999905e-01 -1.455230000000000135e-01 6.583539999999999948e-01
-2.745509999999999895e-01 1.222369999999999984e-01 4.697390000000000176e-01
-2.821960000000000024e-01 -5.809899999999999787e-02 8.944180000000000463e-01
3.655360000000000276e-01 1.514429999999999943e-01 4.583349999999999924e-01
4.585770000000000124e-01 -9.160100000000000187e-02 -5.358559999999999990e-01
-2.790059999999999762e-01 -1.038800000000000001e-01 8.653650000000000508e-01
-1.774999999999999842e-02 -1.510740000000000138e-01 8.820059999999999567e-01
2.489699999999999899e-02 1.320890000000000120e-01 9.273419999999999996e-01
3.524340000000000250e-01 -6.479600000000000637e-02 -1.420750000000000068e-01
-3.359090000000000131e-01 -1.514439999999999953e-01 4.230249999999999844e-01
1.230060000000000042e-01 -7.074600000000000333e-02 3.053750000000000075e-01
-1.037399999999999954e-02 -1.214480000000000004e-01 -7.889540000000000441e-01
3.234279999999999933e-01 -1.461449999999999971e-01 -4.936719999999999997e-01
-3.052099999999999813e-01 1.385389999999999955e-01 -4.930749999999999855e-01
2.341390000000000138e-01 6.303599999999999481e-02 5.459239999999999648e-01
4.707709999999999950e-01 4.345199999999999757e-02 6.025599999999999845e-01
3.865199999999999747e-01 7.271500000000000186e-02 7.786300000000000443e-01
2.732930000000000081e-01 1.356070000000000053e-01 -4.053880000000000261e-01
2.483569999999999944e-01 -1.477330000000000032e-01 6.830400000000000360e-02
4.479230000000000156e-01 -2.707700000000000037e-02 -3.649939999999999851e-01
2.856110000000000038e-01 1.091150000000000037e-01 -8.545040000000000413e-01
-5.192999999999999700e-02 8.502400000000000235e-02 -2.672769999999999868e-01
-3.143969999999999820e-01 1.544149999999999967e-01 6.828220000000000400e-01
2.699550000000000005e-01 -1.138679999999999970e-01 4.813250000000000028e-01
4.371200000000000085e-02 -2.043270000000000086e-01 2.487500000000000128e-02
-2.269349999999999978e-01 -5.151399999999999729e-02 -4.648530000000000162e-01
-3.559680000000000066e-01 -1.144669999999999993e-01 -2.576030000000000264e-01
4.608039999999999914e-01 -3.071000000000000119e-02 6.537600000000000078e-01
-3.280460000000000043e-01 -1.195930000000000049e-01 -2.056089999999999862e-01
3.016559999999999797e-01 -9.784700000000000342e-02 4.860799999999999843e-02
-8.280300000000000160e-02 -6.631599999999999995e-02 9.754270000000000440e-01
8.420500000000000207e-02 -1.164860000000000062e-01 -2.491939999999999988e-01
2.090900000000000050e-02 -5.641100000000000281e-02 7.424659999999999593e-01
-4.469069999999999987e-01 8.576599999999999502e-02 -6.380299999999999860e-01
-2.881139999999999812e-01 -1.291130000000000055e-01 -5.424750000000000405e-01
2.578849999999999754e-01 1.220360000000000056e-01 3.864259999999999917e-01
-3.856919999999999793e-01 7.964499999999999358e-02 -2.586399999999999810e-01
-3.823210000000000219e-01 1.094419999999999976e-01 3.065320000000000267e-01
-3.071889999999999898e-01 -9.213000000000000356e-02 -5.374600000000000211e-02
-1.763450000000000017e-01 1.447819999999999940e-01 -7.693670000000000231e-01
1.379740000000000133e-01 -1.179960000000000037e-01 -7.479829999999999535e-01
-2.699619999999999798e-01 1.113429999999999975e-01 -5.281620000000000203e-01
-5.748899999999999844e-02 1.959049999999999958e-01 8.931899999999999562e-02
3.891100000000000114e-02 1.175969999999999932e-01 -2.431429999999999980e-01
2.402370000000000061e-01 -8.901900000000000091e-02 5.856879999999999864e-01
3.484780000000000100e-01 -7.380499999999999561e-02 8.273859999999999548e-01
-2.027329999999999965e-01 -1.281990000000000074e-01 7.153399999999999759e-01
-2.579870000000000219e-01 1.491449999999999998e-01 1.398880000000000123e-01
4.783459999999999934e-01 -3.074999999999999956e-02 5.117749999999999799e-01
-4.541049999999999809e-01 -5.299700000000000244e-02 -6.571270000000000167e-01
-2.574020000000000197e-01 1.344779999999999864e-01 3.784310000000000174e-01
-2.035700000000000010e-01 1.550769999999999926e-01 8.066200000000000037e-01
3.765709999999999891e-01 1.342859999999999887e-01 6.906139999999999501e-01
-2.277669999999999972e-01 -1.533450000000000091e-01 7.969580000000000553e-01
1.940520000000000023e-01 -1.474310000000000065e-01 7.717399999999999816e-01
4.267699999999999827e-01 -6.797799999999999676e-02 -7.117179999999999618e-01
4.245199999999999668e-02 6.416399999999999881e-02 9.806049999999999489e-01
4.406579999999999941e-01 -9.759400000000000019e-02 -6.280219999999999692e-01
4.676879999999999926e-01 1.845199999999999965e-02 -4.417789999999999773e-01
-3.973140000000000005e-01 -7.953300000000000647e-02 -7.532330000000000414e-01
-2.618329999999999824e-01 1.415150000000000019e-01 -1.160609999999999975e-01
-2.221140000000000059e-01 -2.877199999999999896e-02 5.626670000000000282e-01
2.201699999999999838e-02 -1.453500000000000070e-01 8.257970000000000033e-01
-1.782710000000000128e-01 -7.145000000000000309e-03 -6.454189999999999650e-01
2.629630000000000023e-01 1.285600000000000076e-01 6.307819999999999538e-01
1.973580000000000056e-01 -1.677659999999999985e-01 -1.082739999999999952e-01
5.763399999999999773e-02 1.102400000000000047e-01 -2.548199999999999910e-01
-2.872480000000000033e-01 -8.257399999999999463e-02 -8.734610000000000429e-01
3.907919999999999727e-01 -1.142449999999999993e-01 -3.219580000000000219e-01
2.793149999999999800e-01 -1.560890000000000055e-01 3.043379999999999974e-01
4.320669999999999789e-01 1.235570000000000002e-01 5.345889999999999809e-01
6.753399999999999681e-02 1.427110000000000045e-01 -9.093890000000000029e-01
4.022999999999999667e-03 -8.622499999999999609e-02 2.634000000000000230e-01
1.962609999999999910e-01 1.285439999999999916e-01 -8.850500000000000034e-01
-2.263139999999999874e-01 -3.744399999999999812e-02 5.421759999999999913e-01
3.304039999999999755e-01 -1.272179999999999978e-01 7.804450000000000554e-01
1.844959999999999933e-01 1.461989999999999956e-01 8.584979999999999833e-01
-4.272999999999999715e-02 7.668200000000000016e-02 2.713969999999999994e-01
3.126650000000000262e-01 -1.507769999999999944e-01 -3.626130000000000186e-01
-1.498190000000000077e-01 1.283410000000000106e-01 2.694770000000000221e-01
-3.367499999999999938e-01 1.240430000000000005e-01 2.419659999999999866e-01
-1.280509999999999982e-01 -1.890940000000000121e-01 -1.050630000000000036e-01
2.301690000000000125e-01 -6.426800000000000568e-02 -4.509420000000000095e-01
-2.315230000000000066e-01 6.524000000000000632e-02 -5.672220000000000040e-01
2.039890000000000037e-01 -3.619999999999999954e-03 4.180340000000000167e-01
-4.348859999999999948e-01 -6.703000000000000624e-02 -3.679569999999999785e-01
-4.631580000000000141e-01 -4.361500000000000099e-02 -4.452269999999999839e-01
1.603400000000000103e-01 1.518789999999999862e-01 -2.348739999999999994e-01
-2.316000000000000003e-01 -1.558219999999999883e-01 9.080299999999999483e-02
2.189530000000000087e-01 1.526679999999999982e-01 -8.075590000000000268e-01
-1.229549999999999949e-01 1.191399999999999959e-01 -9.277220000000000466e-01
-3.582580000000000209e-01 -1.500319999999999987e-01 -4.834459999999999869e-01
-4.276699999999999946e-01 7.020099999999999951e-02 7.067600000000000549e-01
2.539629999999999943e-01 1.428339999999999888e-01 3.290150000000000019e-01
-2.641589999999999772e-01 1.251309999999999922e-01 6.184330000000000105e-01
3.760499999999999954e-01 -1.118190000000000017e-01 2.989220000000000210e-01
2.215509999999999979e-01 1.178860000000000047e-01 6.751270000000000326e-01
-2.873899999999999788e-01 -1.500789999999999902e-01 -2.240439999999999932e-01
-4.394669999999999965e-01 7.622900000000000509e-02 6.643310000000000048e-01
4.335510000000000197e-01 -1.182460000000000039e-01 -4.948060000000000236e-01
-2.714739999999999931e-01 -1.447990000000000110e-01 6.699129999999999807e-01
-1.483720000000000039e-01 5.222099999999999659e-02 -3.310569999999999902e-01
3.706299999999999872e-02 -1.451810000000000045e-01 9.069190000000000307e-01
1.280080000000000107e-01 -1.024479999999999974e-01 7.351140000000000452e-01
9.456399999999999528e-02 -1.396930000000000116e-01 -7.966590000000000060e-01
3.668939999999999979e-01 -5.977899999999999880e-02 8.151110000000000300e-01
1.739910000000000068e-01 1.410230000000000095e-01 -7.611940000000000373e-01
-3.625769999999999826e-01 -9.131400000000000627e-02 2.200479999999999936e-01
3.989179999999999948e-01 2.062299999999999897e-02 2.329569999999999974e-01
2.811109999999999998e-01 -6.683999999999999837e-03 9.068929999999999492e-01
-3.609539999999999971e-01 1.261780000000000124e-01 -7.445129999999999804e-01
-1.934869999999999923e-01 2.881200000000000080e-02 6.305260000000000309e-01
1.631110000000000060e-01 -1.782299999999999857e-02 -3.574919999999999765e-01
2.389860000000000040e-01 1.553090000000000026e-01 7.760899999999999466e-01
-3.972970000000000113e-01 -8.934300000000000574e-02 2.921019999999999728e-01
-2.006429999999999880e-01 -3.478400000000000242e-02 3.989389999999999881e-01
3.679839999999999778e-01 7.835000000000000298e-02 -7.962850000000000206e-01
3.508850000000000025e-01 -1.037199999999999928e-02 -8.499919999999999698e-01
-3.214069999999999983e-01 -1.451299999999999986e-02 -8.741250000000000409e-01
-4.715699999999999892e-01 3.244600000000000262e-02 -6.108569999999999833e-01
4.597600000000000020e-01 2.179999999999999993e-02 6.652850000000000152e-01
4.106949999999999767e-01 1.301940000000000042e-01 -4.960749999999999882e-01
1.951499999999999901e-01 3.105199999999999974e-02 3.899389999999999801e-01
1.374960000000000071e-01 -1.856899999999999940e-01 1.219559999999999950e-01
3.461870000000000225e-01 -1.141339999999999993e-01 -2.304670000000000052e-01
2.426679999999999948e-01 1.314009999999999900e-01 -8.556369999999999809e-01
-3.033750000000000058e-01 1.675400000000000153e-02 8.876929999999999543e-01
-1.628259999999999985e-01 7.023999999999999862e-03 -3.560180000000000011e-01
2.072130000000000083e-01 1.664170000000000094e-01 9.291999999999999912e-03
3.590309999999999890e-01 1.512259999999999993e-01 -5.821709999999999940e-01
2.686720000000000219e-01 1.194530000000000036e-01 -4.605670000000000042e-01
-1.154749999999999943e-01 5.808999999999999928e-03 -9.843420000000000503e-01
-1.289299999999999995e-02 -2.072589999999999988e-01 -3.161000000000000181e-03
1.661699999999999983e-02 -6.054199999999999859e-02 9.876679999999999904e-01
1.996479999999999921e-01 -7.497399999999999898e-02 -6.513999999999999790e-01
-2.373649999999999927e-01 7.623000000000000609e-02 -5.708119999999999861e-01
2.839829999999999854e-01 -1.320900000000000130e-01 4.503659999999999886e-01
1.272000000000000075e-01 1.237039999999999945e-01 -2.619319999999999982e-01
2.551300000000000234e-01 1.480819999999999914e-01 7.158520000000000438e-01
-3.140330000000000066e-01 1.470140000000000058e-01 2.840400000000000147e-01
-8.515699999999999659e-02 -1.496730000000000005e-01 -8.786169999999999813e-01
1.821639999999999926e-01 1.261849999999999916e-01 8.975459999999999550e-01
4.055380000000000096e-01 -6.030300000000000243e-02 2.741230000000000055e-01
3.979619999999999824e-01 1.423260000000000081e-01 5.984049999999999647e-01
-2.337819999999999898e-01 9.652800000000000269e-02 -6.160689999999999777e-01
-1.410019999999999885e-01 7.728000000000000147e-02 7.115059999999999718e-01
-3.573810000000000042e-01 -3.373500000000000110e-02 1.213319999999999954e-01
1.227479999999999960e-01 2.120899999999999869e-02 6.998299999999999521e-01
2.176389999999999991e-01 2.095500000000000140e-02 9.433289999999999731e-01
-5.435999999999999860e-03 2.067060000000000008e-01 1.096399999999999979e-02
4.787049999999999916e-01 1.480799999999999998e-02 4.873999999999999999e-01
2.303070000000000117e-01 5.000099999999999684e-02 -5.063180000000000458e-01
-3.372310000000000030e-01 -1.520610000000000017e-01 6.640409999999999924e-01
3.187050000000000161e-01 8.452800000000000591e-02 -7.586800000000000488e-02
3.865199999999999747e-01 -1.134060000000000068e-01 3.319469999999999921e-01
4.235389999999999988e-01 1.430000000000000064e-03 7.580289999999999528e-01
1.174000000000000044e-02 -6.783200000000000340e-02 -9.816359999999999530e-01
1.927999999999999992e-01 -1.521409999999999985e-01 7.955560000000000409e-01
-3.124680000000000235e-01 1.468559999999999865e-01 2.713030000000000164e-01
2.567920000000000202e-01 2.980000000000000010e-02 -9.212700000000000333e-01
2.981099999999999861e-01 -2.794699999999999962e-02 -8.899329999999999741e-01
2.627229999999999843e-01 -1.071580000000000032e-01 4.847480000000000122e-01
2.987000000000000072e-02 -1.012750000000000039e-01 9.629170000000000229e-01
2.302829999999999877e-01 -1.560130000000000128e-01 -7.597600000000000187e-02
4.551000000000000184e-02 1.493819999999999870e-01 8.873240000000000016e-01
2.123400000000000010e-01 5.790499999999999814e-02 6.084119999999999528e-01
2.618889999999999829e-01 -1.323759999999999937e-01 -1.245199999999999953e-02
-4.152699999999999725e-01 -1.249199999999999963e-02 -7.656560000000000032e-01
-5.538900000000000073e-02 -7.332099999999999729e-02 7.460040000000000004e-01
-2.959849999999999981e-01 -1.140769999999999978e-01 -1.041440000000000005e-01
-4.507419999999999760e-01 6.063000000000000334e-02 -6.692200000000000371e-01
3.272419999999999773e-01 1.479620000000000102e-01 4.296150000000000246e-01
-2.826210000000000111e-01 1.540920000000000067e-01 2.785159999999999858e-01
-3.088330000000000242e-01 9.195799999999999808e-02 6.879699999999999704e-02
-4.210769999999999791e-01 1.169520000000000004e-01 6.230729999999999880e-01
-3.866950000000000109e-01 9.075199999999999934e-02 7.569620000000000237e-01
-4.721589999999999954e-01 -1.590300000000000047e-02 4.569799999999999973e-01
-2.820200000000000137e-02 -2.059340000000000059e-01 5.701999999999999603e-03
4.699349999999999916e-01 5.660699999999999760e-02 -5.318340000000000289e-01
-3.926569999999999783e-01 -1.063189999999999968e-01 3.041949999999999932e-01
-3.766800000000000009e-02 2.048649999999999916e-01 7.661000000000000275e-03
-1.299510000000000109e-01 -1.875599999999999837e-02 3.303980000000000250e-01
-4.111870000000000247e-01 -1.099679999999999963e-01 3.629439999999999888e-01
1.106400000000000022e-01 -5.326100000000000279e-02 7.136339999999999906e-01
4.661319999999999908e-01 5.230499999999999733e-02 6.236519999999999841e-01
3.770809999999999995e-01 -1.457420000000000104e-01 -6.398350000000000426e-01
-8.017499999999999627e-02 2.915900000000000089e-02 -9.852560000000000207e-01
-1.824860000000000093e-01 4.967099999999999987e-02 -6.533109999999999751e-01
2.330800000000000094e-01 1.501889999999999892e-01 -7.512320000000000109e-01
1.666700000000000126e-01 1.565900000000000070e-01 2.118319999999999925e-01
-4.783599999999999658e-02 -1.453210000000000057e-01 8.229790000000000161e-01
-4.114320000000000199e-01 5.371000000000000080e-02 -2.773180000000000089e-01
4.479460000000000108e-01 -2.423200000000000007e-02 -3.639399999999999857e-01
-6.309000000000000372e-03 -1.436820000000000042e-01 -8.184700000000000308e-01
1.643270000000000008e-01 -1.498379999999999990e-01 8.508229999999999960e-01
-2.455120000000000080e-01 -1.333590000000000053e-01 -8.498780000000000223e-01
-2.255919999999999870e-01 -6.198999999999999649e-03 -9.423489999999999922e-01
-2.395170000000000077e-01 1.139610000000000067e-01 -6.353459999999999663e-01
-7.494000000000000661e-02 8.216099999999999792e-02 7.462299999999999489e-01
-2.283260000000000012e-01 8.354300000000000614e-02 6.119869999999999477e-01
4.060329999999999773e-01 7.834000000000000685e-02 7.438240000000000407e-01
