-2.614960000000000062e-01 -8.993900000000000505e-02 2.881429999999999825e-01
-2.895960000000000201e-01 -2.803240000000000176e-01 2.592149999999999732e-01
-5.925810000000000244e-01 -3.602389999999999759e-01 -2.507670000000000177e-01
1.285890000000000088e-01 -4.932630000000000070e-01 -1.552890000000000104e-01
1.811949999999999950e-01 8.465749999999999664e-01 2.234009999999999885e-01
-6.353300000000000614e-02 1.053619999999999973e-01 -3.136800000000000005e-02
3.259509999999999907e-01 3.825089999999999879e-01 1.288399999999999962e-02
1.347019999999999884e-01 -5.980130000000000168e-01 -1.543970000000000065e-01
-2.207999999999999893e-03 5.163100000000000328e-02 4.269270000000000009e-01
5.951499999999999846e-02 -2.793680000000000052e-01 -1.808500000000000107e-01
-1.138199999999999976e-02 -3.550610000000000155e-01 -2.177899999999999975e-02
3.226519999999999944e-01 1.448170000000000013e-01 -1.677819999999999867e-01
4.642399999999999999e-02 -1.263150000000000106e-01 1.851470000000000060e-01
3.112449999999999939e-01 4.764729999999999799e-01 1.207740000000000063e-01
-2.637490000000000112e-01 -2.665330000000000199e-01 -2.841960000000000042e-01
-3.051630000000000176e-01 6.594700000000000562e-02 -1.907139999999999946e-01
-6.640939999999999621e-01 -5.063779999999999948e-01 -3.759270000000000111e-01
-1.936099999999999974e-02 1.848029999999999951e-01 -1.838670000000000027e-01
-1.888499999999999901e-01 -2.562780000000000058e-01 -2.723559999999999870e-01
3.879989999999999828e-01 6.939999999999999555e-04 1.036549999999999971e-01
4.833300000000000096e-02 1.948020000000000029e-01 -2.458299999999999930e-01
-6.361400000000000388e-01 -4.538249999999999784e-01 -3.503740000000000188e-01
4.378610000000000002e-01 -3.881669999999999843e-01 -4.484659999999999758e-01
2.037180000000000102e-01 -2.043619999999999881e-01 -3.540360000000000174e-01
3.065269999999999939e-01 1.005059999999999981e-01 3.592800000000000160e-02
-6.092530000000000445e-01 -5.581679999999999975e-01 -3.550760000000000027e-01
1.320900000000000130e-01 1.748959999999999959e-01 2.711439999999999961e-01
-4.028030000000000221e-01 -3.629510000000000236e-01 -3.227090000000000236e-01
-4.685940000000000105e-01 -2.088200000000000126e-02 1.047259999999999996e-01
2.971239999999999992e-01 1.887310000000000099e-01 -7.360000000000000006e-04
-5.227070000000000327e-01 -5.367020000000000124e-01 -3.745939999999999825e-01
2.291410000000000113e-01 -1.334100000000000043e-02 1.137660000000000060e-01
1.343479999999999952e-01 -7.857200000000000295e-02 4.222920000000000007e-01
-5.350009999999999488e-01 -4.732970000000000232e-01 -3.716200000000000059e-01
2.569310000000000205e-01 9.335869999999999447e-01 1.641489999999999894e-01
-3.847349999999999937e-01 -2.681300000000000003e-02 2.330289999999999861e-01
-2.022500000000000131e-01 6.723400000000000210e-02 1.510160000000000113e-01
-2.546939999999999760e-01 -4.405439999999999912e-01 -1.386219999999999952e-01
-1.981040000000000023e-01 -2.483410000000000062e-01 3.024859999999999771e-01
-2.505850000000000022e-01 -3.991339999999999888e-01 -1.418159999999999976e-01
9.090099999999999569e-02 2.793800000000000172e-01 1.917530000000000068e-01
-4.075590000000000046e-01 -3.875129999999999963e-01 6.100200000000000067e-02
-1.794260000000000022e-01 -2.887489999999999779e-01 2.832080000000000153e-01
-2.473100000000000021e-01 2.290400000000000075e-02 -2.280750000000000000e-01
2.800670000000000104e-01 2.023760000000000003e-01 -1.398169999999999968e-01
-2.579529999999999879e-01 9.400300000000000322e-02 1.075300000000000006e-01
-4.857179999999999831e-01 -2.724989999999999912e-01 -2.771910000000000207e-01
-4.867190000000000127e-01 -2.305470000000000019e-01 1.336700000000000110e-01
1.351120000000000099e-01 2.528400000000000092e-02 2.867930000000000201e-01
1.085279999999999995e-01 7.111250000000000071e-01 2.688329999999999886e-01
-4.066589999999999927e-01 -3.627059999999999729e-01 -1.572070000000000134e-01
-4.219999999999999862e-01 -8.647900000000000031e-02 -2.014549999999999952e-01
2.675359999999999960e-01 -2.432999999999999833e-03 1.978219999999999978e-01
2.387769999999999893e-01 4.688260000000000205e-01 2.430910000000000015e-01
-9.548199999999999743e-02 -4.276519999999999766e-01 4.912899999999999906e-02
-8.004999999999999963e-03 4.939999999999999947e-02 3.997499999999999942e-01
-2.775000000000000123e-03 -7.419800000000000006e-02 2.088339999999999919e-01
-3.314150000000000151e-01 -5.354590000000000183e-01 -2.794900000000000162e-02
4.467349999999999932e-01 -3.875549999999999828e-01 -4.477130000000000276e-01
1.218769999999999992e-01 4.697999999999999919e-03 3.977879999999999749e-01
2.002390000000000003e-01 4.868520000000000070e-01 2.288350000000000106e-01
2.670420000000000016e-01 8.040500000000000425e-02 2.387160000000000115e-01
1.688379999999999881e-01 -1.394500000000000080e-02 1.549530000000000074e-01
-5.638950000000000351e-01 -3.744680000000000231e-01 -3.244299999999999962e-01
2.629099999999999770e-01 6.638990000000000169e-01 3.442209999999999992e-01
3.410590000000000011e-01 4.075969999999999871e-01 1.234539999999999943e-01
-2.571470000000000145e-01 -4.495959999999999956e-01 1.098709999999999964e-01
-3.241450000000000164e-01 -4.531270000000000020e-01 7.391200000000000547e-02
-1.629589999999999927e-01 8.873799999999999744e-02 7.127100000000000102e-02
2.656660000000000132e-01 5.628950000000000342e-01 7.184599999999999320e-02
1.604500000000000093e-01 -5.960539999999999727e-01 -1.509729999999999961e-01
3.806500000000000161e-02 -2.025480000000000058e-01 1.587780000000000025e-01
-2.907699999999999729e-01 -1.289990000000000026e-01 3.007850000000000246e-01
3.020570000000000199e-01 2.034800000000000150e-02 2.457749999999999935e-01
-6.841099999999999959e-02 -3.858090000000000130e-01 1.199090000000000017e-01
-4.289220000000000255e-01 -2.947839999999999905e-01 -3.158369999999999789e-01
1.613370000000000082e-01 4.512200000000000238e-02 -1.033720000000000055e-01
2.220610000000000084e-01 7.161269999999999580e-01 2.991719999999999935e-01
2.327790000000000137e-01 -1.284780000000000089e-01 3.291450000000000209e-01
-1.706550000000000011e-01 -4.073840000000000239e-01 1.634909999999999974e-01
1.873380000000000045e-01 -1.919980000000000020e-01 7.066100000000000159e-02
1.500269999999999937e-01 3.447709999999999941e-01 2.297669999999999990e-01
2.168910000000000005e-01 1.589700000000000002e-01 -1.425869999999999915e-01
2.860059999999999825e-01 1.261699999999999974e-02 1.705909999999999926e-01
-4.600600000000000245e-01 -2.217210000000000014e-01 1.834639999999999882e-01
-5.542199999999999904e-02 2.030119999999999980e-01 -1.558670000000000055e-01
4.231900000000000245e-02 -5.624160000000000270e-01 -1.162300000000000000e-01
2.866300000000000098e-02 -3.123040000000000260e-01 7.600400000000000211e-02
-5.594789999999999486e-01 -2.727499999999999925e-01 -2.364999999999999915e-03
-8.753600000000000270e-02 -2.717559999999999976e-01 2.202800000000000036e-01
3.311290000000000067e-01 5.370099999999999874e-01 3.418070000000000275e-01
1.233599999999999974e-01 -2.103879999999999917e-01 1.102979999999999933e-01
6.457599999999999452e-02 -2.918810000000000016e-01 9.535499999999999532e-02
-2.244099999999999914e-02 -2.292130000000000001e-01 -2.395509999999999862e-01
-3.422529999999999739e-01 -5.530469999999999553e-01 -1.390679999999999972e-01
-5.100519999999999499e-01 -2.945329999999999893e-01 -1.881349999999999967e-01
2.600359999999999894e-01 -1.228609999999999980e-01 -1.982140000000000013e-01
2.195930000000000104e-01 3.451029999999999931e-01 2.327110000000000012e-01
1.679980000000000084e-01 1.310520000000000018e-01 -2.231640000000000013e-01
2.046330000000000093e-01 -3.440849999999999742e-01 -3.939499999999999946e-02
-2.673730000000000273e-01 3.420999999999999996e-03 2.317410000000000025e-01
1.550850000000000006e-01 -3.036889999999999867e-01 4.399200000000000332e-02
-1.436959999999999904e-01 -2.749849999999999794e-01 -2.616769999999999929e-01
1.858970000000000067e-01 -2.580919999999999881e-01 3.999400000000000177e-02
9.931500000000000050e-02 -4.691089999999999982e-01 -1.579740000000000033e-01
9.306300000000000683e-02 -5.911999999999999894e-02 1.796419999999999961e-01
-9.972699999999999620e-02 -6.272099999999999898e-02 -2.099650000000000127e-01
-4.794910000000000005e-01 -2.604560000000000208e-01 1.308709999999999873e-01
2.876730000000000120e-01 8.743490000000000428e-01 9.078700000000000658e-02
-3.024600000000000066e-01 -4.905919999999999725e-01 4.189799999999999774e-02
4.162600000000000328e-02 -2.299990000000000090e-01 -2.320029999999999870e-01
-3.080890000000000017e-01 3.144000000000000267e-02 -2.194969999999999977e-01
-1.423200000000000021e-01 -2.855519999999999725e-01 2.657019999999999937e-01
-4.809959999999999791e-01 -2.839979999999999727e-01 8.147400000000000475e-02
3.023689999999999989e-01 4.462420000000000275e-01 2.171019999999999894e-01
2.618960000000000177e-01 3.716360000000000219e-01 -1.611800000000000038e-02
2.215249999999999997e-01 -2.401800000000000046e-01 -7.853200000000000458e-02
2.604779999999999873e-01 5.689499999999999558e-01 1.651950000000000085e-01
-1.165390000000000037e-01 2.399700000000000097e-02 -1.111680000000000029e-01
2.260419999999999929e-01 -1.617780000000000051e-01 4.348899999999999988e-02
-2.155469999999999886e-01 -4.499040000000000261e-01 1.126110000000000028e-01
-4.908739999999999770e-01 -2.700620000000000243e-01 8.176700000000000634e-02
3.495399999999999896e-02 -1.525990000000000124e-01 -2.733769999999999811e-01
6.445299999999999641e-02 -3.721409999999999996e-01 3.548300000000000065e-02
1.297570000000000112e-01 -4.105999999999999928e-02 -2.097279999999999978e-01
1.947530000000000094e-01 -5.840919999999999446e-01 -1.133190000000000031e-01
7.455599999999999727e-02 -3.471440000000000081e-01 5.923899999999999999e-02
1.201480000000000048e-01 -1.431719999999999937e-01 -3.047940000000000094e-01
1.300330000000000097e-01 1.264339999999999908e-01 -3.704099999999999754e-02
-5.157100000000000017e-01 -4.691609999999999947e-01 -3.370509999999999895e-01
3.738159999999999816e-01 3.170009999999999772e-01 1.919879999999999920e-01
-1.344130000000000047e-01 -4.007000000000000145e-03 -1.719539999999999957e-01
-2.959200000000000164e-01 -1.336179999999999868e-01 -2.701589999999999825e-01
-4.272380000000000067e-01 4.717299999999999965e-02 -2.681899999999999909e-02
3.481020000000000225e-01 4.226210000000000244e-01 2.328620000000000134e-01
2.523489999999999900e-01 -8.986900000000000444e-02 4.146600000000000286e-02
-2.193859999999999977e-01 -1.818319999999999936e-01 3.132789999999999742e-01
-8.249700000000000089e-02 2.230000000000000211e-03 2.198990000000000111e-01
-3.500059999999999838e-01 1.053530000000000022e-01 -1.935100000000000015e-02
1.658119999999999872e-01 1.740990000000000038e-01 -2.575020000000000087e-01
2.052400000000000058e-01 3.600929999999999964e-01 -3.853999999999999787e-03
-9.526099999999999846e-02 4.490000000000000241e-02 2.183879999999999988e-01
-1.922750000000000015e-01 -3.858969999999999900e-01 -1.558390000000000053e-01
-3.647779999999999911e-01 -4.642290000000000028e-01 -4.696299999999999780e-02
-2.614509999999999890e-01 -4.502700000000000036e-01 1.080529999999999963e-01
1.278779999999999917e-01 -2.381820000000000048e-01 9.391499999999999848e-02
-1.736659999999999870e-01 9.093299999999999994e-02 1.226600000000000051e-01
-4.710400000000000142e-01 -2.994280000000000275e-01 7.189600000000000157e-02
-1.887669999999999904e-01 -4.355829999999999980e-01 -1.031880000000000019e-01
2.231750000000000123e-01 -1.111629999999999979e-01 3.149500000000000077e-01
-2.725910000000000277e-01 1.051499999999999935e-01 -3.578699999999999937e-02
2.878640000000000088e-01 5.419570000000000221e-01 2.185650000000000093e-01
-5.215299999999999797e-02 2.429169999999999940e-01 -1.926650000000000029e-01
1.953670000000000129e-01 2.964709999999999845e-01 -2.640599999999999892e-02
-7.341599999999999515e-02 1.258699999999999923e-02 -1.262240000000000029e-01
2.237989999999999979e-01 2.337440000000000073e-01 -1.166640000000000038e-01
-4.040270000000000250e-01 7.904100000000000015e-02 1.108790000000000053e-01
-5.855320000000000524e-01 -3.547199999999999798e-01 -2.728360000000000229e-01
-4.730190000000000228e-01 -2.967449999999999810e-01 7.003600000000000103e-02
4.479899999999999854e-02 5.745700000000000113e-02 3.380179999999999851e-01
-2.200499999999999956e-01 -6.571780000000000399e-01 -1.119239999999999957e-01
-3.233139999999999903e-01 -6.645630000000000148e-01 -1.172770000000000062e-01
7.809399999999999675e-02 1.124880000000000047e-01 2.760650000000000048e-01
-5.765240000000000364e-01 -4.795630000000000170e-01 -4.082310000000000105e-01
2.624609999999999999e-01 8.697150000000000158e-01 1.123320000000000013e-01
2.886090000000000044e-01 -1.726320000000000077e-01 -3.269329999999999736e-01
-2.146240000000000092e-01 -4.844400000000000095e-02 -2.595720000000000249e-01
2.326670000000000127e-01 2.332519999999999871e-01 -1.110889999999999933e-01
-8.545800000000000618e-02 2.323900000000000132e-01 -9.860599999999999921e-02
-2.619730000000000114e-01 -1.822560000000000013e-01 3.166289999999999938e-01
2.081359999999999877e-01 -2.813820000000000210e-01 -2.501950000000000007e-01
-1.066109999999999974e-01 -3.518149999999999888e-01 2.029600000000000015e-01
1.954170000000000074e-01 7.417880000000000029e-01 2.481929999999999970e-01
7.495599999999999485e-02 -1.008010000000000017e-01 -2.644830000000000236e-01
3.845379999999999909e-01 -3.487419999999999964e-01 -5.080390000000000184e-01
3.237019999999999897e-01 1.432380000000000042e-01 6.094399999999999817e-02
-3.721510000000000096e-01 -9.388000000000000511e-02 2.522039999999999837e-01
2.490539999999999976e-01 5.872279999999999722e-01 6.149999999999999868e-04
4.469000000000000056e-02 -5.248599999999999932e-01 -1.402349999999999985e-01
-4.293669999999999987e-01 -3.257720000000000060e-01 -4.954200000000000270e-02
-2.439369999999999872e-01 -2.731970000000000232e-01 2.956779999999999964e-01
-3.356879999999999864e-01 -1.463689999999999991e-01 2.750349999999999739e-01
-1.846999999999999901e-03 1.809080000000000132e-01 1.724509999999999932e-01
1.134000000000000008e-01 3.583749999999999991e-01 8.653800000000000381e-02
-4.904649999999999843e-01 -4.169160000000000088e-01 -3.424840000000000106e-01
7.012500000000000677e-02 1.579039999999999888e-01 3.108600000000000252e-01
3.784089999999999954e-01 -2.156289999999999873e-01 -3.772599999999999842e-01
-1.143190000000000039e-01 -2.891949999999999799e-01 -2.447239999999999971e-01
-3.035510000000000153e-01 1.116189999999999960e-01 1.912099999999999911e-02
-4.405599999999999794e-02 -3.075829999999999953e-01 1.618829999999999991e-01
-2.726390000000000202e-01 4.043999999999999852e-03 -2.393849999999999867e-01
-1.855100000000000152e-02 -6.185199999999999726e-02 -2.044600000000000029e-01
-1.248999999999999893e-03 2.144069999999999865e-01 -1.037399999999999989e-01
2.680139999999999745e-01 -2.279140000000000055e-01 -1.956660000000000066e-01
2.706700000000000217e-01 5.039489999999999803e-01 -2.809999999999999998e-02
8.534100000000000019e-02 -4.291429999999999967e-01 -1.491460000000000008e-01
-1.666360000000000063e-01 1.043410000000000032e-01 1.440170000000000061e-01
2.459790000000000032e-01 1.527300000000000046e-01 -2.618960000000000177e-01
1.258599999999999997e-01 -2.667999999999999799e-03 3.984790000000000276e-01
-2.183539999999999925e-01 -5.120430000000000259e-01 3.445999999999999758e-02
2.660529999999999839e-01 8.648439999999999461e-01 9.231300000000000616e-02
-5.452200000000000102e-02 -3.846109999999999807e-01 -2.401100000000000109e-02
2.724639999999999840e-01 4.658180000000000098e-01 2.379920000000000091e-01
3.839499999999999857e-02 3.119950000000000223e-01 1.628500000000000086e-02
3.851820000000000244e-01 -3.680430000000000090e-01 -4.901630000000000154e-01
2.797049999999999814e-01 6.494339999999999558e-01 3.357280000000000264e-01
-2.286249999999999949e-01 9.171100000000000085e-02 1.160600000000000000e-02
2.947110000000000007e-01 -2.143140000000000045e-01 -2.065740000000000076e-01
4.348710000000000075e-01 -3.029959999999999876e-01 -4.923859999999999904e-01
9.802099999999999702e-02 2.857120000000000215e-01 1.951309999999999989e-01
-3.322439999999999838e-01 -5.484670000000000378e-01 -3.812399999999999817e-02
1.439900000000000034e-02 1.537560000000000038e-01 1.515999999999999986e-02
-5.542899999999999910e-02 3.632900000000000018e-02 2.199699999999999989e-01
-6.427299999999999680e-02 -1.225139999999999979e-01 2.025619999999999921e-01
2.340280000000000138e-01 -1.063230000000000008e-01 3.528850000000000042e-01
-2.136069999999999913e-01 -6.267949999999999910e-01 -8.421599999999999919e-02
2.175759999999999916e-01 -2.409270000000000023e-01 -1.719239999999999935e-01
1.436129999999999907e-01 2.036799999999999999e-01 -2.227099999999999913e-01
2.611729999999999885e-01 1.068660000000000027e-01 -1.929200000000000012e-02
2.614210000000000145e-01 -1.631319999999999992e-01 -1.387879999999999947e-01
-6.640600000000000669e-02 -1.653090000000000115e-01 1.965179999999999982e-01
2.656259999999999732e-01 1.445160000000000056e-01 -2.638349999999999862e-01
-4.324999999999999852e-03 3.060439999999999827e-01 -6.270000000000000399e-03
3.889020000000000254e-01 -2.745619999999999727e-01 -3.024660000000000126e-01
4.414099999999999968e-02 -5.969189999999999774e-01 -1.278960000000000097e-01
-6.538089999999999735e-01 -5.642979999999999663e-01 -3.104370000000000185e-01
-4.127129999999999965e-01 -2.842950000000000199e-01 -3.109370000000000189e-01
1.828990000000000060e-01 4.835619999999999918e-01 1.632730000000000015e-01
2.249440000000000051e-01 1.720210000000000072e-01 2.177739999999999954e-01
1.997649999999999981e-01 -1.077720000000000067e-01 3.318169999999999731e-01
7.726199999999999735e-02 -3.937100000000000322e-02 4.601529999999999787e-01
3.986900000000000166e-02 -2.550229999999999997e-01 1.256609999999999949e-01
3.732360000000000122e-01 4.882230000000000181e-01 3.277740000000000098e-01
-5.862349999999999506e-01 -3.280009999999999870e-01 -7.784299999999999553e-02
-3.847369999999999957e-01 7.571999999999999564e-02 -1.213100000000000012e-01
2.338860000000000106e-01 -2.196929999999999994e-01 -1.590519999999999989e-01
3.670700000000000074e-01 -3.654359999999999831e-01 -4.881289999999999796e-01
-2.109499999999999917e-02 -1.711999999999999980e-03 4.398230000000000195e-01
3.145450000000000190e-01 1.654220000000000135e-01 -1.669350000000000001e-01
-3.437140000000000195e-01 -5.907940000000000413e-01 -1.530080000000000051e-01
-3.052150000000000141e-01 -1.668340000000000101e-01 -2.783880000000000243e-01
-7.384100000000000386e-02 1.172880000000000034e-01 1.474999999999999966e-03
1.871799999999999853e-02 2.849940000000000251e-01 -7.992399999999999505e-02
4.269370000000000109e-01 -3.680820000000000203e-01 -4.844399999999999817e-01
2.310750000000000026e-01 2.143450000000000077e-01 -1.597389999999999921e-01
2.192419999999999924e-01 2.407899999999999971e-02 1.414569999999999994e-01
-4.980319999999999747e-01 -2.339829999999999965e-01 -1.757039999999999991e-01
-3.710490000000000177e-01 -3.865589999999999860e-01 1.337929999999999953e-01
5.055730000000000501e-01 -3.608359999999999901e-01 -4.477410000000000001e-01
1.237580000000000069e-01 -1.022389999999999965e-01 1.560890000000000055e-01
-1.247530000000000028e-01 -3.495759999999999978e-01 -1.810390000000000055e-01
9.306399999999999395e-02 1.818410000000000026e-01 2.038210000000000022e-01
1.525420000000000109e-01 1.605100000000000138e-01 -2.735540000000000194e-01
-7.034400000000000375e-02 -3.619399999999999840e-01 -1.138819999999999971e-01
1.323239999999999972e-01 7.158100000000000573e-02 2.579899999999999971e-01
1.832560000000000022e-01 -2.505999999999999981e-03 3.552400000000000002e-01
-2.408949999999999980e-01 4.454600000000000226e-02 1.950669999999999904e-01
-2.926179999999999892e-01 -4.933469999999999800e-01 -1.418470000000000009e-01
1.572969999999999924e-01 -1.248699999999999984e-02 1.605830000000000035e-01
3.235069999999999890e-01 1.453359999999999930e-01 6.006199999999999734e-02
2.095990000000000075e-01 4.210340000000000193e-01 3.656800000000000328e-02
-4.049139999999999961e-01 -2.184270000000000100e-01 -2.767930000000000113e-01
-2.460999999999999993e-02 -3.654560000000000031e-01 -4.086000000000000222e-03
-3.956459999999999977e-01 7.965200000000000058e-02 -4.153899999999999954e-02
-7.267300000000000149e-02 -3.910330000000000195e-01 1.175149999999999945e-01
-3.453200000000000158e-01 -5.962039999999999562e-01 -1.531780000000000086e-01
3.824319999999999942e-01 3.376250000000000084e-01 2.207000000000000073e-01
-4.472679999999999989e-01 1.727300000000000016e-02 -1.298799999999999955e-02
-4.265000000000000041e-02 -9.522200000000000109e-02 -2.216720000000000079e-01
2.593449999999999922e-01 2.937850000000000183e-01 -4.283599999999999908e-02
-1.204670000000000046e-01 9.543799999999999506e-02 1.209000000000000005e-02
-3.420500000000000207e-01 -6.400150000000000006e-01 -1.519119999999999915e-01
-3.348650000000000237e-01 -3.560320000000000151e-01 -2.789710000000000245e-01
2.596720000000000139e-01 1.113180000000000003e-01 -1.799299999999999858e-02
3.375609999999999999e-01 3.517330000000000179e-01 1.046099999999999981e-02
1.259309999999999874e-01 3.176939999999999764e-01 1.690900000000000042e-02
2.055329999999999935e-01 1.784999999999999920e-01 -1.948799999999999838e-02
1.375230000000000063e-01 4.109550000000000147e-01 1.804159999999999930e-01
2.250949999999999895e-01 4.847499999999999726e-02 2.911880000000000024e-01
-2.238870000000000027e-01 7.631400000000000683e-02 1.376739999999999908e-01
2.421659999999999924e-01 1.255840000000000012e-01 -2.788579999999999948e-01
-5.235260000000000469e-01 -4.671390000000000264e-01 -2.469210000000000016e-01
3.235489999999999755e-01 4.730730000000000213e-01 1.648300000000000112e-02
1.684219999999999884e-01 1.131069999999999992e-01 -4.325199999999999878e-02
-4.025250000000000217e-01 4.031699999999999867e-02 1.982049999999999923e-01
2.758050000000000224e-01 5.816449999999999676e-01 2.490890000000000049e-01
7.682899999999999452e-02 1.795750000000000124e-01 -1.506720000000000004e-01
-1.939710000000000045e-01 -3.003629999999999911e-01 -2.430229999999999890e-01
6.300500000000000544e-02 -1.726550000000000029e-01 -2.907319999999999904e-01
-1.133669999999999956e-01 -4.353569999999999940e-01 7.174099999999999921e-02
-1.526210000000000067e-01 -2.536260000000000181e-01 -2.733709999999999751e-01
7.231500000000000428e-02 1.271009999999999918e-01 1.890699999999999881e-01
3.434889999999999888e-01 -3.282459999999999822e-01 -4.323600000000000221e-01
-1.824030000000000096e-01 -5.661000000000000233e-03 2.087839999999999974e-01
4.961900000000000338e-02 -5.692040000000000433e-01 -1.592500000000000027e-01
-9.663700000000000068e-02 -9.189799999999999358e-02 2.073329999999999895e-01
-2.565479999999999983e-01 9.553100000000000480e-02 -8.049000000000000599e-02
2.471180000000000043e-01 1.949790000000000134e-01 1.931430000000000091e-01
1.903440000000000132e-01 3.041679999999999939e-01 -2.179199999999999887e-02
-2.638159999999999950e-01 3.913999999999999944e-03 -2.399110000000000131e-01
-4.097600000000000131e-01 -1.274919999999999942e-01 2.373119999999999952e-01
-2.507820000000000049e-01 -2.192989999999999939e-01 -2.890610000000000124e-01
2.851460000000000106e-01 1.593599999999999878e-02 -3.286100000000000132e-02
2.302420000000000022e-01 4.891399999999999915e-02 1.748899999999999899e-01
1.188919999999999977e-01 -9.637700000000000433e-02 3.897129999999999761e-01
4.182870000000000199e-01 -3.799390000000000267e-01 -4.661509999999999820e-01
-3.818579999999999752e-01 -1.728609999999999869e-01 -2.631629999999999803e-01
2.989299999999999735e-01 8.732299999999999784e-02 1.201900000000000017e-02
2.831629999999999980e-01 2.002150000000000041e-01 -1.414940000000000087e-01
-2.203769999999999896e-01 -5.354170000000000318e-01 -9.605700000000000349e-02
2.062229999999999897e-01 6.312799999999999523e-01 1.548339999999999994e-01
2.375579999999999914e-01 6.114600000000000035e-01 1.109959999999999974e-01
1.201559999999999989e-01 2.479560000000000097e-01 -1.482070000000000054e-01
-4.882050000000000001e-01 -8.551899999999999780e-02 -1.314249999999999863e-01
1.271170000000000078e-01 7.481860000000000177e-01 2.387090000000000045e-01
2.109789999999999999e-01 7.945560000000000400e-01 3.369710000000000205e-01
2.039930000000000077e-01 2.074940000000000118e-01 -5.209899999999999948e-02
2.808789999999999898e-01 8.935980000000000034e-01 1.565670000000000117e-01
-3.587739999999999818e-01 -5.078799999999999981e-01 -6.379200000000000148e-02
1.766439999999999955e-01 -4.774070000000000258e-01 -8.540999999999999981e-02
5.509800000000000114e-02 1.423659999999999926e-01 3.264759999999999884e-01
1.793909999999999949e-01 1.378700000000000064e-02 -1.187819999999999987e-01
1.067000000000000032e-01 7.324410000000000087e-01 2.605089999999999906e-01
1.546589999999999909e-01 2.143499999999999919e-02 -1.282590000000000119e-01
-2.122799999999999965e-01 -5.031529999999999614e-01 4.269499999999999684e-02
-4.390330000000000066e-01 -3.919909999999999783e-01 -3.260259999999999825e-01
9.209000000000000172e-03 1.772239999999999926e-01 -1.884609999999999896e-01
3.213230000000000253e-01 4.599170000000000202e-01 3.277000000000000052e-02
-4.162500000000000228e-02 1.567379999999999884e-01 5.852000000000000257e-02
-4.315089999999999759e-01 -1.633390000000000120e-01 2.224639999999999951e-01
-1.132500000000000000e-02 -6.792600000000000027e-02 2.111369999999999914e-01
1.951180000000000136e-01 -4.803500000000000131e-02 3.710600000000000009e-01
2.784670000000000201e-01 -2.236559999999999937e-01 -1.993810000000000027e-01
2.468220000000000136e-01 8.640200000000000102e-01 1.063000000000000056e-01
-3.340509999999999868e-01 -1.283100000000000039e-02 -2.267079999999999929e-01
3.677099999999999813e-02 -2.457820000000000005e-01 -2.187919999999999865e-01
1.136490000000000000e-01 8.114369999999999639e-01 2.960450000000000026e-01
-6.443839999999999568e-01 -5.697680000000000522e-01 -3.079959999999999920e-01
-4.702640000000000153e-01 -1.840739999999999876e-01 1.757249999999999923e-01
-5.374860000000000193e-01 -3.544089999999999741e-01 -3.301660000000000150e-01
-9.101399999999999768e-02 3.027440000000000131e-01 -6.796299999999999564e-02
3.290950000000000264e-01 1.586180000000000090e-01 9.912899999999999490e-02
1.231700000000000017e-01 6.619319999999999649e-01 2.641689999999999872e-01
1.610580000000000067e-01 -6.050799999999999512e-01 -1.358570000000000055e-01
1.463280000000000136e-01 3.693799999999999861e-02 -1.176019999999999982e-01
-4.308009999999999895e-01 4.698900000000000299e-02 1.794000000000000108e-02
-1.414719999999999867e-01 -2.397370000000000057e-01 2.716620000000000146e-01
5.824900000000000216e-02 -9.885599999999999943e-02 -2.585790000000000033e-01
3.284949999999999815e-01 -2.656310000000000060e-01 -2.581890000000000018e-01
2.623599999999999821e-01 2.534689999999999999e-01 -4.737000000000000238e-02
3.258799999999999891e-02 2.367100000000000037e-01 -1.909349999999999936e-01
-8.260999999999999246e-03 2.482389999999999874e-01 -3.474399999999999711e-02
1.540660000000000085e-01 8.785900000000000654e-02 3.159730000000000039e-01
-3.628870000000000151e-01 -3.805560000000000054e-01 -2.648869999999999836e-01
2.339700000000000113e-01 -2.063580000000000136e-01 -8.759500000000000619e-02
-2.784400000000000208e-01 3.452199999999999713e-02 2.150330000000000019e-01
3.614029999999999743e-01 -1.070979999999999988e-01 2.341519999999999990e-01
3.882909999999999973e-01 -2.562840000000000118e-01 -2.975180000000000047e-01
2.758229999999999849e-01 -1.573319999999999996e-01 -1.713020000000000098e-01
-3.207389999999999963e-01 -6.484919999999999574e-01 -1.466079999999999883e-01
1.976320000000000021e-01 6.243199999999999861e-01 9.884600000000000330e-02
3.555159999999999987e-01 -2.550209999999999977e-01 -4.219899999999999762e-01
-1.775430000000000064e-01 6.056000000000000272e-02 -8.324600000000000055e-02
-3.390940000000000065e-01 3.561299999999999882e-02 2.212490000000000012e-01
1.756999999999999951e-01 4.584449999999999914e-01 1.717140000000000055e-01
-1.388469999999999982e-01 2.352019999999999944e-01 -1.226980000000000015e-01
2.129959999999999909e-01 -8.389599999999999835e-02 3.676920000000000188e-01
-3.581039999999999779e-01 -4.779100000000000015e-01 -7.721600000000000685e-02
-9.876600000000000656e-02 -5.400499999999999745e-02 2.122850000000000015e-01
2.347480000000000122e-01 4.223520000000000052e-01 2.129999999999999949e-02
-6.288299999999999446e-02 -1.875239999999999962e-01 -2.590589999999999837e-01
2.262740000000000029e-01 9.168269999999999476e-01 2.329489999999999894e-01
-1.559329999999999883e-01 -3.825720000000000232e-01 -1.478500000000000092e-01
-8.128499999999999615e-02 1.803000000000000089e-02 2.206670000000000020e-01
-3.566230000000000233e-01 -5.469370000000000065e-01 -7.719299999999999773e-02
1.377249999999999863e-01 -8.993600000000000205e-02 -2.597670000000000257e-01
-5.035669999999999868e-01 -1.005989999999999940e-01 9.456900000000000028e-02
4.567930000000000046e-01 -2.966759999999999953e-01 -3.762090000000000156e-01
-3.329590000000000050e-01 1.094139999999999974e-01 -1.236699999999999952e-02
8.307399999999999507e-02 -5.821799999999999892e-02 4.582860000000000267e-01
-2.176659999999999984e-01 8.240400000000000502e-02 9.309599999999999820e-02
-2.404229999999999978e-01 8.415499999999999370e-02 1.269730000000000025e-01
-4.810360000000000191e-01 -2.594520000000000159e-01 1.283390000000000086e-01
-3.719919999999999893e-01 -1.723010000000000097e-01 2.492510000000000003e-01
-1.805680000000000063e-01 -3.082260000000000000e-01 -2.372769999999999879e-01
-2.193410000000000082e-01 -4.001089999999999924e-01 1.701560000000000017e-01
-5.218469999999999498e-01 -3.104020000000000112e-01 -3.145209999999999950e-01
-4.950419999999999821e-01 -2.815369999999999817e-01 -2.902819999999999845e-01
-3.906140000000000168e-01 -3.257579999999999920e-01 1.840670000000000084e-01
1.547040000000000082e-01 -3.014999999999999885e-03 -1.533029999999999948e-01
-8.396000000000000685e-03 8.905799999999999828e-02 2.079900000000000082e-01
-8.611499999999999710e-02 -1.671989999999999865e-01 2.096480000000000010e-01
-3.906149999999999900e-01 -3.798590000000000022e-01 -3.036659999999999915e-01
1.527920000000000111e-01 -4.748729999999999896e-01 -1.332139999999999991e-01
1.664219999999999866e-01 -1.561170000000000058e-01 -3.176019999999999954e-01
-9.573999999999999178e-03 9.353100000000000303e-02 2.072700000000000098e-01
-4.253959999999999964e-01 5.501000000000000334e-02 1.264419999999999988e-01
6.849999999999999535e-04 4.330300000000000121e-02 3.888869999999999827e-01
2.046729999999999938e-01 -1.788500000000000090e-01 -3.385009999999999963e-01
3.778000000000000108e-03 4.397000000000000214e-02 -1.300489999999999979e-01
8.723000000000000198e-02 1.909980000000000011e-01 2.003189999999999971e-01
-1.211720000000000019e-01 -3.937999999999999660e-03 -1.583900000000000030e-01
-3.975830000000000197e-01 -2.442799999999999971e-01 2.219079999999999941e-01
1.695089999999999930e-01 -2.645060000000000189e-01 -1.372160000000000046e-01
-2.723000000000000160e-03 2.791379999999999972e-01 -1.081339999999999940e-01
3.042860000000000009e-01 2.765079999999999760e-01 2.131379999999999941e-01
-2.149179999999999979e-01 -5.074250000000000149e-01 -1.014369999999999994e-01
3.658279999999999865e-01 -3.130299999999999749e-01 -3.133779999999999899e-01
3.299369999999999803e-01 1.949609999999999954e-01 1.372569999999999901e-01
2.609219999999999873e-01 8.702330000000000343e-01 1.283219999999999916e-01
2.615990000000000260e-01 -1.193960000000000021e-01 -8.554000000000000839e-03
9.064600000000000435e-02 -9.536600000000000632e-02 4.235329999999999928e-01
-3.307700000000000085e-01 -2.939060000000000006e-01 -3.117739999999999956e-01
1.158249999999999974e-01 -1.386950000000000127e-01 1.478019999999999889e-01
-4.057939999999999880e-01 -2.944729999999999848e-01 1.967389999999999972e-01
2.223040000000000016e-01 9.404959999999999987e-01 1.509709999999999941e-01
3.180259999999999754e-01 2.268020000000000036e-01 1.837499999999999967e-01
3.176240000000000174e-01 -3.273429999999999951e-01 -3.516580000000000261e-01
1.587560000000000082e-01 7.487390000000000434e-01 3.599550000000000249e-01
-3.562679999999999736e-01 -3.635749999999999815e-01 -9.274000000000000299e-02
7.961100000000000121e-02 1.635959999999999914e-01 2.746000000000000177e-03
2.327380000000000004e-01 -2.111800000000000066e-01 -1.443190000000000028e-01
1.707190000000000096e-01 7.387650000000000050e-01 3.583410000000000206e-01
3.930999999999999599e-03 3.035100000000000020e-01 -2.145000000000000032e-02
-5.769009999999999971e-01 -2.878530000000000255e-01 -2.416609999999999869e-01
-4.250390000000000001e-01 -3.772809999999999775e-01 -1.732350000000000001e-01
2.261199999999999877e-01 -1.408750000000000002e-01 -2.973970000000000224e-01
-5.613299999999999956e-01 -2.205139999999999878e-01 -5.385100000000000303e-02
1.949450000000000072e-01 6.977259999999999573e-01 2.131909999999999916e-01
1.772499999999999909e-01 -5.249800000000000300e-02 3.075609999999999733e-01
-1.001620000000000010e-01 -4.069769999999999777e-01 1.272909999999999875e-01
-3.125129999999999852e-01 -4.903310000000000168e-01 -1.319500000000000117e-01
-1.431979999999999920e-01 -1.024960000000000038e-01 2.342779999999999863e-01
-3.439899999999999902e-02 -9.253100000000000214e-02 2.108089999999999964e-01
1.579099999999999948e-01 -2.591720000000000135e-01 -2.900300000000000100e-01
-4.936749999999999750e-01 -2.576840000000000241e-01 -2.174619999999999886e-01
2.325909999999999922e-01 1.963590000000000058e-01 2.022430000000000061e-01
-2.505870000000000042e-01 -3.841999999999999860e-01 1.796359999999999901e-01
3.702869999999999773e-01 -3.531869999999999732e-01 -3.644680000000000142e-01
5.242999999999999744e-02 1.774840000000000029e-01 3.032899999999999832e-02
2.435000000000000098e-03 1.310870000000000091e-01 -1.694599999999999926e-02
-4.172999999999999626e-03 1.011689999999999950e-01 -6.183400000000000007e-02
1.865709999999999869e-01 -1.899409999999999987e-01 7.230699999999999628e-02
2.539560000000000151e-01 5.974300000000000166e-01 1.950209999999999999e-01
2.358270000000000088e-01 1.310520000000000018e-01 2.320089999999999930e-01
6.257799999999999474e-02 3.441299999999999915e-02 3.377519999999999967e-01
-7.041699999999999349e-02 -3.660220000000000140e-01 -1.056139999999999995e-01
2.900420000000000220e-01 1.789419999999999900e-01 -1.543000000000000101e-03
-4.484659999999999758e-01 -2.502510000000000012e-01 1.870940000000000103e-01
-3.670050000000000257e-01 -3.758349999999999747e-01 -6.701200000000000212e-02
-1.403220000000000023e-01 2.342200000000000115e-01 -1.287760000000000016e-01
1.512930000000000108e-01 6.849640000000000173e-01 3.377430000000000154e-01
1.603269999999999973e-01 6.886799999999999866e-02 3.255089999999999928e-01
-3.348470000000000057e-01 -1.937770000000000048e-01 2.661689999999999889e-01
1.437070000000000014e-01 7.029509999999999925e-01 1.641420000000000101e-01
-2.025280000000000136e-01 7.396199999999999997e-02 1.264689999999999981e-01
1.175009999999999943e-01 3.715829999999999966e-01 1.929369999999999974e-01
-2.673769999999999758e-01 -6.739110000000000378e-01 -9.052399999999999336e-02
1.017699999999999994e-01 2.341799999999999993e-01 2.380699999999999830e-02
1.979289999999999938e-01 1.307869999999999866e-01 2.579210000000000114e-01
-6.310000000000000331e-02 -3.975850000000000217e-01 7.037300000000000499e-02
2.913939999999999864e-01 -1.521579999999999877e-01 -2.681020000000000070e-01
2.046479999999999966e-01 1.089450000000000002e-01 2.676490000000000258e-01
2.713110000000000244e-01 -9.015499999999999903e-02 -3.194999999999999923e-02
-1.213779999999999998e-01 -3.073170000000000068e-01 -2.318679999999999908e-01
2.532300000000000106e-01 -2.452670000000000128e-01 -3.775080000000000102e-01
1.510080000000000033e-01 -3.606940000000000146e-01 2.095100000000000087e-02
1.753720000000000001e-01 1.470940000000000025e-01 -1.982899999999999940e-02
1.349569999999999936e-01 7.980180000000000051e-01 2.586780000000000190e-01
1.135759999999999964e-01 1.692839999999999900e-01 2.890769999999999729e-01
-4.088479999999999892e-01 -3.828810000000000269e-01 8.371099999999999375e-02
-1.268519999999999925e-01 2.622950000000000004e-01 -5.714099999999999735e-02
-1.345469999999999999e-01 -4.456579999999999986e-01 -5.988000000000000267e-03
-5.087239999999999540e-01 -2.848859999999999726e-01 2.164000000000000125e-03
2.252220000000000055e-01 6.115669999999999717e-01 3.092840000000000034e-01
-3.488490000000000202e-01 -3.700039999999999996e-01 -9.432899999999999618e-02
2.978350000000000164e-01 5.487149999999999528e-01 2.978230000000000044e-01
-5.341329999999999689e-01 -3.688310000000000199e-01 -1.928010000000000002e-01
-6.254650000000000487e-01 -3.152519999999999767e-01 -1.496059999999999890e-01
8.159900000000000486e-02 1.335149999999999948e-01 2.591950000000000087e-01
2.595509999999999762e-01 6.098940000000000472e-01 4.548100000000000059e-02
-5.123330000000000384e-01 -4.468250000000000277e-01 -2.282029999999999892e-01
-3.068069999999999964e-01 -3.087499999999999967e-02 2.526320000000000232e-01
-1.927220000000000044e-01 -2.708720000000000017e-01 2.942350000000000243e-01
2.175549999999999984e-01 4.144610000000000238e-01 2.320800000000000085e-01
-4.376800000000000135e-01 -2.766000000000000056e-02 -1.328689999999999871e-01
-3.621570000000000067e-01 1.026230000000000059e-01 2.588800000000000129e-02
-6.569479999999999764e-01 -5.620749999999999913e-01 -3.516580000000000261e-01
-2.889800000000000008e-02 1.904609999999999914e-01 1.248579999999999968e-01
1.595250000000000001e-01 1.992780000000000107e-01 2.366409999999999902e-01
-4.100670000000000148e-01 7.315599999999999881e-02 1.104369999999999935e-01
1.825769999999999893e-01 -6.150219999999999576e-01 -1.089679999999999954e-01
1.972810000000000119e-01 1.072110000000000007e-01 -4.246899999999999981e-02
1.242970000000000047e-01 -3.034970000000000168e-01 6.467399999999999538e-02
1.800039999999999973e-01 -2.527170000000000250e-01 -1.532020000000000048e-01
1.720500000000000085e-01 1.372899999999999954e-01 -2.046070000000000111e-01
1.656189999999999884e-01 -4.545629999999999948e-01 -3.434299999999999853e-02
4.788800000000000001e-02 -3.568600000000000105e-01 9.258999999999999869e-03
4.564639999999999809e-01 -3.145370000000000110e-01 -3.769629999999999925e-01
-1.498579999999999912e-01 -3.748440000000000105e-01 2.074489999999999945e-01
1.641239999999999921e-01 -1.054579999999999962e-01 3.595510000000000095e-01
1.489540000000000031e-01 6.897750000000000270e-01 1.656449999999999867e-01
2.517019999999999813e-01 2.889200000000000101e-02 -6.354500000000000426e-02
-7.159500000000000586e-02 -1.906549999999999911e-01 2.019569999999999976e-01
4.242719999999999825e-01 4.368239999999999901e-01 2.804860000000000131e-01
-4.229499999999999926e-02 1.154219999999999968e-01 -2.556299999999999892e-02
-3.204069999999999974e-01 -4.351550000000000140e-01 1.008040000000000047e-01
2.791049999999999920e-01 -2.501709999999999767e-01 -2.202610000000000123e-01
-5.163729999999999709e-01 -3.794089999999999963e-01 -1.902570000000000094e-01
-1.032800000000000037e-02 1.570330000000000059e-01 3.497200000000000308e-02
-1.467799999999999938e-01 1.222700000000000002e-02 -1.605459999999999943e-01
-4.650360000000000049e-01 -5.338299999999999990e-02 -1.298650000000000082e-01
-3.800699999999999912e-02 2.158259999999999901e-01 -1.154180000000000067e-01
3.179500000000000104e-01 1.203580000000000066e-01 5.447199999999999959e-02
-2.276990000000000125e-01 -2.297540000000000138e-01 3.121309999999999918e-01
1.074650000000000050e-01 2.877839999999999843e-01 -4.681500000000000244e-02
2.079159999999999897e-01 -8.472000000000000364e-02 -2.186009999999999898e-01
6.622400000000000508e-02 2.130839999999999956e-01 -2.225010000000000043e-01
8.122899999999999565e-02 -1.965629999999999877e-01 -2.889510000000000134e-01
-3.443450000000000122e-01 -5.674740000000000339e-01 -6.035399999999999793e-02
1.850920000000000065e-01 1.572109999999999896e-01 -1.568299999999999972e-01
3.381549999999999834e-01 3.463200000000000306e-02 2.092590000000000006e-01
3.909300000000000275e-02 3.066860000000000142e-01 -4.883000000000000188e-03
-1.746379999999999877e-01 7.305499999999999494e-02 1.189400000000000006e-02
1.470800000000000059e-02 -2.447759999999999936e-01 1.370689999999999964e-01
3.254360000000000031e-01 4.422159999999999980e-01 1.731250000000000011e-01
1.991330000000000044e-01 4.719749999999999779e-01 1.087650000000000006e-01
4.575499999999999706e-02 -5.672000000000000375e-01 -8.940900000000000236e-02
-4.057239999999999736e-01 -3.366370000000000196e-01 -7.435700000000000642e-02
1.068859999999999949e-01 4.428800000000000098e-02 2.960320000000000173e-01
-6.048759999999999692e-01 -5.007800000000000029e-01 -2.637149999999999772e-01
-4.341340000000000199e-01 -9.202999999999999375e-03 1.826389999999999958e-01
1.630630000000000135e-01 3.236589999999999745e-01 1.729000000000000068e-03
3.239679999999999782e-01 1.191289999999999988e-01 6.526999999999999469e-02
2.602479999999999793e-01 -2.811730000000000063e-01 -2.506109999999999727e-01
3.236850000000000005e-01 3.830970000000000208e-01 2.298939999999999872e-01
3.451299999999999923e-01 4.918699999999999739e-01 3.160089999999999844e-01
-5.588079999999999714e-01 -2.923899999999999832e-01 -2.036100000000000063e-02
-3.114419999999999966e-01 1.000970000000000054e-01 1.560110000000000108e-01
1.334609999999999963e-01 -5.496050000000000102e-01 -1.826649999999999940e-01
1.462350000000000039e-01 9.045799999999999674e-02 1.865819999999999979e-01
-5.643070000000000030e-01 -3.213309999999999778e-01 -1.883050000000000002e-01
2.832779999999999743e-01 -1.469890000000000085e-01 -2.112970000000000126e-01
2.025919999999999943e-01 3.771419999999999773e-01 2.401679999999999926e-01
-3.275270000000000126e-01 -4.701659999999999728e-01 -1.152129999999999960e-01
-3.364340000000000108e-01 7.878100000000000380e-02 -1.659329999999999972e-01
-1.601640000000000008e-01 8.134399999999999964e-02 4.312300000000000161e-02
-3.022900000000000031e-01 -6.721770000000000245e-01 -5.352300000000000113e-02
-3.398900000000000254e-01 -4.779320000000000235e-01 2.255800000000000166e-02
6.951400000000000634e-02 -3.623390000000000222e-01 -1.356310000000000016e-01
1.284480000000000066e-01 3.320609999999999951e-01 3.749299999999999855e-02
-3.875900000000000178e-02 2.548050000000000037e-01 -1.734650000000000081e-01
-2.652720000000000078e-01 -3.494140000000000024e-01 2.096669999999999923e-01
-3.248800000000000299e-02 -1.766590000000000105e-01 1.834639999999999882e-01
1.285429999999999906e-01 7.118020000000000458e-01 2.077990000000000115e-01
4.610290000000000221e-01 -3.013640000000000208e-01 -4.782890000000000197e-01
4.172319999999999918e-01 -3.944730000000000181e-01 -3.863559999999999772e-01
-1.446369999999999878e-01 2.375100000000000128e-02 -1.368999999999999939e-01
3.418769999999999865e-01 -1.140049999999999952e-01 2.563469999999999915e-01
3.510139999999999927e-01 -2.970729999999999760e-01 -4.367750000000000243e-01
-2.290079999999999893e-01 -2.812819999999999765e-01 2.936179999999999901e-01
-3.358780000000000099e-01 -2.441799999999999873e-02 2.455110000000000070e-01
-1.922810000000000075e-01 -1.141049999999999981e-01 2.771870000000000167e-01
3.103670000000000040e-01 1.390790000000000082e-01 -2.298040000000000083e-01
9.633999999999999508e-02 2.607419999999999738e-01 2.021290000000000031e-01
1.063799999999999989e-02 -3.421739999999999782e-01 -5.597799999999999998e-02
-8.297200000000000408e-02 3.024519999999999986e-01 -4.274599999999999927e-02
2.617709999999999759e-01 -4.208300000000000235e-02 3.141959999999999753e-01
3.480650000000000133e-01 3.320029999999999926e-01 1.708499999999999949e-02
-2.277679999999999982e-01 4.131699999999999956e-02 -2.023349999999999871e-01
1.280900000000000094e-01 2.939550000000000218e-01 -2.233399999999999969e-02
-5.026159999999999517e-01 -2.751919999999999922e-01 -2.695799999999999863e-01
-2.776529999999999831e-01 1.072580000000000061e-01 -2.451800000000000160e-02
-4.345999999999999863e-01 -3.098480000000000123e-01 -3.244739999999999847e-01
3.740700000000000136e-01 4.762440000000000007e-01 3.214719999999999800e-01
-1.025409999999999933e-01 1.568060000000000009e-01 1.741900000000000115e-01
3.267019999999999924e-01 1.972909999999999942e-01 4.638799999999999868e-02
3.190830000000000055e-01 3.079339999999999855e-01 -2.476199999999999929e-02
3.330670000000000019e-01 8.634500000000000508e-02 1.828460000000000085e-01
-1.868200000000000138e-01 -6.460100000000000564e-02 -2.609489999999999865e-01
-5.061729999999999841e-01 -4.613209999999999811e-01 -2.499589999999999868e-01
-4.429080000000000239e-01 -5.700999999999999818e-02 -1.627689999999999970e-01
4.505370000000000208e-01 -3.445099999999999829e-01 -3.812360000000000193e-01
1.708899999999999864e-01 -4.680840000000000001e-01 -4.953899999999999970e-02
-5.154809999999999670e-01 -1.948380000000000112e-01 9.500999999999999723e-02
-2.996110000000000162e-01 -5.467600000000000238e-01 -1.617570000000000119e-01
-3.510260000000000047e-01 9.522400000000000309e-02 -1.153259999999999980e-01
-4.785699999999999676e-02 -3.678069999999999951e-01 1.110939999999999983e-01
-1.187000000000000000e-01 1.483250000000000124e-01 1.742190000000000127e-01
-1.163140000000000007e-01 -3.873679999999999901e-01 1.728899999999999881e-01
-2.936599999999999974e-02 -6.026700000000000113e-02 2.146530000000000105e-01
-4.652939999999999854e-01 -5.163000000000000055e-03 2.109199999999999964e-02
3.994539999999999758e-01 3.423419999999999797e-01 7.181700000000000583e-02
-3.253110000000000168e-01 -2.761739999999999751e-01 -3.104060000000000152e-01
3.213659999999999850e-01 3.346979999999999955e-01 2.238650000000000084e-01
-5.921629999999999949e-01 -3.578450000000000242e-01 -1.355169999999999986e-01
9.430499999999999994e-02 9.899999999999999404e-05 3.363949999999999996e-01
1.907109999999999916e-01 8.619569999999999732e-01 3.214790000000000147e-01
-2.232010000000000105e-01 -6.558260000000000201e-01 -5.864500000000000268e-02
1.915300000000000058e-01 6.181899999999999895e-02 -7.704800000000000537e-02
-4.212730000000000086e-01 4.843499999999999889e-02 1.613920000000000077e-01
5.462399999999999894e-02 -5.977400000000000491e-01 -7.686099999999999877e-02
2.975209999999999799e-01 1.939349999999999963e-01 -1.322939999999999949e-01
2.576680000000000081e-01 9.233999999999999153e-03 9.195399999999999407e-02
1.579900000000000054e-02 1.746649999999999869e-01 -1.917659999999999920e-01
3.026590000000000114e-01 1.685530000000000084e-01 -1.006650000000000045e-01
1.956479999999999886e-01 9.234959999999999836e-01 1.431820000000000037e-01
-2.120809999999999917e-01 -4.977730000000000210e-01 -9.980100000000000082e-02
-2.884749999999999814e-01 -1.665679999999999938e-01 -2.815759999999999930e-01
6.138400000000000106e-02 -5.601859999999999618e-01 -1.802050000000000041e-01
6.133000000000000430e-03 -3.059149999999999925e-01 1.062010000000000037e-01
2.457159999999999900e-01 8.325599999999999667e-01 2.189760000000000040e-01
3.214600000000000235e-01 4.655779999999999919e-01 2.929800000000000113e-02
8.069400000000000184e-02 2.975500000000000020e-02 1.914270000000000138e-01
-5.530859999999999665e-01 -3.882140000000000035e-01 -3.457069999999999865e-01
2.413109999999999977e-01 8.627690000000000081e-01 2.935860000000000136e-01
1.606249999999999900e-01 -5.095769999999999467e-01 -1.280010000000000037e-01
3.010999999999999788e-01 -2.463229999999999864e-01 -3.980069999999999997e-01
2.035959999999999992e-01 4.408199999999999896e-01 6.278599999999999459e-02
-4.643619999999999970e-01 -1.457720000000000127e-01 1.846810000000000118e-01
3.196950000000000069e-01 1.841530000000000111e-01 1.263930000000000053e-01
1.753100000000000144e-02 7.712000000000000105e-03 4.719619999999999926e-01
-1.264659999999999951e-01 -4.472690000000000277e-01 3.402800000000000269e-02
-3.022980000000000111e-01 -5.882260000000000266e-01 -4.119500000000000245e-02
-3.439159999999999995e-01 -5.394280000000000186e-01 -4.574099999999999694e-02
2.403839999999999866e-01 6.551360000000000516e-01 3.638120000000000243e-01
3.544660000000000033e-01 3.173989999999999867e-01 2.744399999999999964e-02
