-1.435503661632537842e-01 -2.549987435340881348e-01 2.732648253440856934e-01
-1.363305896520614624e-01 -2.362445443868637085e-01 2.694368362426757812e-01
-1.468502283096313477e-01 -2.371470630168914795e-01 2.799892723560333252e-01
7.551194727420806885e-02 -9.986130893230438232e-02 -2.669912278652191162e-01
6.363277137279510498e-02 -9.702969342470169067e-02 -2.567517161369323730e-01
6.106352061033248901e-02 -8.828601241111755371e-02 -2.496012896299362183e-01
4.903005063533782959e-02 -8.625422418117523193e-02 -2.382983863353729248e-01
3.417233228683471680e-01 -2.739868462085723877e-01 -2.734283208847045898e-01
3.322126865386962891e-01 -2.745200395584106445e-01 -2.605494558811187744e-01
3.317491710186004639e-01 -2.629891633987426758e-01 -2.612699270248413086e-01
3.203673958778381348e-01 -2.631186544895172119e-01 -2.495686709880828857e-01
2.675921618938446045e-01 2.353184670209884644e-01 -5.741011723875999451e-02
2.673439979553222656e-01 2.415848374366760254e-01 -4.470344260334968567e-02
2.618938684463500977e-01 2.482728213071823120e-01 -4.984501749277114868e-02
2.542727887630462646e-01 2.540668249130249023e-01 -4.126176238059997559e-02
3.113774210214614868e-02 2.310281544923782349e-01 -2.015916854143142700e-01
3.474519029259681702e-02 2.367543131113052368e-01 -1.886305212974548340e-01
2.782892994582653046e-02 2.410777509212493896e-01 -1.862065047025680542e-01
3.209986537694931030e-02 2.465983182191848755e-01 -1.732372194528579712e-01
-1.480336301028728485e-02 2.460259795188903809e-01 -4.819523543119430542e-02
-9.736525826156139374e-03 2.496481388807296753e-01 -3.221374750137329102e-02
-2.705140598118305206e-02 2.551087737083435059e-01 -3.369314223527908325e-02
-2.201360836625099182e-02 2.583357691764831543e-01 -1.695028692483901978e-02
1.578932553529739380e-01 8.747413009405136108e-02 3.086233735084533691e-01
1.488381326198577881e-01 8.197987824678421021e-02 3.220033943653106689e-01
1.471480131149291992e-01 9.608176350593566895e-02 3.142672181129455566e-01
1.385486423969268799e-01 9.082233905792236328e-02 3.274576663970947266e-01
-3.627422749996185303e-01 -3.772224783897399902e-01 -2.850466072559356689e-01
-3.675384819507598877e-01 -3.840984404087066650e-01 -2.727389037609100342e-01
-3.598169684410095215e-01 -3.728343248367309570e-01 -2.662265300750732422e-01
-3.654860556125640869e-01 -3.793514966964721680e-01 -2.532233297824859619e-01
2.364560812711715698e-01 -2.100487351417541504e-01 -1.004208698868751526e-01
2.339549958705902100e-01 -2.143445014953613281e-01 -8.608445525169372559e-02
2.343268990516662598e-01 -2.021881788969039917e-01 -8.751089870929718018e-02
2.318720519542694092e-01 -2.058867216110229492e-01 -7.277220487594604492e-02
-2.808721363544464111e-01 3.617397323250770569e-02 2.099768072366714478e-01
-2.880352139472961426e-01 2.826648205518722534e-02 2.196984142065048218e-01
-2.896620333194732666e-01 3.814505040645599365e-02 2.127176970243453979e-01
-2.965642809867858887e-01 2.963759936392307281e-02 2.222087532281875610e-01
3.597725927829742432e-01 -1.160451546311378479e-01 2.234601378440856934e-01
3.575374484062194824e-01 -1.175460517406463623e-01 2.371398508548736572e-01
3.525759279727935791e-01 -1.063817441463470459e-01 2.318792194128036499e-01
3.499232828617095947e-01 -1.079785823822021484e-01 2.454722970724105835e-01
3.936842978000640869e-01 -2.632729113101959229e-01 -3.065911531448364258e-01
3.852630257606506348e-01 -2.646976709365844727e-01 -2.944638729095458984e-01
3.816246688365936279e-01 -2.508146762847900391e-01 -2.967596650123596191e-01
3.736372590065002441e-01 -2.530018985271453857e-01 -2.844604551792144775e-01
2.769362628459930420e-01 -1.546592265367507935e-01 -1.818356812000274658e-01
2.750768959522247314e-01 -1.566282957792282104e-01 -1.674489378929138184e-01
2.735580801963806152e-01 -1.430728882551193237e-01 -1.720533967018127441e-01
2.716802656650543213e-01 -1.448859125375747681e-01 -1.572345346212387085e-01
-3.189028799533843994e-01 -6.464183926582336426e-01 -1.562464982271194458e-01
-3.238665461540222168e-01 -6.533849835395812988e-01 -1.385763585567474365e-01
-3.337807357311248779e-01 -6.416377425193786621e-01 -1.499779820442199707e-01
-3.378005921840667725e-01 -6.480892896652221680e-01 -1.309215426445007324e-01
2.001725137233734131e-01 6.183323264122009277e-01 7.756103575229644775e-02
2.004101425409317017e-01 6.175101399421691895e-01 9.540373831987380981e-02
1.951356828212738037e-01 6.333655118942260742e-01 9.702134132385253906e-02
1.947703063488006592e-01 6.318109035491943359e-01 1.154784709215164185e-01
3.756034374237060547e-01 -2.600687444210052490e-01 -4.352654218673706055e-01
3.672288060188293457e-01 -2.618656158447265625e-01 -4.215016365051269531e-01
3.617342710494995117e-01 -2.494085282087326050e-01 -4.270918965339660645e-01
3.517467975616455078e-01 -2.509983479976654053e-01 -4.150923788547515869e-01
-1.811992377042770386e-01 5.338669195771217346e-02 -9.927318245172500610e-02
-1.771086454391479492e-01 5.476128309965133667e-02 -8.007688820362091064e-02
-1.934154480695724487e-01 6.141065061092376709e-02 -8.815953135490417480e-02
-1.883663833141326904e-01 6.316151469945907593e-02 -6.878926604986190796e-02
-3.410671949386596680e-01 3.583920374512672424e-02 2.181087434291839600e-01
-3.463050723075866699e-01 2.489983662962913513e-02 2.257632911205291748e-01
-3.498599827289581299e-01 4.384745284914970398e-02 2.147568911314010620e-01
-3.562967777252197266e-01 3.212593495845794678e-02 2.226927578449249268e-01
1.744519770145416260e-01 4.521241188049316406e-01 1.650249063968658447e-01
1.763359606266021729e-01 4.459646642208099365e-01 1.802279055118560791e-01
1.731127053499221802e-01 4.624316692352294922e-01 1.745637208223342896e-01
1.737872362136840820e-01 4.580318927764892578e-01 1.907628327608108521e-01
-1.289411336183547974e-01 2.316365838050842285e-01 -1.365821212530136108e-01
-1.273243278264999390e-01 2.305085062980651855e-01 -1.192596927285194397e-01
-1.395029723644256592e-01 2.372133135795593262e-01 -1.237000599503517151e-01
-1.373292952775955200e-01 2.365232706069946289e-01 -1.071330755949020386e-01
2.175925523042678833e-01 -9.009013324975967407e-02 3.543440103530883789e-01
2.109738588333129883e-01 -9.369240701198577881e-02 3.709730207920074463e-01
2.064214944839477539e-01 -8.082502335309982300e-02 3.620518743991851807e-01
1.988578736782073975e-01 -8.393269777297973633e-02 3.781578838825225830e-01
-3.495120108127593994e-01 -4.687123596668243408e-01 -9.479302167892456055e-02
-3.553169369697570801e-01 -4.697813093662261963e-01 -8.031301945447921753e-02
-3.538210391998291016e-01 -4.579817652702331543e-01 -8.396504074335098267e-02
-3.582350015640258789e-01 -4.595948457717895508e-01 -6.851777434349060059e-02
-9.375377744436264038e-02 -5.244845151901245117e-02 2.104394733905792236e-01
-1.033432111144065857e-01 -6.322186440229415894e-02 2.114102840423583984e-01
-1.035237908363342285e-01 -4.204577207565307617e-02 2.120826095342636108e-01
-1.134719550609588623e-01 -5.254444479942321777e-02 2.143299728631973267e-01
2.442928105592727661e-01 4.128189086914062500e-01 8.047450333833694458e-03
2.305816709995269775e-01 4.126308858394622803e-01 2.391493692994117737e-02
2.385911345481872559e-01 4.277412891387939453e-01 2.294673211872577667e-02
2.251689881086349487e-01 4.277467131614685059e-01 3.948317840695381165e-02
-3.715155273675918579e-02 -1.797664016485214233e-01 -2.560657262802124023e-01
-4.047006368637084961e-02 -1.915948987007141113e-01 -2.530087232589721680e-01
-5.290487781167030334e-02 -1.726948767900466919e-01 -2.604734003543853760e-01
-4.848412424325942993e-02 -1.752471923828125000e-01 -2.552478015422821045e-01
2.281429767608642578e-01 9.171127676963806152e-01 2.199195623397827148e-01
2.325059920549392700e-01 9.142087697982788086e-01 2.341441512107849121e-01
2.177362143993377686e-01 9.185891747474670410e-01 2.306516915559768677e-01
2.213615179061889648e-01 9.153220057487487793e-01 2.451348602771759033e-01
-1.596134155988693237e-01 -3.829110562801361084e-01 -1.543966233730316162e-01
-1.584795862436294556e-01 -3.887013494968414307e-01 -1.386457979679107666e-01
-1.687415242195129395e-01 -3.851335048675537109e-01 -1.478391587734222412e-01
-1.683256477117538452e-01 -3.915544748306274414e-01 -1.322367191314697266e-01
-6.473881751298904419e-02 1.578461006283760071e-02 2.194029092788696289e-01
-7.105689495801925659e-02 1.756554469466209412e-03 2.211477756500244141e-01
-8.256546407938003540e-02 2.755054831504821777e-02 2.176553457975387573e-01
-8.861502259969711304e-02 1.215324737131595612e-02 2.197550535202026367e-01
-3.589237034320831299e-01 -5.504103302955627441e-01 -9.596301615238189697e-02
-3.568505942821502686e-01 -5.524358153343200684e-01 -8.202043175697326660e-02
-3.628780543804168701e-01 -5.428768396377563477e-01 -8.582599461078643799e-02
-3.603702783584594727e-01 -5.452046990394592285e-01 -7.223960012197494507e-02
1.334719508886337280e-01 -9.560363739728927612e-02 -2.697562873363494873e-01
1.389518082141876221e-01 -8.763855695724487305e-02 -2.561854720115661621e-01
1.254339069128036499e-01 -8.404445648193359375e-02 -2.553261518478393555e-01
1.309219002723693848e-01 -7.568782567977905273e-02 -2.416275292634963989e-01
-5.051841735839843750e-01 -8.945155143737792969e-02 7.552279531955718994e-02
-5.038311481475830078e-01 -9.456925839185714722e-02 9.183830022811889648e-02
-4.991384744644165039e-01 -7.916900515556335449e-02 9.253416210412979126e-02
-4.978587925434112549e-01 -8.438751101493835449e-02 1.085312813520431519e-01
4.680649042129516602e-01 -3.035381138324737549e-01 -3.983974754810333252e-01
4.615014791488647461e-01 -3.040978908538818359e-01 -3.836565911769866943e-01
4.573292434215545654e-01 -2.892194986343383789e-01 -3.819122016429901123e-01
4.512688517570495605e-01 -2.896089851856231689e-01 -3.669956326484680176e-01
-3.223071694374084473e-01 1.079663708806037903e-01 -1.870191842317581177e-02
-3.163439929485321045e-01 1.081852167844772339e-01 -2.672974951565265656e-03
-3.292872309684753418e-01 1.095699891448020935e-01 -1.412326004356145859e-03
-3.228389024734497070e-01 1.096896007657051086e-01 1.458669733256101608e-02
8.943171799182891846e-02 -6.699016690254211426e-02 4.447866976261138916e-01
8.489742130041122437e-02 -6.805303692817687988e-02 4.600149989128112793e-01
7.784731686115264893e-02 -5.978020653128623962e-02 4.556552171707153320e-01
7.288973033428192139e-02 -6.079054251313209534e-02 4.709369838237762451e-01
-2.116179019212722778e-01 8.036183565855026245e-02 7.922832667827606201e-02
-2.070067524909973145e-01 8.141046017408370972e-02 9.574328362941741943e-02
-2.200701534748077393e-01 8.583463728427886963e-02 8.774694800376892090e-02
-2.161404341459274292e-01 8.511442691087722778e-02 1.018458977341651917e-01
-2.424458861351013184e-01 8.896945416927337646e-02 1.111291348934173584e-01
-2.400922030210494995e-01 8.603816479444503784e-02 1.225878447294235229e-01
-2.508518397808074951e-01 8.980936557054519653e-02 1.197467148303985596e-01
-2.488424628973007202e-01 8.701038360595703125e-02 1.313824802637100220e-01
-4.853577613830566406e-01 -2.615731060504913330e-01 1.135208085179328918e-01
-4.823618531227111816e-01 -2.605157494544982910e-01 1.288902312517166138e-01
-4.915246665477752686e-01 -2.486135810613632202e-01 1.205560043454170227e-01
-4.873416125774383545e-01 -2.474123835563659668e-01 1.369195878505706787e-01
-3.717549145221710205e-01 -1.812723577022552490e-01 2.451020181179046631e-01
-3.622734248638153076e-01 -1.765014529228210449e-01 2.559890747070312500e-01
-3.757191896438598633e-01 -1.669943928718566895e-01 2.476906627416610718e-01
-3.661155998706817627e-01 -1.617701202630996704e-01 2.567646503448486328e-01
-1.719847470521926880e-01 -3.004242479801177979e-01 -2.474095374345779419e-01
-1.770806461572647095e-01 -3.087662756443023682e-01 -2.371041327714920044e-01
-1.871223747730255127e-01 -3.010593354701995850e-01 -2.467730343341827393e-01
-1.914397478103637695e-01 -3.094206452369689941e-01 -2.360210269689559937e-01
-2.070567011833190918e-01 -4.062210023403167725e-01 1.605686098337173462e-01
-2.067659944295883179e-01 -3.982175588607788086e-01 1.753977686166763306e-01
-2.111554443836212158e-01 -3.928065001964569092e-01 1.780206412076950073e-01
-2.107448130846023560e-01 -3.849624991416931152e-01 1.928416788578033447e-01
-5.186448693275451660e-01 -3.209054768085479736e-01 -3.296373784542083740e-01
-5.277488231658935547e-01 -3.195573091506958008e-01 -3.186241090297698975e-01
-5.252097249031066895e-01 -3.117476105690002441e-01 -3.163095712661743164e-01
-5.326239466667175293e-01 -3.102264404296875000e-01 -3.050816059112548828e-01
-4.959487020969390869e-01 -2.869251072406768799e-01 -3.019609153270721436e-01
-4.942602217197418213e-01 -2.823731899261474609e-01 -2.909566760063171387e-01
-5.018027424812316895e-01 -2.781331241130828857e-01 -2.845278978347778320e-01
-4.986336529254913330e-01 -2.737086713314056396e-01 -2.721696197986602783e-01
-3.776547610759735107e-01 -3.322536647319793701e-01 1.793875694274902344e-01
-3.704478144645690918e-01 -3.261379599571228027e-01 1.944832056760787964e-01
-3.818071484565734863e-01 -3.174105882644653320e-01 1.899989396333694458e-01
-3.731917738914489746e-01 -3.112943172454833984e-01 2.052056193351745605e-01
1.460143178701400757e-01 -1.223932765424251556e-02 -1.711319983005523682e-01
1.533644348382949829e-01 -6.461932323873043060e-03 -1.575999408960342407e-01
1.372239887714385986e-01 -3.683831077069044113e-03 -1.620867252349853516e-01
1.442002058029174805e-01 2.225746633484959602e-03 -1.477350890636444092e-01
1.203048415482044220e-02 9.347005188465118408e-02 2.000759541988372803e-01
2.407853025943040848e-04 8.634919673204421997e-02 2.059353142976760864e-01
-4.372699186205863953e-04 1.005703210830688477e-01 2.036555111408233643e-01
-1.178689766675233841e-02 9.300433099269866943e-02 2.098714262247085571e-01
-7.327668368816375732e-02 -1.697099804878234863e-01 2.007271349430084229e-01
-8.543835580348968506e-02 -1.716482341289520264e-01 2.090679854154586792e-01
-8.222520351409912109e-02 -1.548606157302856445e-01 2.078419029712677002e-01
-9.464761614799499512e-02 -1.578701138496398926e-01 2.146417349576950073e-01
-3.810005486011505127e-01 -3.814240992069244385e-01 -3.055128157138824463e-01
-3.857087194919586182e-01 -3.915656507015228271e-01 -2.951535880565643311e-01
-3.828548789024353027e-01 -3.705191612243652344e-01 -3.007133603096008301e-01
-3.877671957015991211e-01 -3.816500604152679443e-01 -2.912289500236511230e-01
1.391161531209945679e-01 -4.790573120117187500e-01 -1.458748877048492432e-01
1.498016417026519775e-01 -4.767630994319915771e-01 -1.356230229139328003e-01
1.377913355827331543e-01 -4.650229811668395996e-01 -1.364609003067016602e-01
1.495083272457122803e-01 -4.637056589126586914e-01 -1.266203671693801880e-01
1.703001707792282104e-01 -1.680394262075424194e-01 -3.301447033882141113e-01
1.681489795446395874e-01 -1.633026301860809326e-01 -3.215906322002410889e-01
1.565955430269241333e-01 -1.604335457086563110e-01 -3.193204402923583984e-01
1.586379557847976685e-01 -1.537117063999176025e-01 -3.097579479217529297e-01
1.095646806061267853e-02 1.059248894453048706e-01 1.981643736362457275e-01
-5.300243501551449299e-04 9.832640737295150757e-02 2.042146474123001099e-01
7.010586559772491455e-04 1.147707402706146240e-01 2.021421045064926147e-01
-9.839220903813838959e-03 1.065236181020736694e-01 2.083284258842468262e-01
-4.354445934295654297e-01 4.343000426888465881e-02 1.153507679700851440e-01
-4.364385604858398438e-01 3.913160413503646851e-02 1.289172023534774780e-01
-4.307858943939208984e-01 5.230712518095970154e-02 1.294075250625610352e-01
-4.309266805648803711e-01 4.654297605156898499e-02 1.424891650676727295e-01
1.173501368612051010e-04 4.352707788348197937e-02 3.748449087142944336e-01
-2.924862317740917206e-03 3.931613266468048096e-02 3.905007541179656982e-01
-3.582434263080358505e-03 5.352375656366348267e-02 3.870775699615478516e-01
-6.688843015581369400e-03 4.819022119045257568e-02 4.032675325870513916e-01
2.228094041347503662e-01 -1.812447458505630493e-01 -3.448700010776519775e-01
2.118947058916091919e-01 -1.787923723459243774e-01 -3.381727933883666992e-01
2.073001712560653687e-01 -1.737095564603805542e-01 -3.391755521297454834e-01
2.022387236356735229e-01 -1.698708087205886841e-01 -3.312630653381347656e-01
-8.262926712632179260e-04 3.886934369802474976e-02 -1.395342648029327393e-01
-5.331456195563077927e-03 4.667581245303153992e-02 -1.262383162975311279e-01
-9.766348637640476227e-03 5.426556617021560669e-02 -1.191402152180671692e-01
-1.597704365849494934e-02 6.032944098114967346e-02 -1.060922145843505859e-01
7.463508099317550659e-02 1.958508491516113281e-01 1.897826939821243286e-01
8.193819224834442139e-02 1.923903077840805054e-01 2.058198601007461548e-01
6.904705613851547241e-02 2.071501612663269043e-01 1.975193619728088379e-01
7.898883521556854248e-02 2.045250684022903442e-01 2.126742750406265259e-01
-1.204403340816497803e-01 -1.291347015649080276e-02 -1.708682477474212646e-01
-1.176770254969596863e-01 -8.741842582821846008e-03 -1.580517739057540894e-01
-1.263654381036758423e-01 -4.014424048364162445e-03 -1.602819859981536865e-01
-1.239300891757011414e-01 -3.509672824293375015e-04 -1.476076543331146240e-01
-4.090138673782348633e-01 -2.546261250972747803e-01 2.107094526290893555e-01
-3.978248536586761475e-01 -2.467258572578430176e-01 2.255215495824813843e-01
-4.144763946533203125e-01 -2.369018197059631348e-01 2.167053222656250000e-01
-4.031588435173034668e-01 -2.297250032424926758e-01 2.318032532930374146e-01
1.668337434530258179e-01 -2.572546601295471191e-01 -1.593855321407318115e-01
1.704471260309219360e-01 -2.649481594562530518e-01 -1.443432271480560303e-01
1.757144927978515625e-01 -2.494236230850219727e-01 -1.466340869665145874e-01
1.760616898536682129e-01 -2.567101120948791504e-01 -1.311890333890914917e-01
1.048953831195831299e-02 2.760318815708160400e-01 -1.141151636838912964e-01
1.376978307962417603e-02 2.795245945453643799e-01 -9.958001971244812012e-02
-2.234420739114284515e-03 2.822705507278442383e-01 -9.776151925325393677e-02
2.442804398015141487e-03 2.859145402908325195e-01 -8.050301671028137207e-02
3.140197694301605225e-01 2.660945355892181396e-01 2.030940055847167969e-01
2.981654703617095947e-01 2.649028897285461426e-01 2.107460349798202515e-01
3.030858039855957031e-01 2.765040695667266846e-01 2.120954096317291260e-01
2.869885563850402832e-01 2.744576930999755859e-01 2.177823632955551147e-01
-2.163621485233306885e-01 -5.056804418563842773e-01 -1.138386726379394531e-01
-2.112474739551544189e-01 -5.085569024085998535e-01 -9.674849361181259155e-02
-2.151529490947723389e-01 -4.932483732700347900e-01 -1.037530824542045593e-01
-2.124436795711517334e-01 -4.980191886425018311e-01 -8.611154556274414062e-02
3.667879104614257812e-01 -3.173808157444000244e-01 -3.322882354259490967e-01
3.655827045440673828e-01 -3.182660937309265137e-01 -3.160166144371032715e-01
3.576043546199798584e-01 -3.080434799194335938e-01 -3.188767433166503906e-01
3.577324151992797852e-01 -3.080761432647705078e-01 -3.025315701961517334e-01
3.342756032943725586e-01 1.935599297285079956e-01 1.300256550312042236e-01
3.272691965103149414e-01 1.912293136119842529e-01 1.478156298398971558e-01
3.375947475433349609e-01 2.083216309547424316e-01 1.428655236959457397e-01
3.303222656250000000e-01 2.067148387432098389e-01 1.598546802997589111e-01
2.698375880718231201e-01 8.706644773483276367e-01 1.117318794131278992e-01
2.673844397068023682e-01 8.645267486572265625e-01 1.309072524309158325e-01
2.648059725761413574e-01 8.805128931999206543e-01 1.266644746065139771e-01
2.631441950798034668e-01 8.757372498512268066e-01 1.454856395721435547e-01
2.621208131313323975e-01 -1.233390197157859802e-01 -2.919975109398365021e-02
2.599527835845947266e-01 -1.263829469680786133e-01 -1.199177280068397522e-02
2.627437710762023926e-01 -1.126528605818748474e-01 -1.204999070614576340e-02
2.587776482105255127e-01 -1.157664507627487183e-01 6.293875165283679962e-03
9.655175358057022095e-02 -1.024964526295661926e-01 4.115677475929260254e-01
9.435585886240005493e-02 -1.041922345757484436e-01 4.264581203460693359e-01
8.448410779237747192e-02 -9.586048126220703125e-02 4.244869351387023926e-01
8.281066268682479858e-02 -9.693495184183120728e-02 4.389865100383758545e-01
-3.266821801662445068e-01 -2.923283576965332031e-01 -3.135659992694854736e-01
-3.182766139507293701e-01 -3.006513118743896484e-01 -3.055641651153564453e-01
-3.203255832195281982e-01 -2.748075723648071289e-01 -3.109191656112670898e-01
-3.196364045143127441e-01 -2.855906784534454346e-01 -3.053541481494903564e-01
1.153952404856681824e-01 -1.491066217422485352e-01 1.368390470743179321e-01
1.042222529649734497e-01 -1.502670496702194214e-01 1.494524329900741577e-01
1.069111302495002747e-01 -1.372307389974594116e-01 1.487802416086196899e-01
9.572077542543411255e-02 -1.377714425325393677e-01 1.608334332704544067e-01
-4.016408026218414307e-01 -3.008444607257843018e-01 1.876336336135864258e-01
-3.924525976181030273e-01 -2.948036789894104004e-01 2.030639350414276123e-01
-4.108920395374298096e-01 -2.865142226219177246e-01 1.948492825031280518e-01
-4.010219275951385498e-01 -2.798167169094085693e-01 2.097426652908325195e-01
2.234051078557968140e-01 9.345675706863403320e-01 1.412871927022933960e-01
2.263323813676834106e-01 9.324446320533752441e-01 1.595249325037002563e-01
2.158234566450119019e-01 9.409725666046142578e-01 1.539283096790313721e-01
2.183379381895065308e-01 9.383280277252197266e-01 1.720720976591110229e-01
3.287940323352813721e-01 2.217481285333633423e-01 1.694179922342300415e-01
3.186577260494232178e-01 2.221704572439193726e-01 1.811198294162750244e-01
3.221620917320251465e-01 2.342089861631393433e-01 1.811682581901550293e-01
3.107626140117645264e-01 2.353724241256713867e-01 1.917713284492492676e-01
3.265595734119415283e-01 -3.353553414344787598e-01 -3.647963702678680420e-01
3.276827335357666016e-01 -3.358635902404785156e-01 -3.487094342708587646e-01
3.191971182823181152e-01 -3.275260627269744873e-01 -3.503216505050659180e-01
3.220044076442718506e-01 -3.273269832134246826e-01 -3.332672417163848877e-01
1.647694706916809082e-01 7.389898896217346191e-01 3.543212711811065674e-01
1.560910940170288086e-01 7.295190095901489258e-01 3.596352040767669678e-01
1.548499017953872681e-01 7.569909691810607910e-01 3.572243452072143555e-01
1.518602073192596436e-01 7.472135424613952637e-01 3.637570440769195557e-01
-3.598527312278747559e-01 -3.583616018295288086e-01 -9.987176209688186646e-02
-3.626439273357391357e-01 -3.610582947731018066e-01 -8.828191459178924561e-02
-3.679834604263305664e-01 -3.489614129066467285e-01 -9.471114724874496460e-02
-3.694288730621337891e-01 -3.522231876850128174e-01 -8.175386488437652588e-02
9.381274133920669556e-02 1.567881703376770020e-01 -1.076819188892841339e-02
8.339062333106994629e-02 1.606153249740600586e-01 6.691934540867805481e-04
8.976875245571136475e-02 1.708109080791473389e-01 4.067535046488046646e-03
7.750394940376281738e-02 1.721168756484985352e-01 1.611597277224063873e-02
2.325068861246109009e-01 -2.171666175127029419e-01 -1.576782315969467163e-01
2.256789803504943848e-01 -2.197729200124740601e-01 -1.442581266164779663e-01
2.295429408550262451e-01 -2.109206914901733398e-01 -1.433048546314239502e-01
2.234330177307128906e-01 -2.138319611549377441e-01 -1.305115222930908203e-01
1.833506524562835693e-01 7.263910174369812012e-01 3.531051874160766602e-01
1.712239831686019897e-01 7.188504934310913086e-01 3.589329123497009277e-01
1.769501268863677979e-01 7.454288005828857422e-01 3.566744029521942139e-01
1.659219563007354736e-01 7.344920039176940918e-01 3.617540597915649414e-01
1.185828074812889099e-02 2.939381897449493408e-01 -4.292263463139533997e-02
1.939121447503566742e-02 2.942281365394592285e-01 -2.147968485951423645e-02
2.161668613553047180e-03 3.029007911682128906e-01 -2.555363439023494720e-02
1.026557758450508118e-02 3.016402125358581543e-01 -2.441275864839553833e-03
-5.773677229881286621e-01 -2.863005697727203369e-01 -2.660668790340423584e-01
-5.745788812637329102e-01 -2.878457009792327881e-01 -2.501367330551147461e-01
-5.845873951911926270e-01 -2.846988141536712646e-01 -2.502079010009765625e-01
-5.818871855735778809e-01 -2.871823012828826904e-01 -2.318651378154754639e-01
-4.089893102645874023e-01 -3.866086304187774658e-01 -1.936387121677398682e-01
-4.027774035930633545e-01 -3.794992268085479736e-01 -1.779718399047851562e-01
-4.210853576660156250e-01 -3.764910101890563965e-01 -1.781346648931503296e-01
-4.149237573146820068e-01 -3.687950968742370605e-01 -1.623134613037109375e-01
2.417244017124176025e-01 -1.477429568767547607e-01 -3.043408989906311035e-01
2.464386224746704102e-01 -1.419731974601745605e-01 -2.879891991615295410e-01
2.310685664415359497e-01 -1.385030150413513184e-01 -2.960540354251861572e-01
2.365643382072448730e-01 -1.306995749473571777e-01 -2.812778353691101074e-01
-5.541995763778686523e-01 -2.225895673036575317e-01 -7.153554260730743408e-02
-5.582125782966613770e-01 -2.256347686052322388e-01 -5.277432128787040710e-02
-5.581378340721130371e-01 -2.078075259923934937e-01 -5.836950987577438354e-02
-5.612128376960754395e-01 -2.099536508321762085e-01 -3.926378861069679260e-02
1.953997910022735596e-01 6.876227855682373047e-01 1.986502259969711304e-01
1.993101984262466431e-01 6.890588998794555664e-01 2.150327414274215698e-01
1.924486458301544189e-01 6.982146501541137695e-01 2.126140892505645752e-01
1.964022070169448853e-01 6.996412277221679688e-01 2.288464009761810303e-01
1.892317980527877808e-01 -5.604150891304016113e-02 2.907943129539489746e-01
1.831537038087844849e-01 -6.180659681558609009e-02 3.063506782054901123e-01
1.801854670047760010e-01 -4.662452265620231628e-02 3.000540137290954590e-01
1.736975610256195068e-01 -5.261727049946784973e-02 3.160873353481292725e-01
-1.006224751472473145e-01 -4.096045494079589844e-01 1.158097460865974426e-01
-1.058442369103431702e-01 -4.072476923465728760e-01 1.285081207752227783e-01
-1.065705046057701111e-01 -4.038387537002563477e-01 1.350869387388229370e-01
-1.131065487861633301e-01 -4.014316499233245850e-01 1.476032137870788574e-01
-3.064661920070648193e-01 -4.917488098144531250e-01 -1.388346254825592041e-01
-3.174960613250732422e-01 -4.909440875053405762e-01 -1.292105764150619507e-01
-3.106147646903991699e-01 -4.785021841526031494e-01 -1.306465268135070801e-01
-3.212903738021850586e-01 -4.777687489986419678e-01 -1.190341264009475708e-01
-1.251110136508941650e-01 -1.050896346569061279e-01 2.229464650154113770e-01
-1.359553039073944092e-01 -1.104071140289306641e-01 2.294259071350097656e-01
-1.377430707216262817e-01 -9.567011892795562744e-02 2.271985858678817749e-01
-1.470270752906799316e-01 -9.903953224420547485e-02 2.375670671463012695e-01
-9.252996183931827545e-03 -9.758757054805755615e-02 2.059785276651382446e-01
-2.180285379290580750e-02 -1.034349277615547180e-01 2.099110484123229980e-01
-2.009904012084007263e-02 -8.074105530977249146e-02 2.090586721897125244e-01
-3.154524043202400208e-02 -8.978684991598129272e-02 2.120876163244247437e-01
1.644532978534698486e-01 -2.664303779602050781e-01 -2.970418632030487061e-01
1.621184796094894409e-01 -2.697654962539672852e-01 -2.776854634284973145e-01
1.514808535575866699e-01 -2.560997307300567627e-01 -2.843322157859802246e-01
1.490107327699661255e-01 -2.605008780956268311e-01 -2.652238607406616211e-01
-4.944395124912261963e-01 -2.639846503734588623e-01 -2.240140438079833984e-01
-4.961657822132110596e-01 -2.645076215267181396e-01 -2.088483572006225586e-01
-5.035223364830017090e-01 -2.558706998825073242e-01 -2.136042863130569458e-01
-5.060172080993652344e-01 -2.574009001255035400e-01 -1.985248029232025146e-01
2.335397303104400635e-01 1.967474818229675293e-01 1.970493197441101074e-01
2.232441902160644531e-01 1.938130706548690796e-01 2.120385617017745972e-01
2.263459563255310059e-01 2.108691036701202393e-01 2.025308907032012939e-01
2.155594974756240845e-01 2.074677944183349609e-01 2.173358350992202759e-01
-2.481370568275451660e-01 -3.957726061344146729e-01 1.597348302602767944e-01
-2.428284287452697754e-01 -3.883245885372161865e-01 1.752880364656448364e-01
-2.525391578674316406e-01 -3.860696554183959961e-01 1.753647029399871826e-01
-2.459929436445236206e-01 -3.783682882785797119e-01 1.911513358354568481e-01
3.658326566219329834e-01 -3.597353994846343994e-01 -3.818932771682739258e-01
3.642979860305786133e-01 -3.602975904941558838e-01 -3.673494160175323486e-01
3.636000752449035645e-01 -3.490262031555175781e-01 -3.686189353466033936e-01
3.624588847160339355e-01 -3.502659797668457031e-01 -3.540341556072235107e-01
4.937697947025299072e-02 1.650948077440261841e-01 1.702085882425308228e-02
4.262294247746467590e-02 1.702416390180587769e-01 3.089497610926628113e-02
4.233977943658828735e-02 1.809517592191696167e-01 3.875719755887985229e-02
3.607354685664176941e-02 1.857519298791885376e-01 5.250284075736999512e-02
1.221240404993295670e-02 1.272824704647064209e-01 -3.122668340802192688e-02
9.930006228387355804e-03 1.312757879495620728e-01 -1.889476180076599121e-02
-3.159249201416969299e-03 1.361267417669296265e-01 -8.228157646954059601e-03
-6.716805975884199142e-03 1.411160826683044434e-01 4.395031370222568512e-03
-4.685156513005495071e-03 9.105448424816131592e-02 -8.329574018716812134e-02
-1.504429150372743607e-03 9.319265931844711304e-02 -7.091011852025985718e-02
-1.084994245320558548e-02 9.897730499505996704e-02 -6.276160478591918945e-02
-8.851234801113605499e-03 1.015948280692100525e-01 -5.049818381667137146e-02
2.015797942876815796e-01 -1.922128945589065552e-01 4.907965660095214844e-02
1.913367509841918945e-01 -1.924553662538528442e-01 6.364481896162033081e-02
1.980531811714172363e-01 -1.766574382781982422e-01 6.624767929315567017e-02
1.866824328899383545e-01 -1.767302304506301880e-01 8.103011548519134521e-02
2.554981410503387451e-01 5.888431668281555176e-01 1.861694157123565674e-01
2.623985707759857178e-01 5.951688289642333984e-01 2.025055438280105591e-01
2.491251528263092041e-01 6.010143160820007324e-01 1.988710314035415649e-01
2.552488148212432861e-01 6.067183613777160645e-01 2.160836905241012573e-01
2.401801347732543945e-01 1.346623897552490234e-01 2.202989161014556885e-01
2.300197631120681763e-01 1.301438063383102417e-01 2.348578870296478271e-01
2.265049070119857788e-01 1.432488858699798584e-01 2.282917648553848267e-01
2.166979908943176270e-01 1.391606032848358154e-01 2.423135936260223389e-01
6.866245716810226440e-02 2.947851456701755524e-02 3.349350392818450928e-01
6.130501627922058105e-02 2.598946914076805115e-02 3.491090238094329834e-01
5.261661484837532043e-02 3.610993921756744385e-02 3.391728699207305908e-01
4.528017342090606689e-02 3.304408863186836243e-02 3.540833294391632080e-01
-7.689373940229415894e-02 -3.651495277881622314e-01 -1.156477183103561401e-01
-8.202051371335983276e-02 -3.752172589302062988e-01 -1.031054854393005371e-01
-7.046101242303848267e-02 -3.702466785907745361e-01 -9.510625153779983521e-02
-7.632985711097717285e-02 -3.774511814117431641e-01 -8.260652422904968262e-02
2.863432466983795166e-01 1.747639328241348267e-01 -1.009738165885210037e-02
2.968042790889739990e-01 1.746113747358322144e-01 3.312057815492153168e-03
2.901406288146972656e-01 1.854222118854522705e-01 -1.646089018322527409e-03
2.998518943786621094e-01 1.846489310264587402e-01 1.394591853022575378e-02
-4.359334707260131836e-01 -2.789826095104217529e-01 1.789319068193435669e-01
-4.277933835983276367e-01 -2.741583585739135742e-01 1.950221955776214600e-01
-4.397435188293457031e-01 -2.579492330551147461e-01 1.904262751340866089e-01
-4.311309456825256348e-01 -2.543147802352905273e-01 2.064497172832489014e-01
-3.611738085746765137e-01 -3.769764006137847900e-01 -7.735373824834823608e-02
-3.648750185966491699e-01 -3.793742060661315918e-01 -6.510312855243682861e-02
-3.682284951210021973e-01 -3.711639940738677979e-01 -6.979836523532867432e-02
-3.713974356651306152e-01 -3.738844692707061768e-01 -5.600010231137275696e-02
-1.422070413827896118e-01 2.320624738931655884e-01 -1.479157358407974243e-01
-1.418678462505340576e-01 2.299163341522216797e-01 -1.302996426820755005e-01
-1.526220738887786865e-01 2.387785911560058594e-01 -1.349942535161972046e-01
-1.518911570310592651e-01 2.367002964019775391e-01 -1.176761016249656677e-01
1.493061929941177368e-01 6.799098849296569824e-01 3.236719965934753418e-01
1.569526791572570801e-01 6.850653290748596191e-01 3.378424644470214844e-01
1.419502943754196167e-01 6.936228275299072266e-01 3.298229575157165527e-01
1.467847228050231934e-01 6.946764588356018066e-01 3.409250676631927490e-01
1.644048243761062622e-01 5.800796300172805786e-02 3.235128223896026611e-01
1.543610692024230957e-01 5.267104506492614746e-02 3.371848165988922119e-01
1.518002301454544067e-01 6.563030183315277100e-02 3.306992650032043457e-01
1.417790353298187256e-01 5.995512008666992188e-02 3.440561294555664062e-01
-3.322813212871551514e-01 -1.985501646995544434e-01 2.605765163898468018e-01
-3.255913555622100830e-01 -1.951234936714172363e-01 2.733338177204132080e-01
-3.389857113361358643e-01 -1.871651262044906616e-01 2.690709829330444336e-01
-3.318359553813934326e-01 -1.841287165880203247e-01 2.819019556045532227e-01
1.442550569772720337e-01 6.992595195770263672e-01 1.468534171581268311e-01
1.435448825359344482e-01 6.969204545021057129e-01 1.665713191032409668e-01
1.342123001813888550e-01 7.112946510314941406e-01 1.619881987571716309e-01
1.349468827247619629e-01 7.081537246704101562e-01 1.811797320842742920e-01
-1.867443174123764038e-01 7.480058073997497559e-02 1.158943325281143188e-01
-1.829391419887542725e-01 7.311210036277770996e-02 1.312695741653442383e-01
-1.968402713537216187e-01 7.703981548547744751e-02 1.246163174510002136e-01
-1.939880400896072388e-01 7.434151321649551392e-02 1.384668946266174316e-01
1.074392944574356079e-01 3.734524846076965332e-01 1.714960485696792603e-01
1.148840934038162231e-01 3.692669868469238281e-01 1.876988857984542847e-01
1.133381351828575134e-01 3.859292566776275635e-01 1.819907575845718384e-01
1.213028505444526672e-01 3.810635209083557129e-01 1.970163136720657349e-01
-2.690415978431701660e-01 -6.749422550201416016e-01 -1.041805446147918701e-01
-2.651746869087219238e-01 -6.757252812385559082e-01 -9.013114124536514282e-02
-2.771341800689697266e-01 -6.755495071411132812e-01 -9.054857492446899414e-02
-2.737590074539184570e-01 -6.761373877525329590e-01 -7.665947824716567993e-02
1.072524413466453552e-01 2.289924621582031250e-01 1.608378626406192780e-02
1.011259183287620544e-01 2.253928631544113159e-01 3.267691656947135925e-02
9.463218599557876587e-02 2.388333231210708618e-01 2.866053394973278046e-02
8.924580365419387817e-02 2.347604930400848389e-01 4.581822454929351807e-02
2.192860543727874756e-01 1.356153190135955811e-01 2.387804239988327026e-01
2.103591412305831909e-01 1.313067674636840820e-01 2.525716722011566162e-01
2.047117352485656738e-01 1.438195109367370605e-01 2.443734556436538696e-01
1.965968906879425049e-01 1.394648551940917969e-01 2.578138113021850586e-01
-6.075739488005638123e-02 -3.989695608615875244e-01 5.857209116220474243e-02
-6.626248359680175781e-02 -4.010951817035675049e-01 7.301994413137435913e-02
-5.921151861548423767e-02 -3.924784362316131592e-01 7.230940461158752441e-02
-6.510820239782333374e-02 -3.942411839962005615e-01 8.666931837797164917e-02
2.900328338146209717e-01 -1.519952416419982910e-01 -2.777385115623474121e-01
2.932221591472625732e-01 -1.516974419355392456e-01 -2.568082809448242188e-01
2.813680768013000488e-01 -1.430945992469787598e-01 -2.648950219154357910e-01
2.837718129158020020e-01 -1.433933675289154053e-01 -2.447119355201721191e-01
2.283791452646255493e-01 9.780279546976089478e-02 2.518953680992126465e-01
2.197572290897369385e-01 9.213773906230926514e-02 2.659445405006408691e-01
2.189126014709472656e-01 1.083581671118736267e-01 2.596741616725921631e-01
2.107363194227218628e-01 1.030041351914405823e-01 2.734730839729309082e-01
2.714993357658386230e-01 -9.319351613521575928e-02 -5.429961532354354858e-02
2.698047757148742676e-01 -9.717105329036712646e-02 -3.466661274433135986e-02
2.694157361984252930e-01 -8.113572001457214355e-02 -3.731849417090415955e-02
2.671654820442199707e-01 -8.551740646362304688e-02 -1.786555349826812744e-02
-1.122739613056182861e-01 -3.048292696475982666e-01 -2.307481616735458374e-01
-1.154593378305435181e-01 -3.132711946964263916e-01 -2.213591635227203369e-01
-1.270872950553894043e-01 -3.033770620822906494e-01 -2.376322746276855469e-01
-1.321046501398086548e-01 -3.121320307254791260e-01 -2.289155125617980957e-01
2.510764896869659424e-01 -2.553768754005432129e-01 -3.785062730312347412e-01
2.412363886833190918e-01 -2.574893534183502197e-01 -3.687418103218078613e-01
2.472255825996398926e-01 -2.384720146656036377e-01 -3.764579892158508301e-01
2.360946834087371826e-01 -2.402499914169311523e-01 -3.683127760887145996e-01
1.562183052301406860e-01 -3.699727058410644531e-01 1.010884344577789307e-02
1.449354290962219238e-01 -3.700822591781616211e-01 2.343215420842170715e-02
1.538981795310974121e-01 -3.555976450443267822e-01 1.900756172835826874e-02
1.418348699808120728e-01 -3.556180596351623535e-01 2.957104519009590149e-02
1.694989651441574097e-01 1.526945829391479492e-01 -2.880488894879817963e-02
1.636115610599517822e-01 1.544683426618576050e-01 -1.876029744744300842e-02
1.652393937110900879e-01 1.663143932819366455e-01 -2.358705922961235046e-02
1.508955061435699463e-01 1.647347062826156616e-01 -1.449543051421642303e-02
1.438920050859451294e-01 7.901769280433654785e-01 2.495283782482147217e-01
1.348107904195785522e-01 7.886456251144409180e-01 2.586154043674468994e-01
1.408498734235763550e-01 7.988754510879516602e-01 2.568639218807220459e-01
1.323844790458679199e-01 7.973729968070983887e-01 2.676089704036712646e-01
1.067025065422058105e-01 1.736823469400405884e-01 2.817235589027404785e-01
9.824602305889129639e-02 1.665459424257278442e-01 2.976562082767486572e-01
9.664296358823776245e-02 1.841945201158523560e-01 2.828924655914306641e-01
8.760707080364227295e-02 1.761126667261123657e-01 3.014911413192749023e-01
-4.010885655879974365e-01 -3.933313488960266113e-01 6.479845941066741943e-02
-3.991900086402893066e-01 -3.946630656719207764e-01 8.465616405010223389e-02
-4.087700545787811279e-01 -3.824698925018310547e-01 7.571968436241149902e-02
-4.066354930400848389e-01 -3.842555284500122070e-01 9.609302133321762085e-02
-1.178718507289886475e-01 2.572539150714874268e-01 -6.216564401984214783e-02
-1.134407594799995422e-01 2.596338987350463867e-01 -4.850795120000839233e-02
-1.245529204607009888e-01 2.680976390838623047e-01 -5.690122395753860474e-02
-1.191566810011863708e-01 2.697789072990417480e-01 -4.359428957104682922e-02
-1.325622498989105225e-01 -4.395583570003509521e-01 -3.166135773062705994e-02
-1.384190022945404053e-01 -4.453835189342498779e-01 -1.715655252337455750e-02
-1.272646486759185791e-01 -4.375082552433013916e-01 -1.249914057552814484e-02
-1.330222338438034058e-01 -4.424644708633422852e-01 1.301896525546908379e-03
-5.068746209144592285e-01 -2.893228530883789062e-01 -1.169045921415090561e-02
-5.013846158981323242e-01 -2.868960499763488770e-01 6.041946820914745331e-03
-5.127820968627929688e-01 -2.809484302997589111e-01 -8.280738256871700287e-04
-5.073336362838745117e-01 -2.780375778675079346e-01 1.667468994855880737e-02
2.268370985984802246e-01 5.995633602142333984e-01 2.965179979801177979e-01
2.345892935991287231e-01 6.047430038452148438e-01 3.075939714908599854e-01
2.177655547857284546e-01 6.081742048263549805e-01 3.069709539413452148e-01
2.257514744997024536e-01 6.133187413215637207e-01 3.183952271938323975e-01
-3.458923697471618652e-01 -3.714446425437927246e-01 -1.022083982825279236e-01
-3.495434224605560303e-01 -3.736267685890197754e-01 -9.224605560302734375e-02
-3.523956537246704102e-01 -3.644080758094787598e-01 -9.450025111436843872e-02
-3.560945391654968262e-01 -3.665350973606109619e-01 -8.350034058094024658e-02
3.019503355026245117e-01 5.398275256156921387e-01 2.877911329269409180e-01
3.039913475513458252e-01 5.392974615097045898e-01 3.029312491416931152e-01
2.962787151336669922e-01 5.493671894073486328e-01 2.949449717998504639e-01
2.978783249855041504e-01 5.489633679389953613e-01 3.100288510322570801e-01
-5.248914957046508789e-01 -3.875054717063903809e-01 -2.071603685617446899e-01
-5.153274536132812500e-01 -3.769651949405670166e-01 -1.924736648797988892e-01
-5.282377004623413086e-01 -3.745935857295989990e-01 -1.957577466964721680e-01
-5.187662243843078613e-01 -3.645559549331665039e-01 -1.812897473573684692e-01
-6.303141117095947266e-01 -3.188888430595397949e-01 -1.729297190904617310e-01
-6.261086463928222656e-01 -3.216308355331420898e-01 -1.542059630155563354e-01
-6.405910849571228027e-01 -3.125006854534149170e-01 -1.554233431816101074e-01
-6.353211402893066406e-01 -3.144558370113372803e-01 -1.370082050561904907e-01
8.643658459186553955e-02 1.385130733251571655e-01 2.488902956247329712e-01
8.034639060497283936e-02 1.348589211702346802e-01 2.673302888870239258e-01
7.426651567220687866e-02 1.561483293771743774e-01 2.547388076782226562e-01
6.688553094863891602e-02 1.498125344514846802e-01 2.758678197860717773e-01
2.717618346214294434e-01 5.933930873870849609e-01 3.318889439105987549e-02
2.678759992122650146e-01 5.917944312095642090e-01 4.689780995249748230e-02
2.602218389511108398e-01 6.075156927108764648e-01 4.313956201076507568e-02
2.596567571163177490e-01 6.066094636917114258e-01 5.815935879945755005e-02
-4.994798898696899414e-01 -4.556175470352172852e-01 -2.423736751079559326e-01
-4.973470568656921387e-01 -4.507465958595275879e-01 -2.296869754791259766e-01
-5.104466676712036133e-01 -4.467934966087341309e-01 -2.275537699460983276e-01
-5.052681565284729004e-01 -4.387662708759307861e-01 -2.151944190263748169e-01
-3.076865971088409424e-01 -2.883733436465263367e-02 2.458871603012084961e-01
-3.113825917243957520e-01 -3.918595984578132629e-02 2.547005712985992432e-01
-3.201447725296020508e-01 -2.521941252052783966e-02 2.451830506324768066e-01
-3.243685066699981689e-01 -3.560076281428337097e-02 2.530774772167205811e-01
-1.857019960880279541e-01 -2.685142755508422852e-01 2.899493575096130371e-01
-1.995562613010406494e-01 -2.692901790142059326e-01 2.959400415420532227e-01
-1.892105340957641602e-01 -2.543763220310211182e-01 2.977012097835540771e-01
-2.039559781551361084e-01 -2.557029724121093750e-01 3.031044304370880127e-01
2.262504398822784424e-01 4.185104966163635254e-01 2.289694547653198242e-01
2.225965559482574463e-01 4.058654904365539551e-01 2.330256700515747070e-01
2.098344266414642334e-01 4.290249347686767578e-01 2.280931770801544189e-01
2.125785052776336670e-01 4.194329977035522461e-01 2.353921681642532349e-01
-4.271922707557678223e-01 -3.019899129867553711e-02 -1.508583277463912964e-01
-4.351810216903686523e-01 -3.099986538290977478e-02 -1.361925452947616577e-01
-4.319535791873931885e-01 -1.965670846402645111e-02 -1.359087824821472168e-01
-4.393187761306762695e-01 -2.104878053069114685e-02 -1.200254335999488831e-01
-3.548104465007781982e-01 1.061437949538230896e-01 8.900796063244342804e-03
-3.556282222270965576e-01 1.047784537076950073e-01 2.272981405258178711e-02
-3.605177104473114014e-01 1.071825921535491943e-01 2.948498539626598358e-02
-3.611364364624023438e-01 1.055512502789497375e-01 4.363232478499412537e-02
-6.513851284980773926e-01 -5.603792071342468262e-01 -3.705712258815765381e-01
-6.518052220344543457e-01 -5.624769330024719238e-01 -3.523256480693817139e-01
-6.602426171302795410e-01 -5.507475733757019043e-01 -3.567922711372375488e-01
-6.602618694305419922e-01 -5.522521138191223145e-01 -3.382005691528320312e-01
-1.990140601992607117e-02 1.920319348573684692e-01 1.056492477655410767e-01
-1.760104857385158539e-02 1.894182562828063965e-01 1.224817857146263123e-01
-2.490589581429958344e-02 1.951138973236083984e-01 1.234160512685775757e-01
-2.295130677521228790e-02 1.905520260334014893e-01 1.398085504770278931e-01
1.765169650316238403e-01 2.073687165975570679e-01 2.284828275442123413e-01
1.662298738956451416e-01 1.998647153377532959e-01 2.377034127712249756e-01
1.608004271984100342e-01 2.153104394674301147e-01 2.296956330537796021e-01
1.499913930892944336e-01 2.069296091794967651e-01 2.375943660736083984e-01
-4.149781167507171631e-01 6.680080294609069824e-02 9.859541803598403931e-02
-4.198301136493682861e-01 6.287657469511032104e-02 1.115801036357879639e-01
-4.119465351104736328e-01 7.069139182567596436e-02 1.164832636713981628e-01
-4.161059260368347168e-01 6.528721004724502563e-02 1.293714940547943115e-01
1.907068043947219849e-01 -6.106693148612976074e-01 -1.205033659934997559e-01
1.955384314060211182e-01 -6.140323281288146973e-01 -1.040162444114685059e-01
1.799829751253128052e-01 -6.114459633827209473e-01 -1.055002883076667786e-01
1.875808089971542358e-01 -6.131197214126586914e-01 -8.907399326562881470e-02
2.067983150482177734e-01 9.065097570419311523e-02 -5.317122861742973328e-02
2.130795866250991821e-01 9.880146384239196777e-02 -4.270931705832481384e-02
1.969797313213348389e-01 1.046865507960319519e-01 -4.445893689990043640e-02
2.040761262178421021e-01 1.127313673496246338e-01 -3.483200818300247192e-02
1.275538951158523560e-01 -3.102558851242065430e-01 5.495310947299003601e-02
1.155653223395347595e-01 -3.098260164260864258e-01 6.526473909616470337e-02
1.268897056579589844e-01 -2.989699542522430420e-01 6.561775505542755127e-02
1.147970631718635559e-01 -2.982678115367889404e-01 7.513342797756195068e-02
1.785030514001846313e-01 -2.515668272972106934e-01 -1.708340197801589966e-01
1.786022931337356567e-01 -2.595146894454956055e-01 -1.547194421291351318e-01
1.778149008750915527e-01 -2.463339567184448242e-01 -1.572224199771881104e-01
1.776294708251953125e-01 -2.542882263660430908e-01 -1.414670199155807495e-01
1.668940484523773193e-01 1.349150091409683228e-01 -2.210551351308822632e-01
1.711948215961456299e-01 1.368866562843322754e-01 -2.007188349962234497e-01
1.524771451950073242e-01 1.444643735885620117e-01 -2.075689136981964111e-01
1.578179299831390381e-01 1.474025696516036987e-01 -1.865107119083404541e-01
1.664128601551055908e-01 -4.626072943210601807e-01 -4.386707395315170288e-02
1.627649515867233276e-01 -4.631199836730957031e-01 -2.955561876296997070e-02
1.609356999397277832e-01 -4.522755444049835205e-01 -3.175938501954078674e-02
1.561253368854522705e-01 -4.538937509059906006e-01 -1.549190469086170197e-02
5.200584232807159424e-02 -3.654220998287200928e-01 2.671940950676798820e-03
5.498111620545387268e-02 -3.642746806144714355e-01 1.843580044806003571e-02
4.422324523329734802e-02 -3.568069636821746826e-01 1.318045053631067276e-02
4.803399369120597839e-02 -3.543300628662109375e-01 2.834372594952583313e-02
4.594043493270874023e-01 -3.302751183509826660e-01 -3.871645331382751465e-01
4.503979682922363281e-01 -3.317800760269165039e-01 -3.733822405338287354e-01
4.469533264636993408e-01 -3.164027035236358643e-01 -3.732451498508453369e-01
4.390095472335815430e-01 -3.174546957015991211e-01 -3.593278825283050537e-01
-1.516086608171463013e-01 -3.837050795555114746e-01 1.958133280277252197e-01
-1.588729172945022583e-01 -3.789124190807342529e-01 2.093241214752197266e-01
-1.620806753635406494e-01 -3.694605231285095215e-01 2.138144969940185547e-01
-1.724050939083099365e-01 -3.680171072483062744e-01 2.280210107564926147e-01
1.797623038291931152e-01 -1.005518883466720581e-01 3.466866612434387207e-01
1.733521670103073120e-01 -1.050168350338935852e-01 3.645191192626953125e-01
1.695256084203720093e-01 -9.375425428152084351e-02 3.534669578075408936e-01
1.618705540895462036e-01 -9.844129532575607300e-02 3.718735277652740479e-01
1.544394344091415405e-01 6.826144456863403320e-01 1.457467973232269287e-01
1.528815925121307373e-01 6.799769401550292969e-01 1.663853526115417480e-01
1.427664607763290405e-01 6.914920210838317871e-01 1.603609174489974976e-01
1.416160166263580322e-01 6.884237527847290039e-01 1.801904886960983276e-01
2.483708411455154419e-01 1.160157192498445511e-02 -7.959946990013122559e-02
2.552485764026641846e-01 1.788465119898319244e-02 -6.429030001163482666e-02
2.440018206834793091e-01 2.403364703059196472e-02 -6.778484582901000977e-02
2.511367201805114746e-01 3.167273104190826416e-02 -5.299060791730880737e-02
