-3.954139724373817444e-02 -1.481769979000091553e-01 -5.321219190955162048e-02
-5.095520615577697754e-02 -1.524066329002380371e-01 -3.161013126373291016e-02
1.551878452301025391e-01 -3.106854856014251709e-01 -6.268983334302902222e-02
1.454603224992752075e-01 -3.119766116142272949e-01 -4.444185271859169006e-02
1.483570933341979980e-01 -2.951385080814361572e-01 -4.176593199372291565e-02
1.366521567106246948e-01 -2.964051365852355957e-01 -2.184396050870418549e-02
5.422119051218032837e-03 4.398761093616485596e-01 -1.391254961490631104e-01
-3.157146042212843895e-03 4.369543194770812988e-01 -1.229433640837669373e-01
-4.850140772759914398e-03 4.499907493591308594e-01 -1.228157877922058105e-01
-1.302139740437269211e-02 4.477479159832000732e-01 -1.069485172629356384e-01
2.246474921703338623e-01 -3.182168602943420410e-01 -1.467226892709732056e-01
2.184241414070129395e-01 -3.269826769828796387e-01 -1.245112866163253784e-01
2.214805334806442261e-01 -3.065776824951171875e-01 -1.306912004947662354e-01
2.151565253734588623e-01 -3.157258331775665283e-01 -1.073885485529899597e-01
-1.275142133235931396e-01 -1.072217896580696106e-01 -4.981319904327392578e-01
-1.309009939432144165e-01 -9.776061028242111206e-02 -4.791818559169769287e-01
-1.311495602130889893e-01 -8.719097077846527100e-02 -4.700585603713989258e-01
-1.363193541765213013e-01 -8.022452890872955322e-02 -4.501417875289916992e-01
-1.582481265068054199e-01 4.052791297435760498e-01 6.031867116689682007e-02
-1.667161881923675537e-01 4.026725888252258301e-01 7.945592701435089111e-02
-1.651155650615692139e-01 4.246905744075775146e-01 6.970308721065521240e-02
-1.707646995782852173e-01 4.222151339054107666e-01 8.920810371637344360e-02
-1.964740827679634094e-02 -4.207581281661987305e-01 -4.853000938892364502e-01
-1.479941979050636292e-02 -4.332266449928283691e-01 -4.666299819946289062e-01
-2.639983594417572021e-02 -4.163175225257873535e-01 -4.804090261459350586e-01
-2.346702851355075836e-02 -4.283131659030914307e-01 -4.623547494411468506e-01
2.485578209161758423e-01 -6.816384196281433105e-02 3.951187804341316223e-02
2.456969022750854492e-01 -7.827409356832504272e-02 5.608808994293212891e-02
2.497729510068893433e-01 -6.856650859117507935e-02 6.391550600528717041e-02
2.481770962476730347e-01 -8.119121193885803223e-02 8.135209977626800537e-02
-6.483632326126098633e-01 -3.224505186080932617e-01 2.016594260931015015e-01
-6.463296413421630859e-01 -3.215828239917755127e-01 2.189144492149353027e-01
-6.521665453910827637e-01 -3.131493926048278809e-01 2.147729098796844482e-01
-6.497909426689147949e-01 -3.121884763240814209e-01 2.316039800643920898e-01
2.700535655021667480e-01 -5.487944185733795166e-02 3.610710054636001587e-02
2.696638405323028564e-01 -6.261600553989410400e-02 5.254753679037094116e-02
2.704704403877258301e-01 -5.516367033123970032e-02 5.862445011734962463e-02
2.742118537425994873e-01 -6.467315554618835449e-02 7.568226009607315063e-02
5.536326766014099121e-01 -2.327044308185577393e-01 1.182314381003379822e-01
5.463480353355407715e-01 -2.320406436920166016e-01 1.348672956228256226e-01
5.472089648246765137e-01 -2.160350233316421509e-01 1.310926973819732666e-01
5.386259555816650391e-01 -2.166245430707931519e-01 1.457370817661285400e-01
2.044639289379119873e-01 6.144049167633056641e-01 -2.669804692268371582e-01
2.151822000741958618e-01 6.182742118835449219e-01 -2.541958391666412354e-01
1.920843273401260376e-01 6.262275576591491699e-01 -2.623713314533233643e-01
2.035897225141525269e-01 6.305944919586181641e-01 -2.493167072534561157e-01
-3.205754756927490234e-01 -3.441070020198822021e-01 1.163636445999145508e-01
-3.237065970897674561e-01 -3.499497175216674805e-01 1.348941773176193237e-01
-3.147474527359008789e-01 -3.384213149547576904e-01 1.345042735338211060e-01
-3.187669515609741211e-01 -3.433441221714019775e-01 1.527247428894042969e-01
-5.586409568786621094e-02 -2.255073040723800659e-01 -1.429013609886169434e-01
-6.532553583383560181e-02 -2.405133247375488281e-01 -1.387649625539779663e-01
-7.605815678834915161e-02 -2.110701650381088257e-01 -1.427835524082183838e-01
-8.374997228384017944e-02 -2.268262505531311035e-01 -1.365757286548614502e-01
4.070118069648742676e-01 -1.070622280240058899e-01 -1.423239409923553467e-01
4.169422686100006104e-01 -9.682834148406982422e-02 -1.268652230501174927e-01
3.918379247188568115e-01 -9.433366358280181885e-02 -1.256749480962753296e-01
4.015096426010131836e-01 -8.573614060878753662e-02 -1.079776734113693237e-01
-2.536196820437908173e-02 7.600528001785278320e-01 -4.175375998020172119e-01
-1.575188152492046356e-02 7.600251436233520508e-01 -3.961105048656463623e-01
-2.813388779759407043e-02 7.781460285186767578e-01 -4.090304374694824219e-01
-1.846637576818466187e-02 7.778891324996948242e-01 -3.855719268321990967e-01
4.973669052124023438e-01 -2.320862710475921631e-01 1.892641186714172363e-01
4.841918349266052246e-01 -2.335204035043716431e-01 2.024372518062591553e-01
4.878526628017425537e-01 -2.161766588687896729e-01 2.003604769706726074e-01
4.737216830253601074e-01 -2.185871899127960205e-01 2.130031436681747437e-01
2.375055402517318726e-01 -1.371072530746459961e-01 -9.793623536825180054e-02
2.297576367855072021e-01 -1.421630680561065674e-01 -7.721056789159774780e-02
2.234885394573211670e-01 -1.267239302396774292e-01 -9.290547668933868408e-02
2.174277454614639282e-01 -1.322869211435317993e-01 -7.248952239751815796e-02
4.069679677486419678e-01 7.058606743812561035e-01 -8.052628487348556519e-02
4.204317927360534668e-01 7.086579799652099609e-01 -6.472720205783843994e-02
4.024629890918731689e-01 7.226778864860534668e-01 -7.843130081892013550e-02
4.148379266262054443e-01 7.255165576934814453e-01 -6.378785520792007446e-02
4.040490388870239258e-01 1.037420257925987244e-01 -4.110610783100128174e-01
3.952885270118713379e-01 1.013347953557968140e-01 -3.932506740093231201e-01
4.000543653964996338e-01 1.204631626605987549e-01 -3.973543643951416016e-01
3.909325301647186279e-01 1.186549440026283264e-01 -3.795316219329833984e-01
-5.636708438396453857e-02 -3.671926856040954590e-01 5.473750829696655273e-01
-4.989149421453475952e-02 -3.632920682430267334e-01 5.686904788017272949e-01
-6.684998422861099243e-02 -3.602151572704315186e-01 5.649508833885192871e-01
-6.051099300384521484e-02 -3.561400771141052246e-01 5.853684544563293457e-01
4.065867066383361816e-01 -8.212279528379440308e-02 -1.192592754960060120e-01
4.162268638610839844e-01 -7.411378622055053711e-02 -1.017345637083053589e-01
3.927717208862304688e-01 -7.216145098209381104e-02 -1.035142540931701660e-01
4.019612967967987061e-01 -6.414776295423507690e-02 -8.472810685634613037e-02
1.227909252047538757e-01 -3.093703687191009521e-01 4.648828804492950439e-01
1.204833760857582092e-01 -3.141481876373291016e-01 4.807457625865936279e-01
1.302982270717620850e-01 -3.021260797977447510e-01 4.771820306777954102e-01
1.273920983076095581e-01 -3.066788315773010254e-01 4.940594434738159180e-01
-2.292970716953277588e-01 -2.346490770578384399e-01 -2.069612890481948853e-01
-2.147627472877502441e-01 -2.345573306083679199e-01 -1.925500035285949707e-01
-2.217354178428649902e-01 -2.188019007444381714e-01 -2.034329026937484741e-01
-2.073898762464523315e-01 -2.199030965566635132e-01 -1.888467520475387573e-01
4.483672603964805603e-02 8.324492573738098145e-01 -3.480052053928375244e-01
5.418255925178527832e-02 8.323400020599365234e-01 -3.293517529964447021e-01
5.091081559658050537e-02 8.445628285408020020e-01 -3.372711539268493652e-01
5.991923809051513672e-02 8.442135453224182129e-01 -3.198448717594146729e-01
-7.129389047622680664e-02 2.956073284149169922e-01 1.345617920160293579e-01
-7.912698388099670410e-02 2.907038331031799316e-01 1.545538604259490967e-01
-7.071644812822341919e-02 3.115175366401672363e-01 1.484920084476470947e-01
-7.858108729124069214e-02 3.074895441532135010e-01 1.687359213829040527e-01
-3.166633248329162598e-01 -3.389810398221015930e-02 3.516562283039093018e-01
-3.107241690158843994e-01 -3.005266562104225159e-02 3.685758709907531738e-01
-3.231198489665985107e-01 -2.570613473653793335e-02 3.648819923400878906e-01
-3.156006336212158203e-01 -2.200910076498985291e-02 3.815408349037170410e-01
-5.170442461967468262e-01 -4.059972465038299561e-01 7.853300124406814575e-02
-5.165436267852783203e-01 -4.099182486534118652e-01 9.968277812004089355e-02
-5.337080359458923340e-01 -4.051164984703063965e-01 8.743324875831604004e-02
-5.334524512290954590e-01 -4.083893597126007080e-01 1.093654483556747437e-01
4.300600290298461914e-01 -3.986010327935218811e-02 5.701584741473197937e-03
4.370620250701904297e-01 -3.996409103274345398e-02 2.361407130956649780e-02
4.171864688396453857e-01 -3.992233425378799438e-02 2.146971225738525391e-02
4.241616427898406982e-01 -4.063352197408676147e-02 3.946278616786003113e-02
-4.704478383064270020e-01 -4.883826896548271179e-02 4.601794183254241943e-01
-4.745497703552246094e-01 -4.973188787698745728e-02 4.858295321464538574e-01
-4.796735942363739014e-01 -3.031821921467781067e-02 4.756612181663513184e-01
-4.828620254993438721e-01 -3.051778860390186310e-02 4.999534189701080322e-01
2.301714271306991577e-01 -3.246520161628723145e-01 -1.965512335300445557e-01
2.246224433183670044e-01 -3.344739079475402832e-01 -1.736208796501159668e-01
2.238754630088806152e-01 -3.183513581752777100e-01 -1.749132275581359863e-01
2.169069796800613403e-01 -3.284796178340911865e-01 -1.522575765848159790e-01
-7.191527634859085083e-02 -1.343804504722356796e-02 6.243816614151000977e-01
-7.484589517116546631e-02 -2.288708649575710297e-02 6.436788439750671387e-01
-8.706718683242797852e-02 -1.025082729756832123e-02 6.269202232360839844e-01
-8.952012658119201660e-02 -2.049736678600311279e-02 6.460602283477783203e-01
4.461101293563842773e-01 -9.789775311946868896e-02 -4.468171596527099609e-01
4.373697042465209961e-01 -9.971626847982406616e-02 -4.292584955692291260e-01
4.396022260189056396e-01 -8.206184953451156616e-02 -4.329719841480255127e-01
4.295557737350463867e-01 -8.436621725559234619e-02 -4.153710603713989258e-01
4.776835441589355469e-01 1.470109913498163223e-02 -4.929918348789215088e-01
4.698072671890258789e-01 1.119892112910747528e-02 -4.753599464893341064e-01
4.659747779369354248e-01 2.957799099385738373e-02 -4.802403151988983154e-01
4.565972089767456055e-01 2.527827396988868713e-02 -4.624825417995452881e-01
-4.488425850868225098e-01 -3.543358147144317627e-01 -6.445813458412885666e-03
-4.508442282676696777e-01 -3.641897737979888916e-01 1.318193785846233368e-02
-4.710957705974578857e-01 -3.573659658432006836e-01 -1.445523463189601898e-03
-4.736810326576232910e-01 -3.669448792934417725e-01 1.807729713618755341e-02
-2.804971039295196533e-01 3.183432519435882568e-01 4.333086907863616943e-01
-2.877872288227081299e-01 3.137868940830230713e-01 4.490760266780853271e-01
-2.935807406902313232e-01 3.314809799194335938e-01 4.402517676353454590e-01
-3.011894822120666504e-01 3.255876600742340088e-01 4.553831219673156738e-01
-1.120170950889587402e-01 5.762130618095397949e-01 -5.015154480934143066e-01
-1.049059331417083740e-01 5.771880149841308594e-01 -4.821436405181884766e-01
-1.118818968534469604e-01 5.938834547996520996e-01 -4.911226630210876465e-01
-1.052351519465446472e-01 5.962809324264526367e-01 -4.722069501876831055e-01
-2.637277543544769287e-01 -1.477457582950592041e-01 1.503530442714691162e-01
-2.667053043842315674e-01 -1.509662419557571411e-01 1.705758869647979736e-01
-2.744304537773132324e-01 -1.356461793184280396e-01 1.664365231990814209e-01
-2.772196233272552490e-01 -1.377184689044952393e-01 1.850408911705017090e-01
4.684413075447082520e-01 6.604196429252624512e-01 -3.846549242734909058e-02
4.787729084491729736e-01 6.615387797355651855e-01 -1.834332384169101715e-02
4.665417671203613281e-01 6.779475808143615723e-01 -2.190284058451652527e-02
4.765700995922088623e-01 6.801286935806274414e-01 -2.491530030965805054e-03
6.924118101596832275e-02 -2.535049021244049072e-01 3.364771306514739990e-01
8.185551315546035767e-02 -2.608283460140228271e-01 3.504218459129333496e-01
7.283558696508407593e-02 -2.356180697679519653e-01 3.316682577133178711e-01
8.765699714422225952e-02 -2.393032610416412354e-01 3.444047272205352783e-01
9.723281860351562500e-02 -3.019423484802246094e-01 -4.577523469924926758e-01
1.058194935321807861e-01 -3.063727617263793945e-01 -4.388537704944610596e-01
1.108692958950996399e-01 -2.914458513259887695e-01 -4.409111738204956055e-01
1.184872761368751526e-01 -2.961696684360504150e-01 -4.211974143981933594e-01
4.181816577911376953e-01 6.657990813255310059e-01 -7.699884474277496338e-02
4.304963648319244385e-01 6.691291332244873047e-01 -6.275149434804916382e-02
4.111468791961669922e-01 6.826064586639404297e-01 -7.123313844203948975e-02
4.239690899848937988e-01 6.858763694763183594e-01 -5.615898221731185913e-02
2.255833297967910767e-01 -1.014826074242591858e-01 -1.658807545900344849e-01
2.173981070518493652e-01 -1.043259054422378540e-01 -1.466294974088668823e-01
2.139706760644912720e-01 -8.653485774993896484e-02 -1.516806483268737793e-01
2.047468125820159912e-01 -8.878797292709350586e-02 -1.320949196815490723e-01
-6.798988580703735352e-01 -2.679756581783294678e-01 9.534991532564163208e-02
-6.826672554016113281e-01 -2.703276276588439941e-01 1.165485903620719910e-01
-6.858701705932617188e-01 -2.524533271789550781e-01 1.089085862040519714e-01
-6.878876686096191406e-01 -2.552292943000793457e-01 1.294784396886825562e-01
-3.154297471046447754e-01 3.488481640815734863e-01 2.497645616531372070e-01
-3.208949863910675049e-01 3.444120287895202637e-01 2.701138854026794434e-01
-3.221246898174285889e-01 3.598451614379882812e-01 2.651279270648956299e-01
-3.251159191131591797e-01 3.541386127471923828e-01 2.854868173599243164e-01
3.701801598072052002e-01 -1.859034299850463867e-01 2.235771864652633667e-01
3.629418015480041504e-01 -2.008049637079238892e-01 2.292270213365554810e-01
3.562025427818298340e-01 -1.717261970043182373e-01 2.182886302471160889e-01
3.491792082786560059e-01 -1.871561408042907715e-01 2.250779122114181519e-01
2.694358527660369873e-01 2.143938839435577393e-02 -3.240703642368316650e-01
2.668233811855316162e-01 1.903543248772621155e-02 -3.064880967140197754e-01
2.676724791526794434e-01 3.337358310818672180e-02 -3.052258789539337158e-01
2.625941336154937744e-01 2.838311903178691864e-02 -2.880716025829315186e-01
-3.148934245109558105e-01 1.837343871593475342e-01 4.705418050289154053e-01
-3.217692375183105469e-01 1.813380569219589233e-01 4.906545877456665039e-01
-3.290662169456481934e-01 2.000797986984252930e-01 4.813507199287414551e-01
-3.355035483837127686e-01 1.972732394933700562e-01 5.034080147743225098e-01
3.462983965873718262e-01 -1.825241893529891968e-01 -1.842217743396759033e-01
3.264991343021392822e-01 -1.815202385187149048e-01 -1.781616955995559692e-01
3.410224318504333496e-01 -1.651816815137863159e-01 -1.788510084152221680e-01
3.213614523410797119e-01 -1.639676690101623535e-01 -1.712349355220794678e-01
-4.545390903949737549e-01 -4.165544807910919189e-01 1.531385481357574463e-01
-4.506883025169372559e-01 -4.150933325290679932e-01 1.708980351686477661e-01
-4.632749259471893311e-01 -4.116583466529846191e-01 1.777183562517166138e-01
-4.589294493198394775e-01 -4.078683257102966309e-01 1.974223107099533081e-01
4.990764260292053223e-01 -1.513114124536514282e-01 -1.207717284560203552e-01
5.118209719657897949e-01 -1.514686495065689087e-01 -1.052123010158538818e-01
4.985934495925903320e-01 -1.430273503065109253e-01 -1.054305732250213623e-01
5.100816488265991211e-01 -1.420900523662567139e-01 -8.937330543994903564e-02
-3.950009346008300781e-01 2.517447993159294128e-02 3.837302625179290771e-01
-4.072436094284057617e-01 2.140799909830093384e-02 3.927330970764160156e-01
-4.007217884063720703e-01 4.049914330244064331e-02 3.915410637855529785e-01
-4.185057580471038818e-01 3.422237932682037354e-02 4.000863432884216309e-01
1.261650621891021729e-01 -3.239353001117706299e-01 -3.263771533966064453e-01
1.220386624336242676e-01 -3.291590213775634766e-01 -3.054237067699432373e-01
1.265076547861099243e-01 -3.150476813316345215e-01 -3.109266757965087891e-01
1.223238632082939148e-01 -3.198554217815399170e-01 -2.889046669006347656e-01
8.681036531925201416e-02 8.227178454399108887e-01 -3.086329400539398193e-01
9.556709975004196167e-02 8.235469460487365723e-01 -2.969145178794860840e-01
8.677853643894195557e-02 8.371588587760925293e-01 -3.018088042736053467e-01
9.604401141405105591e-02 8.374261260032653809e-01 -2.898826301097869873e-01
3.393260389566421509e-02 4.698525667190551758e-01 1.974386721849441528e-02
2.918179333209991455e-02 4.646766781806945801e-01 3.484483063220977783e-02
2.202045917510986328e-02 4.760293066501617432e-01 3.202089294791221619e-02
1.769114471971988678e-02 4.707512557506561279e-01 4.854416474699974060e-02
-1.836254261434078217e-03 -4.214254915714263916e-01 -2.320430129766464233e-01
-9.801840409636497498e-03 -4.155788719654083252e-01 -2.163546681404113770e-01
-3.048515878617763519e-03 -3.998953402042388916e-01 -2.089829146862030029e-01
-1.479320973157882690e-02 -3.947773575782775879e-01 -1.941918134689331055e-01
2.145911008119583130e-01 1.643049865961074829e-01 -1.772817969322204590e-01
2.079305797815322876e-01 1.627366095781326294e-01 -1.646254807710647583e-01
2.096802443265914917e-01 1.741923838853836060e-01 -1.674703508615493774e-01
1.991682946681976318e-01 1.705531030893325806e-01 -1.562594920396804810e-01
-2.244122475385665894e-01 -2.315144389867782593e-01 5.185900926589965820e-01
-2.219007164239883423e-01 -2.329997271299362183e-01 5.384868979454040527e-01
-2.298426330089569092e-01 -2.158544659614562988e-01 5.284131765365600586e-01
-2.265456169843673706e-01 -2.181884050369262695e-01 5.485988259315490723e-01
2.696521580219268799e-01 -2.522012889385223389e-01 -2.067145258188247681e-01
2.637377381324768066e-01 -2.561275362968444824e-01 -1.866405159235000610e-01
2.582836151123046875e-01 -2.332086712121963501e-01 -2.017086148262023926e-01
2.509355247020721436e-01 -2.368951290845870972e-01 -1.803394854068756104e-01
9.915620088577270508e-02 5.910361409187316895e-01 -3.476395010948181152e-01
1.119445711374282837e-01 5.910224318504333496e-01 -3.326179981231689453e-01
9.503628313541412354e-02 6.038265824317932129e-01 -3.401470482349395752e-01
1.064840033650398254e-01 6.038941740989685059e-01 -3.247065842151641846e-01
4.567035734653472900e-01 7.274772226810455322e-02 -6.212359666824340820e-01
4.758423566818237305e-01 7.474736869335174561e-02 -6.049095988273620605e-01
4.623682200908660889e-01 9.108494222164154053e-02 -6.074660420417785645e-01
4.800987839698791504e-01 9.339713305234909058e-02 -5.922988057136535645e-01
8.936640620231628418e-02 2.624499797821044922e-01 -1.633490771055221558e-01
9.794352948665618896e-02 2.695783972740173340e-01 -1.464434564113616943e-01
8.278548717498779297e-02 2.740456759929656982e-01 -1.513695120811462402e-01
9.003043174743652344e-02 2.813458740711212158e-01 -1.328747123479843140e-01
-7.649715989828109741e-02 5.468490123748779297e-01 -4.807987213134765625e-01
-6.549990922212600708e-02 5.498892068862915039e-01 -4.612050652503967285e-01
-7.820963114500045776e-02 5.680784583091735840e-01 -4.705554842948913574e-01
-6.609916687011718750e-02 5.723600983619689941e-01 -4.525585174560546875e-01
3.201226592063903809e-01 1.864862740039825439e-01 -3.048417568206787109e-01
3.098806142807006836e-01 1.833605170249938965e-01 -2.852427661418914795e-01
3.131429851055145264e-01 2.060384303331375122e-01 -2.903162837028503418e-01
3.034206330776214600e-01 2.034614533185958862e-01 -2.731069922447204590e-01
-6.527753472328186035e-01 -1.107011362910270691e-01 2.232675701379776001e-01
-6.481468677520751953e-01 -1.175948381423950195e-01 2.393177598714828491e-01
-6.427204012870788574e-01 -1.009544059634208679e-01 2.351589500904083252e-01
-6.382668614387512207e-01 -1.083061024546623230e-01 2.511393129825592041e-01
4.412088990211486816e-01 -3.679896295070648193e-01 -1.304169744253158569e-01
4.446781575679779053e-01 -3.843760490417480469e-01 -1.145345941185951233e-01
4.393173754215240479e-01 -3.538413941860198975e-01 -1.390229016542434692e-01
4.403333365917205811e-01 -3.716199696063995361e-01 -1.252342313528060913e-01
1.696370691061019897e-01 -2.428818792104721069e-01 5.409766435623168945e-01
1.610472947359085083e-01 -2.462200522422790527e-01 5.626165270805358887e-01
1.686786413192749023e-01 -2.284200638532638550e-01 5.583742856979370117e-01
1.589500010013580322e-01 -2.313410490751266479e-01 5.805999636650085449e-01
-3.714711964130401611e-01 -2.630398571491241455e-01 -3.260941803455352783e-02
-3.603916466236114502e-01 -2.652664780616760254e-01 -1.704977825284004211e-02
-3.646962642669677734e-01 -2.507798373699188232e-01 -2.650749683380126953e-02
-3.535951673984527588e-01 -2.521045506000518799e-01 -1.303453370928764343e-02
3.096247315406799316e-01 -2.820282578468322754e-01 2.177477031946182251e-01
3.225101232528686523e-01 -2.807567119598388672e-01 2.254408597946166992e-01
3.043081760406494141e-01 -2.625548541545867920e-01 2.217954993247985840e-01
3.173947036266326904e-01 -2.632026970386505127e-01 2.276310920715332031e-01
5.144507288932800293e-01 -2.625031769275665283e-01 -1.307392716407775879e-01
5.257080197334289551e-01 -2.627263665199279785e-01 -1.200637519359588623e-01
5.217492580413818359e-01 -2.471769452095031738e-01 -1.230424717068672180e-01
5.316207408905029297e-01 -2.477010637521743774e-01 -1.116656884551048279e-01
2.419691532850265503e-01 3.144864439964294434e-01 -2.234794646501541138e-01
2.339025884866714478e-01 3.128060400485992432e-01 -2.099131196737289429e-01
2.351207733154296875e-01 3.252128660678863525e-01 -2.121213823556900024e-01
2.273343801498413086e-01 3.237849771976470947e-01 -1.986711025238037109e-01
3.274154961109161377e-01 -1.252210885286331177e-01 1.793131232261657715e-01
3.248253762722015381e-01 -1.378483474254608154e-01 1.920683830976486206e-01
3.191623091697692871e-01 -1.135904118418693542e-01 1.720146089792251587e-01
3.184374570846557617e-01 -1.262972354888916016e-01 1.861597299575805664e-01
-3.712966442108154297e-01 -3.505193293094635010e-01 1.975495368242263794e-02
-3.700398206710815430e-01 -3.589628338813781738e-01 4.133372008800506592e-02
-3.662999272346496582e-01 -3.366928398609161377e-01 3.101164102554321289e-02
-3.610940575599670410e-01 -3.434810340404510498e-01 5.187917128205299377e-02
1.434970647096633911e-01 7.357209324836730957e-01 -2.814124226570129395e-01
1.546875685453414917e-01 7.385133504867553711e-01 -2.638881802558898926e-01
1.417335271835327148e-01 7.554563283920288086e-01 -2.751030921936035156e-01
1.538635939359664917e-01 7.577265501022338867e-01 -2.581500411033630371e-01
1.780857294797897339e-01 -1.333373785018920898e-01 -1.035838127136230469e-01
1.717819571495056152e-01 -1.395755112171173096e-01 -8.344565331935882568e-02
1.748644113540649414e-01 -1.200035437941551208e-01 -9.239367395639419556e-02
1.661873161792755127e-01 -1.243112608790397644e-01 -7.432941347360610962e-02
2.595052421092987061e-01 -2.919429242610931396e-01 1.911203861236572266e-01
2.771930098533630371e-01 -2.838891744613647461e-01 2.034202516078948975e-01
2.525388002395629883e-01 -2.739857435226440430e-01 1.940733194351196289e-01
2.692687809467315674e-01 -2.673202157020568848e-01 2.053235322237014771e-01
-1.515526622533798218e-01 -7.198020070791244507e-02 -3.128356039524078369e-01
-1.384952217340469360e-01 -7.886667549610137939e-02 -2.913853526115417480e-01
-1.559865921735763550e-01 -7.318945974111557007e-02 -2.968035042285919189e-01
-1.424933522939682007e-01 -8.036589622497558594e-02 -2.759561538696289062e-01
2.359608747065067291e-02 -1.560178846120834351e-01 8.340471982955932617e-02
1.381614059209823608e-02 -1.575492024421691895e-01 1.003684103488922119e-01
1.680463925004005432e-02 -1.359596848487854004e-01 9.553965181112289429e-02
7.766509428620338440e-03 -1.378016769886016846e-01 1.126403659582138062e-01
5.757689476013183594e-02 6.769606471061706543e-01 -3.690028190612792969e-01
6.936043500900268555e-02 6.771072745323181152e-01 -3.534918427467346191e-01
6.017499789595603943e-02 6.917958259582519531e-01 -3.607119917869567871e-01
7.192950695753097534e-02 6.922814249992370605e-01 -3.465742170810699463e-01
-5.507213473320007324e-01 -2.324849516153335571e-01 -5.944050475955009460e-02
-5.653395056724548340e-01 -2.394322901964187622e-01 -5.134343728423118591e-02
-5.645434856414794922e-01 -2.173021435737609863e-01 -5.648964270949363708e-02
-5.790951251983642578e-01 -2.228878736495971680e-01 -4.773745313286781311e-02
2.563696801662445068e-01 -1.135127991437911987e-01 -2.074302732944488525e-01
2.487590610980987549e-01 -1.159060969948768616e-01 -1.859989911317825317e-01
2.478388845920562744e-01 -9.889870136976242065e-02 -1.938629895448684692e-01
2.395157963037490845e-01 -1.015955060720443726e-01 -1.725423932075500488e-01
1.738749891519546509e-01 7.329815030097961426e-01 -2.668147683143615723e-01
1.851061582565307617e-01 7.349305748939514160e-01 -2.490089386701583862e-01
1.773135662078857422e-01 7.520790696144104004e-01 -2.579722702503204346e-01
1.889324784278869629e-01 7.551353573799133301e-01 -2.424029260873794556e-01
2.192672640085220337e-01 4.935314059257507324e-01 -1.997996121644973755e-01
2.102684676647186279e-01 4.877519905567169189e-01 -1.793083697557449341e-01
2.036265730857849121e-01 5.026803016662597656e-01 -1.886294484138488770e-01
1.962390244007110596e-01 4.960681200027465820e-01 -1.696384251117706299e-01
-5.044978111982345581e-02 4.615346193313598633e-01 -7.568149268627166748e-02
-5.801381170749664307e-02 4.601842463016510010e-01 -5.910006910562515259e-02
-5.415685474872589111e-02 4.704424440860748291e-01 -6.001894921064376831e-02
-6.141323596239089966e-02 4.692808091640472412e-01 -4.364321380853652954e-02
2.425273656845092773e-01 6.131390333175659180e-01 -2.229907810688018799e-01
2.504394352436065674e-01 6.115376949310302734e-01 -2.011979818344116211e-01
2.413470149040222168e-01 6.286621689796447754e-01 -2.109958380460739136e-01
2.524386644363403320e-01 6.285743713378906250e-01 -1.904380172491073608e-01
-2.384699583053588867e-01 -1.622455418109893799e-01 1.894178390502929688e-01
-2.457651197910308838e-01 -1.641265302896499634e-01 2.050184309482574463e-01
-2.426894009113311768e-01 -1.441605687141418457e-01 1.988927423954010010e-01
-2.505557239055633545e-01 -1.477828472852706909e-01 2.164756357669830322e-01
-1.807253062725067139e-01 8.049603700637817383e-01 -5.317454338073730469e-01
-1.728748977184295654e-01 8.028520941734313965e-01 -5.093020200729370117e-01
-1.863248646259307861e-01 8.260700702667236328e-01 -5.197999477386474609e-01
-1.785066276788711548e-01 8.241919279098510742e-01 -4.960805177688598633e-01
-1.159857511520385742e-01 4.602340161800384521e-01 2.955966070294380188e-02
-1.180855706334114075e-01 4.550619721412658691e-01 4.992269352078437805e-02
-1.199125647544860840e-01 4.692832231521606445e-01 4.629530012607574463e-02
-1.180839017033576965e-01 4.649113118648529053e-01 6.686242669820785522e-02
-7.940022647380828857e-02 -3.637778460979461670e-01 4.441911578178405762e-01
-7.894366234540939331e-02 -3.683928251266479492e-01 4.719134867191314697e-01
-1.005762070417404175e-01 -3.609434366226196289e-01 4.626335799694061279e-01
-9.972906857728958130e-02 -3.656025528907775879e-01 4.892568886280059814e-01
-1.591552421450614929e-02 -4.412041306495666504e-01 -2.519532144069671631e-01
-2.000718936324119568e-02 -4.365307092666625977e-01 -2.343142330646514893e-01
-2.035657316446304321e-02 -4.254466295242309570e-01 -2.277679145336151123e-01
-2.511180192232131958e-02 -4.180092215538024902e-01 -2.102679759263992310e-01
-2.457738667726516724e-02 1.143666636198759079e-02 -2.352361939847469330e-02
-2.157310582697391510e-02 7.638510316610336304e-03 -6.126752123236656189e-03
-3.140961006283760071e-02 1.185372471809387207e-02 -7.101928815245628357e-03
-2.678562700748443604e-02 9.271783754229545593e-03 1.016521826386451721e-02
-1.078612953424453735e-01 6.825272440910339355e-01 -5.088390111923217773e-01
-9.782408177852630615e-02 6.843613386154174805e-01 -4.927518665790557861e-01
-1.086033284664154053e-01 6.952868103981018066e-01 -5.016717910766601562e-01
-9.890308976173400879e-02 6.976624131202697754e-01 -4.860732257366180420e-01
1.935484819114208221e-02 -2.434067241847515106e-02 -1.100215166807174683e-01
1.039382070302963257e-02 -3.029936179518699646e-02 -9.009821712970733643e-02
1.195248402655124664e-02 -1.570470258593559265e-02 -9.355764836072921753e-02
4.639377817511558533e-03 -2.160173654556274414e-02 -7.439193129539489746e-02
-2.486916929483413696e-01 -9.093538671731948853e-02 2.583097219467163086e-01
-2.487006187438964844e-01 -9.259112179279327393e-02 2.794223725795745850e-01
-2.584865093231201172e-01 -7.481157034635543823e-02 2.740009427070617676e-01
-2.552317082881927490e-01 -7.267425954341888428e-02 2.948251366615295410e-01
1.192884594202041626e-01 7.751961946487426758e-01 -2.936794757843017578e-01
1.316373199224472046e-01 7.758534550666809082e-01 -2.797306776046752930e-01
1.214990094304084778e-01 7.918246984481811523e-01 -2.852180898189544678e-01
1.342265903949737549e-01 7.917343378067016602e-01 -2.711033225059509277e-01
-3.751567304134368896e-01 3.590566813945770264e-01 4.198926091194152832e-01
-3.714910149574279785e-01 3.505918383598327637e-01 4.383672773838043213e-01
-3.865555226802825928e-01 3.616751730442047119e-01 4.308589696884155273e-01
-3.850043118000030518e-01 3.517838716506958008e-01 4.506226480007171631e-01
5.255505070090293884e-02 -3.260343670845031738e-01 -2.024111747741699219e-01
4.938432946801185608e-02 -3.298156261444091797e-01 -1.815211921930313110e-01
4.801570996642112732e-02 -3.120906651020050049e-01 -1.919799298048019409e-01
4.786495491862297058e-02 -3.178355991840362549e-01 -1.693017631769180298e-01
-2.590783834457397461e-01 -3.202159106731414795e-01 -4.487389624118804932e-01
-2.631306052207946777e-01 -3.246935606002807617e-01 -4.297273159027099609e-01
-2.680651545524597168e-01 -3.066521584987640381e-01 -4.358970820903778076e-01
-2.719364762306213379e-01 -3.096874058246612549e-01 -4.154118299484252930e-01
1.675110161304473877e-01 -2.393666207790374756e-01 4.491214156150817871e-01
1.688101887702941895e-01 -2.464304417371749878e-01 4.705691635608673096e-01
1.721195578575134277e-01 -2.319661527872085571e-01 4.679685235023498535e-01
1.708880960941314697e-01 -2.380521595478057861e-01 4.901489913463592529e-01
-6.286141276359558105e-01 -1.496018767356872559e-01 -7.572497241199016571e-03
-6.374095082283020020e-01 -1.505974829196929932e-01 8.098126389086246490e-03
-6.377205848693847656e-01 -1.351142972707748413e-01 7.337718270719051361e-03
-6.457611322402954102e-01 -1.364019364118576050e-01 2.470477670431137085e-02
-4.027990400791168213e-01 -7.989668101072311401e-02 3.871465325355529785e-01
-4.143827259540557861e-01 -8.218450099229812622e-02 4.085915684700012207e-01
-4.110976457595825195e-01 -6.633532047271728516e-02 4.033372998237609863e-01
-4.232542216777801514e-01 -6.859643757343292236e-02 4.250154793262481689e-01
5.647737979888916016e-01 -2.986235320568084717e-01 -5.666391178965568542e-02
5.657639503479003906e-01 -3.024459779262542725e-01 -4.003639891743659973e-02
5.689957141876220703e-01 -2.888034284114837646e-01 -4.149049147963523865e-02
5.689027309417724609e-01 -2.926582396030426025e-01 -2.328300103545188904e-02
-2.177331298589706421e-01 -1.459084004163742065e-01 -2.512838840484619141e-01
-2.158024609088897705e-01 -1.554697155952453613e-01 -2.344348728656768799e-01
-2.050013840198516846e-01 -1.405019760131835938e-01 -2.352222055196762085e-01
-2.039278000593185425e-01 -1.499361991882324219e-01 -2.186088263988494873e-01
3.968679904937744141e-01 1.632041931152343750e-01 -5.941930413246154785e-01
3.910262882709503174e-01 1.616008132696151733e-01 -5.808777809143066406e-01
3.926601409912109375e-01 1.880614906549453735e-01 -5.905792117118835449e-01
3.836032152175903320e-01 1.853811442852020264e-01 -5.780420899391174316e-01
-2.185161598026752472e-02 -1.319100707769393921e-01 -5.064777731895446777e-01
-1.215956360101699829e-02 -1.195335015654563904e-01 -4.895777404308319092e-01
-3.644782304763793945e-02 -1.168570518493652344e-01 -4.944292008876800537e-01
-2.851879037916660309e-02 -1.051271781325340271e-01 -4.755192399024963379e-01
-3.431495428085327148e-01 3.847950100898742676e-01 3.045676350593566895e-01
-3.445925712585449219e-01 3.801302611827850342e-01 3.254483938217163086e-01
-3.509767949581146240e-01 3.921185731887817383e-01 3.264000415802001953e-01
-3.485011458396911621e-01 3.883754611015319824e-01 3.481590747833251953e-01
-4.320713281631469727e-01 -5.851779505610466003e-02 4.194203913211822510e-01
-4.418955743312835693e-01 -6.074442714452743530e-02 4.420955777168273926e-01
-4.407779276371002197e-01 -4.545043408870697021e-02 4.291229546070098877e-01
-4.479454159736633301e-01 -4.642987996339797974e-02 4.518925547599792480e-01
-3.847970962524414062e-01 7.048565149307250977e-02 5.773071050643920898e-01
-3.978088498115539551e-01 6.592740863561630249e-02 5.876200199127197266e-01
-3.964801132678985596e-01 8.585527539253234863e-02 5.839636921882629395e-01
-4.100770354270935059e-01 7.936390489339828491e-02 5.932852625846862793e-01
-9.559445083141326904e-02 -3.483564853668212891e-01 4.218727052211761475e-01
-9.717001765966415405e-02 -3.539336919784545898e-01 4.498719573020935059e-01
-1.164949759840965271e-01 -3.442955017089843750e-01 4.387274682521820068e-01
-1.175428256392478943e-01 -3.497211039066314697e-01 4.668399691581726074e-01
5.694515705108642578e-01 -2.297019362449645996e-01 -5.769049003720283508e-02
5.744550228118896484e-01 -2.334427237510681152e-01 -3.929353505373001099e-02
5.731447935104370117e-01 -2.167341560125350952e-01 -4.708278924226760864e-02
5.758475661277770996e-01 -2.201855480670928955e-01 -2.870958484709262848e-02
5.485224351286888123e-02 4.963867962360382080e-01 -3.790655136108398438e-01
6.507352739572525024e-02 4.973704516887664795e-01 -3.614684343338012695e-01
5.458446592092514038e-02 5.137082338333129883e-01 -3.672493398189544678e-01
6.466540694236755371e-02 5.151957273483276367e-01 -3.490616977214813232e-01
-3.635257780551910400e-01 -2.200842201709747314e-01 4.957384765148162842e-01
-3.638437986373901367e-01 -2.192721962928771973e-01 5.122776031494140625e-01
-3.754546344280242920e-01 -2.083849459886550903e-01 5.063897967338562012e-01
-3.729113042354583740e-01 -2.065951675176620483e-01 5.225442051887512207e-01
7.926310598850250244e-02 -9.284266084432601929e-02 5.333515815436840057e-03
7.252737879753112793e-02 -9.504494071006774902e-02 2.267907187342643738e-02
6.965043395757675171e-02 -7.653743773698806763e-02 1.958517730236053467e-02
6.369230151176452637e-02 -7.897341251373291016e-02 3.797941654920578003e-02
8.055801689624786377e-02 -3.251058757305145264e-01 4.197873175144195557e-01
8.078067749738693237e-02 -3.333188891410827637e-01 4.352727830410003662e-01
8.708815276622772217e-02 -3.192528188228607178e-01 4.331936836242675781e-01
8.694571256637573242e-02 -3.274448513984680176e-01 4.484114050865173340e-01
4.495903551578521729e-01 -2.182945907115936279e-01 -1.789799481630325317e-01
4.575792253017425537e-01 -2.193268239498138428e-01 -1.716685593128204346e-01
4.443426728248596191e-01 -1.982094049453735352e-01 -1.751314103603363037e-01
4.546368718147277832e-01 -1.949411779642105103e-01 -1.671574860811233521e-01
-4.726438224315643311e-01 -1.381706297397613525e-01 -6.213529407978057861e-02
-4.715715050697326660e-01 -1.296754330396652222e-01 -5.169516801834106445e-02
-4.823308885097503662e-01 -1.175548732280731201e-01 -5.707709491252899170e-02
-4.860865175724029541e-01 -1.100874990224838257e-01 -4.482905194163322449e-02
4.285964369773864746e-01 -4.491040948778390884e-03 -4.299538135528564453e-01
4.188527464866638184e-01 -6.869327276945114136e-03 -4.145491421222686768e-01
4.224618375301361084e-01 1.357657182961702347e-02 -4.167562425136566162e-01
4.125961959362030029e-01 1.139953173696994781e-02 -4.012281000614166260e-01
4.986138343811035156e-01 -3.349204361438751221e-01 1.597778946161270142e-01
4.883936345577239990e-01 -3.333545923233032227e-01 1.749954968690872192e-01
4.980268776416778564e-01 -3.192379176616668701e-01 1.731815040111541748e-01
4.862759709358215332e-01 -3.173457980155944824e-01 1.877397894859313965e-01
3.909181654453277588e-01 1.682113111019134521e-01 -3.972088694572448730e-01
3.814621567726135254e-01 1.661491096019744873e-01 -3.792827427387237549e-01
3.812308609485626221e-01 1.867575049400329590e-01 -3.837234079837799072e-01
3.720097839832305908e-01 1.848226040601730347e-01 -3.652326464653015137e-01
3.071007505059242249e-02 -3.050943017005920410e-01 -1.824626028537750244e-01
2.812961116433143616e-02 -3.112277090549468994e-01 -1.592936962842941284e-01
2.061811462044715881e-02 -2.911970615386962891e-01 -1.692306995391845703e-01
1.590461097657680511e-02 -2.972982227802276611e-01 -1.469781994819641113e-01
-4.179115891456604004e-01 -2.038555592298507690e-01 3.341018855571746826e-01
-4.301151335239410400e-01 -2.091880440711975098e-01 3.529460132122039795e-01
-4.230459630489349365e-01 -1.876908689737319946e-01 3.452095389366149902e-01
-4.370084106922149658e-01 -1.935715377330780029e-01 3.621765375137329102e-01
2.285807579755783081e-01 -3.240950703620910645e-01 -2.272524833679199219e-01
2.264662235975265503e-01 -3.372832536697387695e-01 -2.048234045505523682e-01
2.337156683206558228e-01 -3.166725635528564453e-01 -2.105846852064132690e-01
2.301715761423110962e-01 -3.275149464607238770e-01 -1.884287893772125244e-01
-1.578247360885143280e-02 5.368914604187011719e-01 -4.459815919399261475e-01
-1.589114312082529068e-03 5.404165983200073242e-01 -4.325376451015472412e-01
-1.980045624077320099e-02 5.551221966743469238e-01 -4.407421350479125977e-01
-5.768623668700456619e-03 5.605332255363464355e-01 -4.271722435951232910e-01
-2.535050511360168457e-01 4.233601093292236328e-01 2.550594508647918701e-01
-2.471307516098022461e-01 4.210847914218902588e-01 2.734627723693847656e-01
-2.661084532737731934e-01 4.248150587081909180e-01 2.728415429592132568e-01
-2.568762302398681641e-01 4.219104647636413574e-01 2.943491637706756592e-01
3.349890708923339844e-01 7.448564171791076660e-01 -1.166789233684539795e-01
3.473018705844879150e-01 7.460744380950927734e-01 -9.780455380678176880e-02
3.352424800395965576e-01 7.648059725761413574e-01 -1.052331402897834778e-01
3.474105000495910645e-01 7.668919563293457031e-01 -8.492599427700042725e-02
1.027658060193061829e-01 -3.707301914691925049e-01 -3.721362948417663574e-01
9.876257181167602539e-02 -3.773483037948608398e-01 -3.525097370147705078e-01
1.097073853015899658e-01 -3.607713878154754639e-01 -3.505877256393432617e-01
1.057771444320678711e-01 -3.672161996364593506e-01 -3.314091265201568604e-01
-6.907822489738464355e-01 -1.436031162738800049e-01 1.371887475252151489e-01
-6.903152465820312500e-01 -1.479863822460174561e-01 1.581643968820571899e-01
-6.807206273078918457e-01 -1.340361833572387695e-01 1.550227105617523193e-01
-6.800941228866577148e-01 -1.382216513156890869e-01 1.749270409345626831e-01
1.002987995743751526e-01 3.651977181434631348e-01 -2.517833113670349121e-01
9.151377528905868530e-02 3.608686029911041260e-01 -2.320565283298492432e-01
9.072287380695343018e-02 3.877375125885009766e-01 -2.408780753612518311e-01
8.160676807165145874e-02 3.838634490966796875e-01 -2.209719717502593994e-01
4.015097022056579590e-01 -4.201162606477737427e-02 -4.430555924773216248e-02
4.100114405155181885e-01 -3.856654092669487000e-02 -2.745585888624191284e-02
3.936999738216400146e-01 -3.602129966020584106e-02 -2.748219296336174011e-02
4.019626080989837646e-01 -3.374882042407989502e-02 -1.103894412517547607e-02
4.835717082023620605e-01 3.275119513273239136e-02 -5.029903054237365723e-01
4.761286377906799316e-01 2.937582507729530334e-02 -4.854347109794616699e-01
4.742593169212341309e-01 5.042940378189086914e-02 -4.893014132976531982e-01
4.646981358528137207e-01 4.613073915243148804e-02 -4.717358052730560303e-01
3.218536972999572754e-01 -9.298847615718841553e-02 -4.228411614894866943e-01
3.285459578037261963e-01 -8.895712345838546753e-02 -4.008722305297851562e-01
3.118475079536437988e-01 -8.033468574285507202e-02 -4.050603806972503662e-01
3.185373246669769287e-01 -7.472313195466995239e-02 -3.840889632701873779e-01
-1.046759262681007385e-01 -2.235727310180664062e-01 3.015766739845275879e-01
-1.162210181355476379e-01 -2.291781157255172729e-01 3.181760311126708984e-01
-1.183876097202301025e-01 -2.090913355350494385e-01 3.091138303279876709e-01
-1.292566061019897461e-01 -2.156440317630767822e-01 3.280391991138458252e-01
-1.292257010936737061e-01 6.330118179321289062e-01 -5.104768276214599609e-01
-1.216207817196846008e-01 6.372715830802917480e-01 -4.938029944896697998e-01
-1.298587620258331299e-01 6.486671566963195801e-01 -5.044558048248291016e-01
-1.214728504419326782e-01 6.530613899230957031e-01 -4.893625378608703613e-01
-1.919912397861480713e-01 -1.969995051622390747e-01 6.214537024497985840e-01
-1.835067123174667358e-01 -1.975051611661911011e-01 6.366980075836181641e-01
-1.946694999933242798e-01 -1.825571507215499878e-01 6.293772459030151367e-01
-1.860855370759963989e-01 -1.840546727180480957e-01 6.439456343650817871e-01
2.430157661437988281e-01 -2.831302881240844727e-01 -2.771751284599304199e-01
2.502393424510955811e-01 -2.867172062397003174e-01 -2.626594305038452148e-01
2.499473690986633301e-01 -2.729708552360534668e-01 -2.698131799697875977e-01
2.570774853229522705e-01 -2.763841748237609863e-01 -2.550716102123260498e-01
4.683462381362915039e-01 -3.891574442386627197e-01 -8.912551403045654297e-02
4.677424430847167969e-01 -4.012636542320251465e-01 -7.094428688287734985e-02
4.804621934890747070e-01 -3.873578906059265137e-01 -6.908137351274490356e-02
4.751703739166259766e-01 -3.972992599010467529e-01 -5.108840763568878174e-02
-3.431155681610107422e-01 -8.595735579729080200e-02 5.230678915977478027e-01
-3.540325462818145752e-01 -8.870990574359893799e-02 5.404216647148132324e-01
-3.507542312145233154e-01 -7.434857636690139771e-02 5.322378277778625488e-01
-3.625068962574005127e-01 -7.711269706487655640e-02 5.495909452438354492e-01
4.337379634380340576e-01 6.767188310623168945e-01 -6.119046732783317566e-02
4.460707604885101318e-01 6.799099445343017578e-01 -4.553573206067085266e-02
4.326570928096771240e-01 6.964479088783264160e-01 -5.216088518500328064e-02
4.460211992263793945e-01 6.986873149871826172e-01 -3.586243838071823120e-02
3.500952124595642090e-01 -2.738265506923198700e-02 -3.655323088169097900e-01
3.479430675506591797e-01 -2.259407937526702881e-02 -3.501267731189727783e-01
3.407562673091888428e-01 -1.218328066170215607e-02 -3.504907786846160889e-01
3.394443392753601074e-01 -6.591829936951398849e-03 -3.350537717342376709e-01
-6.835131049156188965e-01 -1.620720177888870239e-01 8.354823291301727295e-02
-6.871476769447326660e-01 -1.641325652599334717e-01 1.054194271564483643e-01
-6.860975623130798340e-01 -1.494343578815460205e-01 9.965165704488754272e-02
-6.890702843666076660e-01 -1.516097187995910645e-01 1.211173757910728455e-01
1.569165661931037903e-02 7.922089099884033203e-01 -3.587912023067474365e-01
2.551086619496345520e-02 7.937466502189636230e-01 -3.404470384120941162e-01
2.184792794287204742e-02 8.050571680068969727e-01 -3.512509167194366455e-01
3.086476773023605347e-02 8.057826757431030273e-01 -3.331175744533538818e-01
9.000505506992340088e-02 -3.070118129253387451e-01 4.090522825717926025e-01
9.038479626178741455e-02 -3.147791028022766113e-01 4.236299395561218262e-01
9.696251153945922852e-02 -3.018339574337005615e-01 4.195446670055389404e-01
9.727669507265090942e-02 -3.092029392719268799e-01 4.339597523212432861e-01
3.402072191238403320e-02 6.909277439117431641e-01 -3.803003430366516113e-01
4.686494544148445129e-02 6.916149854660034180e-01 -3.658739030361175537e-01
3.508873283863067627e-02 7.063548564910888672e-01 -3.725769817829132080e-01
4.766007512807846069e-02 7.089582681655883789e-01 -3.603267669677734375e-01
3.104228377342224121e-01 2.886370420455932617e-01 -5.023220777511596680e-01
3.006249070167541504e-01 2.872502505779266357e-01 -4.875430464744567871e-01
3.027964532375335693e-01 3.033949136734008789e-01 -4.908160567283630371e-01
2.939855456352233887e-01 3.022396862506866455e-01 -4.760384857654571533e-01
-4.257671535015106201e-02 4.422379136085510254e-01 1.153816208243370056e-01
-4.678236693143844604e-02 4.348689019680023193e-01 1.347225308418273926e-01
-5.551350861787796021e-02 4.550344944000244141e-01 1.337224394083023071e-01
-6.071911007165908813e-02 4.478489458560943604e-01 1.523394286632537842e-01
4.188664257526397705e-01 -3.655386716127395630e-02 5.682791769504547119e-02
4.238500297069549561e-01 -4.011657461524009705e-02 7.465963065624237061e-02
4.034875929355621338e-01 -3.532837331295013428e-02 6.825389713048934937e-02
4.090737700462341309e-01 -3.829258307814598083e-02 8.601152151823043823e-02
1.636586152017116547e-02 -4.474470913410186768e-01 -3.717387020587921143e-01
2.026048116385936737e-02 -4.524178504943847656e-01 -3.523891568183898926e-01
1.362337358295917511e-02 -4.477734863758087158e-01 -3.451905548572540283e-01
1.211435906589031219e-02 -4.503533542156219482e-01 -3.268395364284515381e-01
2.991974353790283203e-01 -7.461519539356231689e-02 1.129260286688804626e-01
3.018596470355987549e-01 -8.929929882287979126e-02 1.326249986886978149e-01
3.020455539226531982e-01 -7.412490993738174438e-02 1.351982057094573975e-01
3.038350939750671387e-01 -8.868988603353500366e-02 1.545072197914123535e-01
-4.311376065015792847e-02 -5.593073554337024689e-03 2.009519562125205994e-02
-3.577417880296707153e-02 -8.331545628607273102e-03 3.545451909303665161e-02
-5.482189729809761047e-02 -1.076505985110998154e-02 3.444242849946022034e-02
-4.638068750500679016e-02 -1.477373577654361725e-02 4.846824333071708679e-02
2.520732879638671875e-01 2.705903947353363037e-01 -2.333318889141082764e-01
2.432064563035964966e-01 2.682333290576934814e-01 -2.184373289346694946e-01
2.443259805440902710e-01 2.820932865142822266e-01 -2.230514585971832275e-01
2.359882742166519165e-01 2.799652814865112305e-01 -2.088517695665359497e-01
-2.388381212949752808e-02 -7.691954821348190308e-02 -7.296603918075561523e-02
-3.538280352950096130e-02 -7.920171320438385010e-02 -5.391914397478103638e-02
-3.117938339710235596e-02 -6.421286612749099731e-02 -5.866916105151176453e-02
-4.207407310605049133e-02 -6.674887239933013916e-02 -3.986635059118270874e-02
1.447744220495223999e-01 7.918980121612548828e-01 -2.586969435214996338e-01
1.565678119659423828e-01 7.929235696792602539e-01 -2.452391684055328369e-01
1.433865725994110107e-01 8.114261627197265625e-01 -2.521114349365234375e-01
1.540658921003341675e-01 8.128584623336791992e-01 -2.379918992519378662e-01
4.455714821815490723e-01 7.749567031860351562e-01 -2.585793100297451019e-02
4.551428854465484619e-01 7.781009078025817871e-01 -1.359251979738473892e-02
4.428884685039520264e-01 7.979906797409057617e-01 -2.126971632242202759e-02
4.521138072013854980e-01 8.015163540840148926e-01 -7.710860110819339752e-03
-3.080690801143646240e-01 1.762831509113311768e-01 3.918992280960083008e-01
-3.121686577796936035e-01 1.720767915248870850e-01 4.099455177783966064e-01
-3.073600232601165771e-01 1.839331686496734619e-01 4.078870117664337158e-01
-3.109114468097686768e-01 1.810834109783172607e-01 4.265592098236083984e-01
-6.478886604309082031e-01 -8.404470235109329224e-02 1.731315553188323975e-01
-6.494891643524169922e-01 -9.061472862958908081e-02 1.907787472009658813e-01
-6.417200565338134766e-01 -7.818450778722763062e-02 1.881417930126190186e-01
-6.423244476318359375e-01 -8.512147516012191772e-02 2.055499404668807983e-01
1.205809488892555237e-01 6.981127858161926270e-01 -3.027694821357727051e-01
1.301629543304443359e-01 7.006336450576782227e-01 -2.877848148345947266e-01
1.187065541744232178e-01 7.220562100410461426e-01 -2.954325973987579346e-01
1.301016956567764282e-01 7.246305346488952637e-01 -2.807858586311340332e-01
-4.356772601604461670e-01 -2.772173285484313965e-01 3.324584066867828369e-01
-4.522817730903625488e-01 -2.767677903175354004e-01 3.424676954746246338e-01
-4.455284476280212402e-01 -2.540330290794372559e-01 3.399807810783386230e-01
-4.637891948223114014e-01 -2.613310813903808594e-01 3.478161692619323730e-01
