-3.022310000000000274e-01 1.750109999999999999e-01 4.305769999999999875e-01
-1.067789999999999989e-01 4.689380000000000215e-01 3.702300000000000035e-02
-1.195569999999999966e-01 -1.734570000000000001e-01 6.895850000000000035e-01
-6.380000000000000115e-01 -3.316200000000000259e-01 6.539999999999999980e-02
-3.650740000000000096e-01 -2.321630000000000082e-01 3.583779999999999744e-01
-1.217970000000000025e-01 -4.097700000000000231e-01 -4.957989999999999897e-01
-2.904720000000000080e-01 -5.751599999999999768e-02 3.406460000000000043e-01
-9.489999999999999825e-02 4.102990000000000248e-01 -1.063799999999999989e-02
-3.489110000000000267e-01 1.446860000000000090e-01 5.235419999999999519e-01
2.782999999999999918e-01 1.309300000000000047e-02 -3.478530000000000233e-01
-5.899769999999999737e-01 -3.884210000000000163e-01 1.506280000000000119e-01
3.362010000000000276e-01 -4.277590000000000003e-01 1.080850000000000005e-01
4.694530000000000092e-01 6.158299999999999885e-02 -4.803089999999999860e-01
2.597050000000000192e-01 5.906160000000000299e-01 -2.231360000000000010e-01
3.461119999999999752e-01 1.997600000000000070e-02 -5.277340000000000364e-01
1.871200000000000085e-01 4.222020000000000217e-01 -1.584369999999999945e-01
-2.147469999999999934e-01 -2.232729999999999992e-01 5.807609999999999717e-01
1.700069999999999915e-01 3.750859999999999750e-01 -1.341859999999999997e-01
-1.526600000000000006e-02 3.150519999999999987e-01 -5.319499999999999923e-02
1.583819999999999950e-01 -2.338890000000000136e-01 3.064300000000000010e-02
2.683030000000000137e-01 4.104940000000000255e-01 -4.564159999999999884e-01
1.044220000000000009e-01 -1.170920000000000016e-01 -2.252800000000000080e-01
-2.678559999999999830e-01 -2.531599999999999961e-01 -2.626479999999999926e-01
3.586829999999999741e-01 -2.791489999999999805e-01 2.297849999999999893e-01
4.946079999999999921e-01 -7.508700000000000097e-02 -2.754900000000000057e-02
4.269990000000000174e-01 -1.492509999999999948e-01 -1.611559999999999937e-01
3.209640000000000271e-01 -6.447700000000000653e-02 -3.845509999999999762e-01
1.654690000000000050e-01 -9.437299999999999855e-02 4.533019999999999827e-01
-3.732409999999999894e-01 -4.159000000000000197e-02 5.500700000000000034e-02
2.654750000000000165e-01 5.437009999999999899e-01 -2.653920000000000168e-01
-7.145600000000000562e-02 -1.340200000000000002e-01 -5.211810000000000054e-01
-3.118349999999999733e-01 3.771269999999999900e-01 4.363960000000000061e-01
1.626910000000000023e-01 -2.429640000000000133e-01 4.529699999999999838e-01
7.723700000000000010e-02 -2.338020000000000098e-01 3.339770000000000238e-01
-5.352540000000000076e-01 -3.433280000000000221e-01 2.957009999999999916e-01
-8.768499999999999905e-02 4.311180000000000012e-01 1.779969999999999886e-01
1.182499999999999940e-01 7.977880000000000527e-01 -3.064200000000000257e-01
3.599600000000000022e-02 3.209790000000000143e-01 1.020100000000000000e-02
-1.493760000000000088e-01 -7.155400000000000649e-02 -2.987560000000000215e-01
-2.908939999999999859e-01 4.151340000000000030e-01 2.679570000000000007e-01
-5.540310000000000512e-01 -1.786689999999999945e-01 3.408700000000000063e-01
-5.097289999999999877e-01 -1.260200000000000035e-02 2.284809999999999897e-01
-2.480620000000000047e-01 3.467310000000000114e-01 3.869900000000000007e-01
-3.555079999999999907e-01 3.249980000000000091e-01 3.162249999999999783e-01
6.892999999999999822e-03 -2.536359999999999726e-01 -5.413219999999999699e-01
-2.318280000000000063e-01 2.377329999999999999e-01 2.353379999999999916e-01
4.600600000000000245e-01 -3.478189999999999893e-01 1.849629999999999885e-01
1.436439999999999939e-01 -1.531959999999999988e-01 3.791570000000000218e-01
-7.439099999999999879e-02 -3.600240000000000107e-01 5.598509999999999875e-01
4.019500000000000156e-02 -3.402689999999999881e-01 -8.385299999999999698e-02
1.333310000000000051e-01 -2.547309999999999852e-01 -3.722159999999999913e-01
-1.232680000000000026e-01 -2.707180000000000142e-01 2.774940000000000184e-01
-9.253599999999999326e-02 -2.958689999999999931e-01 7.872400000000000231e-02
1.913779999999999926e-01 6.353469999999999951e-01 -2.722640000000000060e-01
-1.323600000000000054e-01 -2.887120000000000242e-01 -1.481149999999999967e-01
-6.265099999999999836e-02 -3.652050000000000018e-01 5.465360000000000218e-01
1.336269999999999958e-01 -2.755179999999999851e-01 -3.613549999999999818e-01
-2.784240000000000048e-01 -1.714430000000000121e-01 7.600800000000000611e-02
-3.086599999999999899e-01 -2.714790000000000258e-01 2.943890000000000118e-01
1.387809999999999877e-01 8.638299999999999867e-01 -2.700790000000000135e-01
-6.284920000000000506e-01 -5.131700000000000150e-02 1.451230000000000020e-01
2.573610000000000064e-01 1.108289999999999970e-01 -4.253390000000000226e-01
-1.473140000000000005e-01 7.889979999999999771e-01 -5.215140000000000331e-01
5.190709999999999491e-01 -1.387510000000000132e-01 -8.954299999999999760e-02
4.095099999999999851e-01 1.847739999999999938e-01 -6.006860000000000532e-01
2.630060000000000175e-01 3.467160000000000242e-01 -2.479069999999999885e-01
-6.359099999999999475e-02 -8.888999999999999679e-02 1.895830000000000015e-01
-2.064370000000000094e-01 -3.300379999999999980e-01 -5.062569999999999570e-01
2.609079999999999733e-01 -2.540999999999999925e-01 -2.716839999999999811e-01
2.358049999999999868e-01 -3.989329999999999821e-01 -5.120000000000000419e-03
4.369810000000000083e-01 1.622770000000000046e-01 -4.483530000000000015e-01
3.477480000000000016e-01 -3.307500000000000023e-02 -1.065299999999999928e-02
4.586900000000000005e-02 -3.598109999999999919e-01 5.004250000000000087e-01
2.024499999999999911e-02 7.177750000000000519e-01 -3.586929999999999841e-01
-6.187129999999999574e-01 -1.024159999999999932e-01 2.648159999999999958e-01
4.840240000000000098e-01 -2.721100000000000185e-01 2.037160000000000082e-01
4.334099999999999758e-02 6.757589999999999986e-01 -3.455480000000000218e-01
1.047479999999999939e-01 -3.111320000000000197e-01 4.364569999999999839e-01
2.984800000000000231e-01 -3.739629999999999899e-01 -1.249809999999999949e-01
-2.662099999999999883e-02 2.569199999999999956e-02 4.278089999999999948e-01
4.495370000000000199e-01 2.865960000000000174e-01 -5.270749999999999602e-01
1.056590000000000029e-01 -8.182399999999999396e-02 6.482970000000000121e-01
-5.092210000000000347e-01 2.164000000000000125e-03 1.792459999999999887e-01
2.068899999999999906e-01 3.454900000000000193e-01 -1.780549999999999911e-01
-3.938670000000000226e-01 -2.189119999999999955e-01 4.863129999999999953e-01
1.697700000000000042e-01 2.881480000000000152e-01 -1.305389999999999884e-01
2.135660000000000058e-01 -5.841999999999999971e-02 -2.790969999999999840e-01
1.453280000000000127e-01 6.419820000000000526e-01 -3.085510000000000197e-01
7.598599999999999799e-02 2.908499999999999974e-02 -1.608370000000000077e-01
-3.602509999999999879e-01 -6.863800000000000456e-02 3.416339999999999932e-01
-1.257359999999999867e-01 4.639820000000000055e-01 9.932900000000000063e-02
-2.997139999999999804e-01 -9.181999999999999884e-02 2.858700000000000130e-01
-1.979910000000000003e-01 -3.235399999999999943e-01 -5.159340000000000037e-01
1.133100000000000079e-02 4.681879999999999931e-01 4.823399999999999910e-02
3.812960000000000238e-01 4.285019999999999940e-01 -4.414770000000000083e-01
-4.391510000000000136e-01 1.730540000000000134e-01 4.268930000000000224e-01
3.702159999999999895e-01 1.699650000000000050e-01 -3.667489999999999917e-01
-1.520350000000000035e-01 -4.301550000000000096e-01 -2.478009999999999935e-01
7.438500000000000667e-02 -1.954059999999999964e-01 3.166490000000000138e-01
7.574100000000000277e-02 2.599599999999999828e-02 -1.847080000000000111e-01
-2.582249999999999823e-01 -1.552030000000000076e-01 -3.323990000000000000e-01
-1.638020000000000032e-01 2.806089999999999973e-01 1.182359999999999939e-01
3.042850000000000277e-01 -2.792000000000000211e-03 -4.751920000000000033e-01
2.226519999999999888e-01 2.909499999999999933e-02 -3.420849999999999724e-01
3.465440000000000187e-01 -8.231199999999999628e-02 -5.192229999999999901e-01
4.881969999999999921e-01 -1.196009999999999990e-01 -1.057400000000000007e-01
1.839480000000000004e-01 8.252479999999999816e-01 -2.122050000000000047e-01
1.116830000000000045e-01 -2.999470000000000192e-01 4.279439999999999911e-01
-5.963899999999999757e-01 -3.402000000000000163e-02 1.871960000000000013e-01
-6.187660000000000382e-01 -3.377939999999999832e-01 2.365359999999999963e-01
-3.895370000000000221e-01 2.102899999999999908e-02 5.814150000000000151e-01
1.282480000000000009e-01 6.869499999999999496e-01 -2.758639999999999981e-01
-3.281620000000000092e-01 3.643700000000000272e-01 4.575830000000000175e-01
2.519129999999999980e-01 -1.222830000000000028e-01 -1.058619999999999978e-01
2.252720000000000000e-01 -3.083359999999999990e-01 -1.313779999999999948e-01
3.901000000000000023e-01 8.305949999999999722e-01 -8.247200000000000364e-02
1.227089999999999986e-01 -1.383880000000000110e-01 6.465130000000000043e-01
4.582149999999999834e-01 1.550660000000000094e-01 -4.739639999999999964e-01
-4.565400000000000014e-01 1.523990000000000067e-01 5.654179999999999762e-01
6.685199999999999476e-02 -3.229299999999999948e-01 -1.969410000000000049e-01
1.710059999999999913e-01 -1.969809999999999894e-01 5.808889999999999887e-01
-4.829599999999999865e-02 -7.524000000000000306e-03 -2.176700000000000162e-02
-3.430090000000000083e-01 1.589049999999999907e-01 5.150470000000000326e-01
3.595799999999999691e-02 -2.669329999999999758e-01 8.204000000000000181e-02
-6.946599999999999997e-02 4.093189999999999884e-01 1.609829999999999872e-01
1.071399999999999991e-01 6.276150000000000340e-01 -3.404400000000000204e-01
-3.866699999999999998e-02 -1.031989999999999991e-01 1.585570000000000035e-01
-2.391389999999999905e-01 -3.805959999999999899e-01 -4.228770000000000029e-01
-1.077800000000000008e-01 -9.251700000000000201e-02 -4.780119999999999925e-01
2.858530000000000237e-01 5.290749999999999620e-01 -1.711940000000000128e-01
9.070999999999999203e-03 4.427019999999999844e-01 6.058499999999999996e-02
-4.028600000000000236e-02 -3.979300000000000198e-02 1.063680000000000042e-01
3.872450000000000059e-01 5.545769999999999866e-01 -8.629399999999999571e-02
-5.219629999999999548e-01 -8.175499999999999434e-02 -2.815700000000000147e-02
3.900560000000000138e-01 1.784270000000000023e-01 -3.918010000000000104e-01
-3.828409999999999869e-01 -1.901200000000000112e-01 5.271850000000000147e-01
-1.990879999999999872e-01 6.971659999999999524e-01 -5.483740000000000281e-01
1.081479999999999941e-01 1.218690000000000051e-01 -1.953660000000000119e-01
-2.505240000000000244e-01 -3.810640000000000138e-01 -3.299560000000000271e-01
1.615800000000000014e-01 -3.639800000000000257e-01 -1.380429999999999990e-01
1.166399999999999937e-01 8.327809999999999935e-01 -2.943999999999999950e-01
-2.295260000000000078e-01 -2.304499999999999882e-01 -4.894950000000000134e-01
4.587669999999999804e-01 5.342789999999999484e-01 -6.920400000000000162e-02
8.593900000000000150e-02 4.486399999999999832e-01 -2.362710000000000088e-01
-7.953999999999999265e-03 -1.622200000000000031e-01 7.127700000000000147e-01
4.076899999999999968e-02 -1.793480000000000074e-01 -1.449030000000000040e-01
-1.331440000000000123e-01 6.455480000000000107e-01 -5.320230000000000237e-01
5.727299999999999752e-02 3.093969999999999776e-01 -1.933400000000000118e-01
3.017960000000000087e-01 1.952639999999999931e-01 -4.851949999999999874e-01
3.794060000000000210e-01 1.214640000000000025e-01 -3.740709999999999869e-01
-9.812099999999999989e-02 8.034689999999999888e-01 -4.501370000000000093e-01
5.795590000000000463e-01 -2.386449999999999960e-01 -1.869399999999999881e-02
3.835520000000000040e-01 -7.718800000000000661e-02 -3.812999999999999723e-01
1.161969999999999947e-01 -8.906300000000000328e-02 -3.187099999999999655e-02
2.523839999999999972e-01 -8.588000000000000148e-03 -2.259809999999999874e-01
3.086799999999999961e-02 -1.338630000000000098e-01 3.082599999999999785e-01
8.559000000000000635e-03 -3.670500000000000151e-02 3.469459999999999766e-01
4.693590000000000262e-01 -1.399539999999999951e-01 -4.958460000000000090e-01
3.647600000000000148e-02 -2.225239999999999996e-01 6.956179999999999586e-01
-5.793760000000000021e-01 -1.200119999999999937e-01 -2.939599999999999852e-02
1.446630000000000138e-01 5.189080000000000359e-01 -1.138919999999999932e-01
1.340590000000000115e-01 -2.964519999999999933e-01 4.687299999999999800e-01
3.591440000000000188e-01 1.873539999999999928e-01 -3.546050000000000035e-01
-2.915269999999999806e-01 -7.267800000000000649e-02 4.687009999999999788e-01
1.638570000000000026e-01 -1.109610000000000041e-01 5.869710000000000205e-01
1.042099999999999971e-02 -2.993290000000000117e-01 3.470980000000000176e-01
-7.054599999999999760e-02 -5.125600000000000295e-02 -3.230870000000000131e-01
4.145909999999999873e-01 5.891539999999999555e-01 -9.830200000000000049e-02
2.532600000000000129e-02 4.980510000000000215e-01 -4.255229999999999846e-01
-5.976770000000000138e-01 -3.821510000000000185e-01 1.632979999999999987e-01
3.327999999999999795e-03 5.075720000000000232e-01 -4.776099999999999790e-02
-7.937800000000000411e-02 6.428390000000000493e-01 -4.496370000000000089e-01
-4.177969999999999740e-01 -4.007609999999999784e-01 1.061180000000000040e-01
-1.152989999999999987e-01 6.113499999999999490e-01 -4.833270000000000066e-01
-1.219210000000000016e-01 2.983489999999999753e-01 3.218300000000000327e-02
-8.757900000000000407e-02 -2.683459999999999734e-01 -1.368489999999999984e-01
-2.133740000000000081e-01 -1.717160000000000075e-01 1.662460000000000049e-01
4.212090000000000001e-01 8.120460000000000456e-01 -2.297300000000000036e-02
3.661159999999999970e-01 5.239610000000000101e-01 -1.075060000000000043e-01
-4.841900000000000093e-01 -1.670520000000000060e-01 -6.766800000000000592e-02
5.099609999999999976e-01 -6.731499999999999984e-02 -5.482829999999999648e-01
-1.720430000000000015e-01 -4.421439999999999815e-01 -4.139050000000000229e-01
2.458339999999999970e-01 6.841899999999999371e-02 -4.083370000000000055e-01
3.975710000000000077e-01 3.602810000000000179e-01 -5.138350000000000417e-01
4.760559999999999792e-01 5.636569999999999636e-01 -5.016299999999999926e-02
8.648200000000000331e-02 -1.267919999999999880e-01 -2.970409999999999995e-01
3.658299999999999885e-01 -3.202900000000000191e-02 4.955799999999999789e-02
2.323550000000000060e-01 -1.421499999999999986e-01 -2.984519999999999951e-01
3.338130000000000264e-01 -4.246500000000000274e-01 1.138399999999999967e-01
-2.966539999999999733e-01 -2.794369999999999910e-01 6.032900000000000068e-02
-2.039050000000000029e-01 4.415560000000000040e-01 1.895519999999999983e-01
-2.783340000000000258e-01 3.051599999999999868e-01 2.218870000000000009e-01
1.557979999999999920e-01 -6.472899999999999487e-02 5.546299999999999564e-01
-1.706099999999999978e-02 -4.059440000000000270e-01 -4.940320000000000267e-01
-6.075460000000000305e-01 -2.267909999999999926e-01 -2.774899999999999936e-02
-6.504539999999999766e-01 -2.328419999999999934e-01 2.432899999999999993e-02
-6.589570000000000149e-01 -8.970599999999999408e-02 1.416779999999999984e-01
8.266400000000000137e-02 -3.564809999999999923e-01 -9.820600000000000163e-02
2.697080000000000033e-01 -4.209579999999999989e-01 -9.173000000000000598e-03
4.136319999999999997e-01 -5.697699999999999987e-02 1.213140000000000052e-01
-1.230389999999999956e-01 -1.080610000000000043e-01 -2.121979999999999977e-01
-6.567159999999999664e-01 -8.720999999999999586e-02 1.537000000000000033e-01
-2.538119999999999821e-01 -6.071000000000000008e-02 3.962550000000000239e-01
-1.146139999999999937e-01 4.425870000000000082e-01 1.556500000000000071e-02
-1.668090000000000128e-01 -7.179900000000000171e-02 -3.738870000000000249e-01
-1.931509999999999894e-01 7.990690000000000293e-01 -5.331919999999999993e-01
-3.680579999999999963e-01 3.299499999999999655e-02 5.544219999999999704e-01
2.795799999999999952e-01 2.331700000000000092e-02 -3.188509999999999955e-01
-1.975000000000000089e-01 -1.302159999999999984e-01 -2.411550000000000082e-01
-4.048169999999999824e-01 -1.544919999999999904e-01 3.362589999999999746e-01
4.589499999999999830e-02 -3.247389999999999999e-01 -1.348630000000000106e-01
-4.319760000000000266e-01 -4.041390000000000260e-01 1.946930000000000049e-01
2.962730000000000086e-01 -2.501380000000000270e-01 -1.765089999999999992e-01
-1.615759999999999974e-01 2.882939999999999947e-01 2.832919999999999883e-01
8.786800000000000166e-02 -3.934380000000000099e-01 -3.611480000000000246e-01
2.796540000000000137e-01 1.078690000000000065e-01 -4.522829999999999906e-01
1.331809999999999938e-01 6.610139999999999905e-01 -2.754309999999999814e-01
1.125830000000000025e-01 6.767830000000000235e-01 -3.289790000000000214e-01
3.329280000000000017e-01 -1.801740000000000008e-01 2.179260000000000086e-01
-8.087800000000000544e-02 4.662870000000000070e-01 1.150169999999999942e-01
-1.849739999999999995e-01 -1.558239999999999903e-01 6.359540000000000193e-01
2.945169999999999733e-01 -4.356920000000000237e-01 3.371799999999999797e-02
4.836190000000000211e-01 6.652890000000000192e-01 -3.130800000000000249e-02
1.633610000000000062e-01 -2.583159999999999901e-01 5.285050000000000026e-01
9.090099999999999569e-02 7.835910000000000375e-01 -3.305859999999999910e-01
-1.606879999999999975e-01 -1.765699999999999908e-02 4.370740000000000181e-01
-3.687819999999999987e-01 -2.201720000000000066e-01 3.617940000000000045e-01
-3.792909999999999893e-01 -3.896359999999999824e-01 1.434499999999999942e-01
-6.204389999999999628e-01 -8.410099999999999520e-02 2.426619999999999888e-01
1.828629999999999978e-01 -3.504399999999999737e-01 -1.163479999999999931e-01
-1.750009999999999899e-01 -1.931680000000000064e-01 1.220139999999999975e-01
3.349369999999999847e-01 -5.758400000000000324e-02 -3.682400000000000118e-01
6.243300000000000238e-02 -1.595640000000000114e-01 -1.748450000000000004e-01
5.639910000000000201e-01 -1.812759999999999927e-01 -4.566200000000000120e-02
3.512759999999999772e-01 1.402720000000000078e-01 -5.417589999999999906e-01
5.806959999999999900e-01 -2.771959999999999980e-01 2.290100000000000122e-02
1.306900000000000076e-02 7.425610000000000266e-01 -3.612730000000000108e-01
1.387649999999999995e-01 -1.571269999999999889e-01 3.728549999999999920e-01
4.886360000000000148e-01 -2.951440000000000174e-01 -1.424570000000000003e-01
1.811850000000000127e-01 4.157959999999999989e-01 -3.514789999999999859e-01
9.647400000000000420e-02 -2.693300000000000138e-01 -4.661319999999999908e-01
-4.474600000000000105e-02 -9.612900000000000611e-02 3.076690000000000258e-01
-1.252959999999999907e-01 5.999929999999999986e-01 -4.930620000000000003e-01
-4.271999999999999756e-03 -9.692000000000000615e-02 -4.617120000000000113e-01
-1.557360000000000133e-01 3.548359999999999848e-01 2.720199999999999840e-01
3.887630000000000252e-01 -5.440000000000000391e-03 -5.766189999999999927e-01
-3.846919999999999784e-01 1.682240000000000124e-01 5.669600000000000195e-01
3.101419999999999733e-01 7.279379999999999740e-01 -1.246410000000000018e-01
4.333139999999999770e-01 8.319619999999999793e-01 -1.072500000000000016e-02
3.727420000000000178e-01 -6.610299999999999510e-02 -9.815799999999999526e-02
-1.939379999999999993e-01 4.444080000000000252e-01 1.752479999999999871e-01
-8.566000000000000697e-03 -3.183630000000000071e-01 -1.744899999999999923e-02
-2.883080000000000087e-01 2.051510000000000000e-01 4.108720000000000150e-01
2.742689999999999850e-01 -4.168239999999999723e-01 -3.948800000000000227e-02
-1.426169999999999938e-01 7.430010000000000225e-01 -4.865949999999999998e-01
4.055759999999999921e-01 5.239190000000000236e-01 -7.572399999999999964e-02
1.003140000000000004e-01 5.288260000000000183e-01 -8.903899999999999315e-02
-3.125839999999999730e-01 -7.774300000000000654e-02 1.092280000000000056e-01
5.522730000000000139e-01 -1.301619999999999999e-01 4.554600000000000315e-02
4.964189999999999992e-01 -9.423499999999999932e-02 1.149759999999999949e-01
-1.187809999999999977e-01 -1.100629999999999942e-01 -4.962790000000000257e-01
-2.490110000000000101e-01 -1.241929999999999978e-01 2.069169999999999898e-01
4.474759999999999849e-01 1.386769999999999947e-01 -4.594050000000000078e-01
2.186000000000000009e-03 7.688629999999999631e-01 -4.038740000000000108e-01
1.327260000000000106e-01 4.889720000000000177e-01 -3.196390000000000065e-01
6.299999999999999990e-05 -3.328849999999999865e-01 6.237510000000000554e-01
2.928359999999999852e-01 3.608750000000000013e-01 -4.843680000000000208e-01
2.057390000000000052e-01 5.046000000000000138e-03 -3.001349999999999851e-01
-5.936810000000000143e-01 -3.865669999999999940e-01 1.518500000000000127e-01
1.071909999999999946e-01 -9.086800000000000432e-02 -2.060100000000000126e-02
3.031619999999999870e-01 8.595500000000000362e-02 -4.794939999999999758e-01
-5.282900000000000373e-01 -2.785560000000000258e-01 -5.134899999999999881e-02
4.434279999999999888e-01 -3.986900000000000166e-02 3.008200000000000110e-02
-1.105410000000000004e-01 -1.528750000000000109e-01 4.116899999999999726e-02
-6.703569999999999807e-01 -2.696649999999999880e-01 6.053499999999999853e-02
4.401820000000000177e-01 -1.122670000000000057e-01 -4.366200000000000081e-01
5.307500000000000551e-01 -3.277079999999999993e-01 1.334559999999999913e-01
-5.159240000000000492e-01 -1.729110000000000091e-01 -6.569099999999999939e-02
4.308660000000000267e-01 6.396429999999999616e-01 -4.032000000000000167e-02
-1.942709999999999992e-01 -8.946199999999999986e-02 3.229730000000000101e-01
2.017849999999999921e-01 -2.159590000000000121e-01 1.456959999999999922e-01
5.442600000000000215e-02 -2.731870000000000132e-01 3.430500000000000216e-01
-9.406299999999999384e-02 -1.011959999999999943e-01 1.974199999999999913e-02
-4.198899999999999855e-02 -1.076919999999999961e-01 3.041050000000000142e-01
3.622600000000000264e-01 -1.255139999999999867e-01 -1.573259999999999936e-01
-5.032649999999999624e-01 -1.241130000000000011e-01 3.387749999999999928e-01
3.121490000000000098e-01 4.475750000000000006e-01 -3.147039999999999837e-01
-3.826500000000000040e-02 7.382079999999999753e-01 -4.421769999999999867e-01
1.833819999999999895e-01 -1.269190000000000040e-01 4.853700000000000236e-01
2.118200000000000083e-01 -2.288119999999999876e-01 1.608549999999999980e-01
1.488899999999999946e-01 2.990889999999999938e-01 -3.052309999999999746e-01
-4.117759999999999754e-01 2.124149999999999927e-01 5.645710000000000450e-01
5.019379999999999953e-01 -1.313300000000000058e-02 -5.135150000000000547e-01
3.504149999999999765e-01 4.222310000000000230e-01 -3.606329999999999814e-01
2.095229999999999870e-01 -4.253200000000000036e-02 -2.797850000000000059e-01
6.941000000000000121e-03 3.815740000000000243e-01 -1.355470000000000008e-01
6.285300000000000609e-02 -3.820450000000000235e-01 -2.433190000000000075e-01
2.100480000000000125e-01 -3.741659999999999986e-01 1.057300000000000080e-02
5.500100000000000128e-02 3.808540000000000258e-01 7.378000000000000010e-03
8.958000000000000684e-02 -2.816949999999999732e-01 -4.751790000000000180e-01
9.561100000000000154e-02 -2.580310000000000104e-01 6.528770000000000406e-01
1.718240000000000045e-01 -2.020000000000000040e-04 -2.962509999999999866e-01
4.829609999999999737e-01 7.612029999999999630e-01 1.843200000000000047e-02
8.511900000000000022e-02 -3.981919999999999904e-01 -3.444530000000000092e-01
-1.806490000000000040e-01 -3.064830000000000054e-01 4.659139999999999948e-01
-2.016560000000000019e-01 -2.854940000000000255e-01 4.857460000000000111e-01
3.622770000000000157e-01 -3.057819999999999983e-01 -1.782970000000000110e-01
3.445059999999999789e-01 6.459989999999999899e-01 -1.082430000000000059e-01
5.903200000000000114e-02 -3.230970000000000231e-01 -1.544159999999999977e-01
4.984819999999999807e-01 -4.039889999999999870e-01 6.680999999999999439e-02
5.052689999999999682e-01 6.966300000000000270e-02 -5.254950000000000454e-01
-3.476069999999999993e-01 2.802979999999999916e-01 3.089459999999999984e-01
-1.277169999999999972e-01 -5.821099999999999886e-02 -3.778139999999999832e-01
4.964279999999999804e-01 -3.977800000000000225e-01 -3.126899999999999819e-02
4.772029999999999883e-01 -1.335790000000000033e-01 -5.297990000000000199e-01
-5.336500000000000271e-02 3.322699999999999959e-02 5.523289999999999589e-01
5.436400000000000260e-02 -3.371399999999999952e-01 -4.931030000000000135e-01
-3.890699999999999714e-02 -4.197299999999999920e-01 -2.113130000000000008e-01
9.274200000000000499e-02 -2.777040000000000064e-01 6.389179999999999859e-01
4.352429999999999910e-01 5.757879999999999665e-01 -8.356600000000000139e-02
2.669830000000000259e-01 -1.933149999999999868e-01 -2.093599999999999905e-01
-4.074760000000000049e-01 2.870840000000000058e-01 5.183680000000000510e-01
1.455519999999999869e-01 6.282330000000000414e-01 -2.703809999999999825e-01
2.516900000000000040e-02 -2.560930000000000151e-01 9.573500000000000065e-02
4.772959999999999980e-01 -7.465099999999999514e-02 1.066769999999999941e-01
-1.537310000000000065e-01 -3.204949999999999743e-01 -1.624490000000000101e-01
-1.415009999999999879e-01 -1.094249999999999945e-01 -4.863290000000000113e-01
-2.469169999999999976e-01 4.083660000000000068e-01 3.510980000000000212e-01
-7.431300000000000405e-02 -2.957940000000000014e-01 -1.383399999999999908e-01
-6.849999999999999535e-04 -2.175700000000000134e-01 1.232629999999999976e-01
1.117409999999999931e-01 2.247869999999999868e-01 -2.559210000000000096e-01
2.221889999999999976e-01 5.329340000000000188e-01 -3.929639999999999800e-01
1.910219999999999974e-01 -2.012539999999999885e-01 -3.095620000000000038e-01
1.007590000000000013e-01 -1.800100000000000033e-01 6.742639999999999745e-01
-2.167610000000000092e-01 -1.989710000000000090e-01 -4.989830000000000099e-01
4.226039999999999797e-01 7.562020000000000408e-01 -2.985499999999999959e-02
-1.087680000000000036e-01 -2.189679999999999960e-01 6.866999999999999771e-01
1.622180000000000011e-01 -1.016470000000000012e-01 5.827649999999999775e-01
-1.946759999999999879e-01 -9.438000000000000556e-02 6.030459999999999710e-01
5.708630000000000093e-01 -2.512630000000000141e-01 -4.552500000000000296e-02
-2.736410000000000231e-01 2.235870000000000080e-01 4.083109999999999795e-01
5.235659999999999759e-01 -1.689460000000000128e-01 -1.043229999999999991e-01
-3.353559999999999874e-01 1.967160000000000020e-01 3.590400000000000258e-01
3.251479999999999926e-01 -3.308570000000000122e-01 2.060470000000000079e-01
1.606219999999999870e-01 5.522319999999999451e-01 -1.542509999999999992e-01
-4.949140000000000206e-01 1.131149999999999933e-01 5.089050000000000518e-01
-4.321090000000000209e-01 -4.071910000000000251e-01 1.211949999999999972e-01
1.335129999999999928e-01 -2.545339999999999825e-01 6.156019999999999825e-01
-4.271090000000000164e-01 1.012559999999999988e-01 4.166130000000000111e-01
-1.577299999999999883e-02 -1.399000000000000070e-03 4.570799999999999863e-02
-6.338529999999999998e-01 -9.521799999999999708e-02 2.390120000000000022e-01
5.261799999999999811e-02 6.328439999999999621e-01 -3.835140000000000216e-01
4.813310000000000088e-01 6.118679999999999675e-01 -4.100899999999999684e-02
4.083829999999999960e-01 2.537360000000000171e-01 -4.205490000000000061e-01
-4.393320000000000003e-01 -3.343100000000000238e-02 2.661319999999999797e-01
2.960160000000000013e-01 -1.968880000000000075e-01 2.106379999999999919e-01
-4.363560000000000216e-01 -7.545000000000000318e-02 -1.868799999999999975e-02
-9.089500000000000357e-02 -2.941770000000000218e-01 1.850209999999999910e-01
1.089289999999999980e-01 -3.046470000000000011e-01 4.318049999999999944e-01
-9.944799999999999474e-02 -3.993320000000000203e-01 -5.112980000000000302e-01
-4.347380000000000133e-01 3.805999999999999921e-03 1.610229999999999995e-01
3.607730000000000103e-01 4.383800000000000197e-02 -5.472200000000000397e-01
-5.789899999999999908e-02 4.075210000000000221e-01 1.463389999999999969e-01
-4.550569999999999893e-01 2.561160000000000103e-01 4.439969999999999750e-01
1.682319999999999927e-01 -7.925200000000000300e-02 5.156619999999999537e-01
1.387500000000000018e-02 -4.358259999999999912e-01 -2.681089999999999862e-01
5.300799999999999956e-02 -2.582869999999999888e-01 6.759180000000000188e-01
1.268950000000000078e-01 1.952780000000000071e-01 -1.671249999999999958e-01
3.577370000000000272e-01 6.671329999999999760e-01 -9.487700000000000300e-02
4.158729999999999927e-01 -7.403999999999999471e-02 1.461669999999999914e-01
1.826329999999999898e-01 -1.638320000000000054e-01 -2.242999999999999855e-02
2.217619999999999869e-01 6.106000000000000316e-02 -3.774950000000000250e-01
3.682400000000000118e-01 5.290179999999999882e-01 -1.050129999999999952e-01
2.582430000000000003e-01 -1.285449999999999926e-01 -2.709750000000000214e-01
-9.587199999999999889e-02 -1.533519999999999883e-01 6.982829999999999870e-01
3.812139999999999973e-01 -2.171980000000000022e-01 -1.896950000000000025e-01
-1.469949999999999868e-01 -2.979780000000000206e-01 1.534490000000000021e-01
2.404429999999999901e-01 -7.414700000000000457e-02 -1.874629999999999908e-01
2.117860000000000020e-01 2.613820000000000032e-01 -1.787630000000000052e-01
1.135329999999999950e-01 -1.273900000000000032e-01 6.567359999999999864e-01
1.271730000000000083e-01 -1.574540000000000106e-01 3.603680000000000216e-01
-1.059800000000000048e-01 -1.510239999999999916e-01 3.074959999999999916e-01
2.608920000000000128e-01 -2.683030000000000137e-01 -2.600390000000000201e-01
2.784000000000000016e-02 -7.546999999999999542e-02 -3.753850000000000242e-01
-6.174830000000000041e-01 -9.924099999999999588e-02 1.604600000000000123e-02
-5.440989999999999993e-01 -3.052989999999999871e-01 -3.290699999999999875e-02
3.055559999999999943e-01 1.231369999999999965e-01 -2.832569999999999810e-01
2.243199999999999916e-01 6.046439999999999593e-01 -2.498400000000000065e-01
-5.992250000000000076e-01 -1.363320000000000087e-01 -2.331199999999999939e-02
-5.747409999999999464e-01 -1.582700000000000079e-02 1.157159999999999994e-01
1.224000000000000045e-03 4.550560000000000160e-01 -4.119419999999999749e-01
-6.131600000000000383e-01 -2.487699999999999911e-01 3.028029999999999888e-01
-3.298130000000000228e-01 -3.307959999999999789e-01 2.303459999999999952e-01
-2.003530000000000033e-01 -9.894300000000000317e-02 -4.058229999999999893e-01
4.675079999999999791e-01 -4.433999999999999747e-02 -4.681089999999999973e-01
3.829420000000000046e-01 -1.399070000000000036e-01 -4.561689999999999912e-01
-4.678249999999999909e-01 3.222099999999999964e-02 4.709940000000000238e-01
-4.664409999999999945e-01 7.246999999999999970e-03 1.335520000000000040e-01
4.377110000000000167e-01 -1.541329999999999922e-01 -4.898440000000000016e-01
3.995110000000000050e-01 -4.565899999999999820e-02 1.035709999999999964e-01
1.339980000000000060e-01 -3.658910000000000218e-01 -1.406620000000000092e-01
4.735150000000000192e-01 8.088389999999999747e-01 1.803000000000000089e-02
1.581700000000000050e-01 7.130530000000000479e-01 -2.873820000000000263e-01
4.100530000000000008e-01 3.278980000000000228e-01 -5.312430000000000208e-01
-1.351449999999999874e-01 2.909619999999999984e-01 7.108899999999999941e-02
-4.071239999999999859e-01 2.956340000000000079e-01 5.098540000000000294e-01
-1.096649999999999986e-01 -4.674940000000000206e-01 -3.851789999999999936e-01
8.707099999999999562e-02 -2.034710000000000130e-01 -4.664699999999999958e-01
1.781129999999999936e-01 1.935000000000000088e-03 -2.985209999999999808e-01
-2.791950000000000265e-01 -3.178790000000000227e-01 -3.810959999999999903e-01
1.496790000000000065e-01 -1.288549999999999973e-01 -6.874299999999999855e-02
2.583840000000000026e-01 -3.922189999999999843e-01 1.109040000000000026e-01
2.598480000000000234e-01 2.152129999999999876e-01 -2.345450000000000035e-01
2.860800000000000148e-02 4.577729999999999855e-01 -1.656239999999999934e-01
-3.435699999999999865e-01 -3.852400000000000269e-02 1.515539999999999943e-01
-4.397209999999999730e-01 2.452080000000000093e-01 5.282430000000000181e-01
1.233000000000000068e-02 4.863379999999999925e-01 -1.465420000000000056e-01
3.292359999999999731e-01 2.400780000000000136e-01 -5.216589999999999838e-01
2.628949999999999898e-01 2.770880000000000010e-01 -2.433140000000000025e-01
-2.234119999999999995e-01 3.216939999999999800e-01 3.580749999999999766e-01
3.058830000000000160e-01 -4.228160000000000251e-01 -5.997999999999999859e-02
1.745450000000000057e-01 3.050669999999999771e-01 -3.365989999999999815e-01
4.552109999999999768e-01 -1.254530000000000090e-01 -1.348380000000000134e-01
1.020139999999999936e-01 -3.547120000000000273e-01 -1.775690000000000046e-01
1.550420000000000131e-01 -2.660129999999999995e-01 5.474520000000000497e-01
-5.030750000000000499e-01 -1.757529999999999926e-01 3.533390000000000142e-01
-1.112920000000000020e-01 3.661240000000000050e-01 1.211199999999999950e-02
5.640650000000000386e-01 -2.574520000000000142e-01 1.123519999999999935e-01
1.601999999999999908e-03 -2.811089999999999978e-01 -5.426029999999999465e-01
-5.672730000000000272e-01 -2.834599999999999967e-02 2.189919999999999922e-01
-6.477199999999999624e-02 7.165489999999999915e-01 -4.270780000000000132e-01
-2.930090000000000194e-01 -3.050370000000000026e-01 1.101170000000000065e-01
-4.147069999999999923e-01 -4.029469999999999996e-01 1.765909999999999980e-01
4.400560000000000027e-01 -4.120280000000000054e-01 -7.176499999999999546e-02
-3.390159999999999840e-01 1.302230000000000054e-01 5.123959999999999626e-01
-4.433999999999999747e-02 4.433420000000000138e-01 -7.504900000000000460e-02
-1.152709999999999985e-01 4.651120000000000254e-01 1.027470000000000050e-01
-7.561000000000000013e-03 6.461200000000000276e-01 -4.307079999999999798e-01
2.424979999999999913e-01 -3.169399999999999995e-01 -2.133869999999999933e-01
4.778049999999999797e-01 1.958040000000000058e-01 -5.030550000000000299e-01
-5.935300000000000298e-02 -4.669309999999999850e-01 -3.102840000000000042e-01
2.674949999999999828e-01 2.707609999999999739e-01 -4.486379999999999812e-01
-2.897359999999999935e-01 -1.610729999999999940e-01 5.462100000000000288e-02
8.624400000000000122e-02 -3.519410000000000038e-01 -8.114899999999999891e-02
1.149619999999999947e-01 3.103119999999999767e-01 -2.649310000000000276e-01
3.475449999999999928e-01 -4.429609999999999936e-01 -2.897599999999999829e-02
3.968039999999999901e-01 3.211769999999999903e-01 -4.121839999999999948e-01
7.672700000000000353e-02 -1.608030000000000015e-01 3.140140000000000153e-01
2.630640000000000200e-01 -1.354349999999999998e-01 -2.117070000000000063e-01
-5.967130000000000489e-01 -3.333090000000000219e-01 2.666339999999999821e-01
5.665310000000000068e-01 -1.543289999999999940e-01 4.717500000000000165e-02
3.232769999999999810e-01 -2.288129999999999886e-01 2.259889999999999954e-01
-4.027200000000000224e-02 9.497999999999999499e-03 6.144199999999999662e-01
2.924269999999999925e-01 1.645389999999999908e-01 -4.716949999999999754e-01
-1.874079999999999913e-01 -4.437639999999999918e-01 -3.387539999999999996e-01
5.380270000000000330e-01 -1.133819999999999967e-01 -1.271399999999999961e-02
-9.247700000000000364e-02 -4.168879999999999808e-01 -4.951949999999999963e-01
2.263519999999999976e-01 1.445309999999999928e-01 -3.890359999999999929e-01
-1.552689999999999904e-01 6.963730000000000198e-01 -5.036380000000000301e-01
-1.741880000000000095e-01 -1.695859999999999868e-01 1.186669999999999947e-01
-3.815299999999999941e-02 -9.790500000000000591e-02 -4.984500000000000042e-02
-4.652950000000000141e-01 2.519330000000000180e-01 4.757370000000000210e-01
-3.717190000000000216e-01 4.059100000000000208e-02 5.583949999999999747e-01
8.863699999999999357e-02 2.970499999999999877e-02 -2.151919999999999944e-01
-2.569000000000000172e-01 3.299019999999999730e-01 1.942419999999999980e-01
-1.986499999999999932e-01 -3.078110000000000013e-01 2.613989999999999925e-01
3.490579999999999794e-01 2.689500000000000224e-01 -5.470840000000000147e-01
-1.884800000000000086e-01 -2.153710000000000069e-01 1.404620000000000035e-01
3.298300000000000121e-01 4.126400000000000068e-01 -3.342109999999999803e-01
-1.997760000000000091e-01 -8.022799999999999376e-02 4.108740000000000170e-01
4.163599999999999940e-02 -3.938849999999999851e-01 -4.623659999999999992e-01
-7.512099999999999334e-02 -2.919700000000000073e-02 6.518429999999999502e-01
-2.783869999999999956e-01 3.541880000000000028e-01 4.241500000000000270e-01
-2.585680000000000200e-01 4.170829999999999815e-01 3.312209999999999877e-01
-3.800709999999999922e-01 -2.299599999999999977e-01 -4.034700000000000092e-02
2.162100000000000133e-02 -1.483470000000000066e-01 -2.012490000000000112e-01
-1.399239999999999928e-01 7.161239999999999828e-01 -4.882889999999999731e-01
2.822709999999999941e-01 1.105599999999999986e-02 -3.511070000000000024e-01
-1.909480000000000066e-01 2.609449999999999825e-01 3.009979999999999878e-01
2.356179999999999941e-01 3.391060000000000185e-01 -2.133740000000000081e-01
2.551309999999999967e-01 3.925669999999999993e-01 -2.409989999999999910e-01
3.204440000000000066e-01 2.848379999999999801e-01 -5.139230000000000187e-01
-1.971440000000000137e-01 -2.098089999999999955e-01 -1.897999999999999965e-01
-5.885449999999999848e-01 -3.140080000000000093e-01 -5.851000000000000298e-03
2.061620000000000119e-01 -3.319429999999999881e-01 -7.492100000000000148e-02
4.389819999999999833e-01 -1.620959999999999901e-01 -1.618620000000000059e-01
-1.483619999999999939e-01 -7.128700000000000314e-02 -2.982819999999999916e-01
-3.012349999999999750e-01 2.609589999999999965e-01 4.588700000000000001e-01
-2.655350000000000210e-01 -3.575650000000000217e-01 -3.588529999999999776e-01
-6.610209999999999697e-01 -1.385969999999999980e-01 4.497299999999999909e-02
2.117670000000000108e-01 8.135320000000000329e-01 -2.289660000000000029e-01
5.071170000000000400e-01 1.073540000000000050e-01 -5.336509999999999865e-01
1.516270000000000118e-01 8.464890000000000470e-01 -2.350210000000000077e-01
4.168919999999999848e-01 7.491219999999999546e-01 -3.546900000000000053e-02
-1.514119999999999910e-01 -1.382849999999999913e-01 3.069230000000000014e-01
-6.105340000000000211e-01 -4.956100000000000089e-02 2.026820000000000010e-01
-1.044680000000000053e-01 7.057710000000000372e-01 -5.002860000000000085e-01
4.115699999999999914e-01 1.296699999999999936e-02 -6.055139999999999967e-01
-3.765899999999999803e-01 -1.682700000000000168e-02 1.766389999999999905e-01
-5.005500000000000227e-02 -5.850799999999999751e-02 3.259650000000000047e-01
-1.125649999999999984e-01 -1.822499999999999953e-01 4.533899999999999736e-02
-2.010299999999999865e-01 -2.007089999999999985e-01 6.131790000000000296e-01
-7.644199999999999606e-02 -1.534969999999999946e-01 -5.336629999999999985e-01
-7.983400000000000218e-02 3.260850000000000137e-01 -2.471500000000000086e-02
3.794680000000000275e-01 -7.275000000000000216e-03 -3.645709999999999784e-01
-3.189739999999999798e-01 -3.048779999999999824e-01 4.862799999999999762e-02
1.858999999999999975e-03 -1.683870000000000089e-01 -5.202909999999999480e-01
2.876540000000000208e-01 4.375310000000000032e-01 -2.838660000000000072e-01
-6.654480000000000395e-01 -9.850599999999999634e-02 1.471290000000000098e-01
-4.950860000000000261e-01 -2.666689999999999894e-01 3.471580000000000221e-01
4.649530000000000052e-01 7.194690000000000252e-01 -1.276000000000000007e-03
1.094499999999999987e-02 -2.563000000000000000e-02 6.555469999999999908e-01
-1.246870000000000062e-01 -3.198199999999999932e-01 6.029259999999999620e-01
1.865930000000000089e-01 -3.352530000000000232e-01 -1.697299999999999850e-02
4.444170000000000065e-01 -1.523589999999999944e-01 -5.049430000000000307e-01
2.840340000000000087e-01 -3.955299999999999927e-01 -9.227599999999999691e-02
-2.974789999999999934e-01 -2.585900000000000004e-02 3.850549999999999806e-01
-1.491999999999999924e-02 4.934939999999999882e-01 1.228699999999999931e-02
-1.192939999999999973e-01 2.093999999999999941e-03 4.130869999999999820e-01
1.569240000000000079e-01 -3.159270000000000134e-01 -6.282300000000000384e-02
-6.365700000000000525e-02 -3.008310000000000151e-01 6.339400000000000590e-02
4.960689999999999822e-01 -1.226079999999999948e-01 1.512139999999999873e-01
2.127000000000000002e-01 1.132539999999999936e-01 -3.703089999999999993e-01
-3.694000000000000061e-01 1.950600000000000112e-01 3.531909999999999772e-01
-9.425899999999999557e-02 -4.553399999999999809e-02 1.950250000000000039e-01
-8.307499999999999607e-02 -2.341449999999999920e-01 6.904569999999999874e-01
-6.654259999999999620e-01 -2.283100000000000129e-01 2.489079999999999904e-01
3.588299999999999823e-01 3.963650000000000229e-01 -5.055549999999999766e-01
-2.226490000000000136e-01 -2.255129999999999912e-01 4.463300000000000045e-01
-4.426220000000000154e-01 -1.920320000000000082e-01 3.526540000000000230e-01
-1.125730000000000064e-01 8.060089999999999755e-01 -4.549309999999999743e-01
4.616419999999999968e-01 -4.264640000000000097e-01 -7.095999999999999877e-03
-2.415229999999999877e-01 4.245030000000000192e-01 2.974330000000000029e-01
-3.197639999999999927e-01 -3.399440000000000239e-01 1.836150000000000004e-01
7.939200000000000423e-02 7.124509999999999454e-01 -3.114319999999999866e-01
-5.371700000000000086e-02 4.684670000000000223e-01 -4.550759999999999805e-01
2.206269999999999898e-01 -1.004639999999999977e-01 -9.006999999999999382e-03
-5.502449999999999841e-01 -4.054769999999999763e-01 1.299059999999999937e-01
3.399650000000000172e-01 5.921910000000000229e-01 -1.190429999999999960e-01
4.459480000000000111e-01 5.952380000000000448e-01 -3.419699999999999823e-02
-9.825299999999999312e-02 -5.156700000000000172e-02 -3.690729999999999844e-01
-2.017210000000000114e-01 2.826879999999999948e-01 1.356880000000000031e-01
2.414419999999999900e-01 1.306410000000000071e-01 -2.049090000000000078e-01
3.544089999999999741e-01 1.563690000000000080e-01 -3.462189999999999990e-01
2.194109999999999949e-01 -3.914000000000000118e-02 -2.717780000000000196e-01
2.619399999999999853e-02 -1.860739999999999894e-01 -1.816750000000000032e-01
4.940740000000000132e-01 -1.163610000000000061e-01 -5.131200000000000205e-01
5.079620000000000246e-01 -8.712999999999999912e-02 -5.297640000000000127e-01
-5.562589999999999479e-01 -2.721310000000000118e-01 -4.540299999999999891e-02
5.388990000000000169e-01 -1.637450000000000017e-01 1.333719999999999906e-01
3.472009999999999819e-01 1.995290000000000119e-01 -5.407750000000000057e-01
-4.503999999999999670e-02 -2.907259999999999844e-01 1.407480000000000120e-01
-6.875539999999999985e-01 -1.532550000000000023e-01 1.652770000000000072e-01
-5.947999999999999815e-02 6.728779999999999761e-01 -4.291059999999999874e-01
6.148300000000000293e-02 8.100100000000000078e-01 -3.125829999999999997e-01
-4.358389999999999764e-01 -3.441400000000000015e-01 2.994459999999999900e-01
-6.596600000000000241e-01 -3.073029999999999928e-01 2.062599999999999989e-01
1.024410000000000043e-01 -1.704390000000000072e-01 -4.158540000000000014e-01
3.273800000000000321e-02 -2.000069999999999903e-01 -1.341400000000000092e-01
-2.732209999999999916e-01 -3.385400000000000076e-01 -3.692360000000000086e-01
3.406080000000000219e-01 -2.713160000000000016e-01 2.287329999999999919e-01
2.373470000000000024e-01 -3.659720000000000195e-01 -8.289199999999999346e-02
4.753490000000000215e-01 -7.370400000000000562e-02 -5.652800000000000186e-02
8.831100000000000061e-02 7.021990000000000176e-01 -3.057980000000000143e-01
6.599499999999999811e-02 -1.704690000000000094e-01 3.807499999999999774e-02
-7.733600000000000196e-02 2.297599999999999990e-02 5.723920000000000119e-01
4.593479999999999785e-01 -2.544529999999999847e-01 2.165610000000000035e-01
6.106700000000000322e-02 2.914050000000000251e-01 -1.449660000000000115e-01
-1.168339999999999934e-01 -4.116790000000000171e-01 -2.040470000000000061e-01
-2.811170000000000058e-01 -2.774639999999999884e-01 1.872640000000000138e-01
-6.171299999999999564e-01 -3.470710000000000184e-01 5.630700000000000288e-02
5.805500000000000244e-02 3.634669999999999845e-01 -1.969309999999999949e-01
-3.190720000000000223e-01 -2.214839999999999864e-01 5.011259999999999604e-01
-6.225549999999999695e-01 -5.822100000000000192e-02 1.955020000000000091e-01
1.798589999999999911e-01 -1.963479999999999948e-01 5.533970000000000278e-01
5.807569999999999677e-01 -1.986040000000000028e-01 8.163000000000000117e-03
-2.768160000000000065e-01 -2.784260000000000068e-01 1.445680000000000021e-01
-2.005470000000000030e-01 -2.271749999999999881e-01 -1.866210000000000091e-01
5.797000000000000069e-02 -1.129330000000000056e-01 4.233499999999999763e-02
-3.486349999999999727e-01 -3.610300000000000314e-02 1.270030000000000048e-01
-1.600519999999999998e-01 7.065669999999999451e-01 -5.440220000000000056e-01
-5.511150000000000215e-01 -5.734999999999999647e-03 1.168890000000000068e-01
4.057359999999999856e-01 3.090109999999999801e-01 -5.478960000000000496e-01
-6.786090000000000177e-01 -1.751169999999999949e-01 6.372500000000000386e-02
1.309099999999999986e-01 -2.290210000000000024e-01 -3.655649999999999733e-01
8.017599999999999727e-02 -3.878119999999999901e-01 -2.796330000000000204e-01
3.050419999999999798e-01 -7.177600000000000646e-02 -8.709799999999999487e-02
1.588930000000000065e-01 7.077379999999999782e-01 -2.876170000000000115e-01
1.488869999999999916e-01 7.130279999999999951e-01 -2.557809999999999806e-01
2.936719999999999886e-01 -4.318649999999999989e-01 -1.097599999999999965e-02
-1.688510000000000011e-01 6.080670000000000242e-01 -5.463729999999999976e-01
4.091150000000000064e-01 -1.875910000000000077e-01 -1.809800000000000020e-01
-3.422499999999999987e-01 -2.261799999999999922e-01 3.263960000000000194e-01
3.086000000000000201e-03 6.885299999999999754e-01 -3.762090000000000156e-01
-3.645479999999999832e-01 -1.663600000000000148e-02 5.535830000000000473e-01
-5.795879999999999921e-01 -4.293099999999999694e-02 2.312279999999999891e-01
2.297180000000000055e-01 -3.241749999999999909e-01 1.513430000000000053e-01
-5.132339999999999680e-01 -2.065099999999999922e-02 3.723300000000000221e-02
-1.207140000000000019e-01 6.529890000000000416e-01 -5.208599999999999897e-01
1.801540000000000086e-01 -2.347869999999999957e-01 -3.011199999999999988e-01
-6.338920000000000110e-01 -2.989740000000000175e-01 2.216500000000000067e-02
5.193899999999999906e-02 -3.976620000000000155e-01 -4.444049999999999945e-01
1.555330000000000046e-01 1.232749999999999957e-01 -3.021539999999999782e-01
-4.652959999999999874e-01 2.311670000000000114e-01 5.153649999999999620e-01
-3.856390000000000096e-01 4.753700000000000286e-02 3.864429999999999810e-01
4.422800000000000342e-02 -3.869489999999999874e-01 -4.662789999999999990e-01
-2.689239999999999964e-01 -3.361279999999999824e-01 -4.083939999999999793e-01
1.010910000000000003e-01 -2.526579999999999937e-01 3.608899999999999886e-01
-4.787000000000000283e-02 -2.111199999999999882e-02 3.564849999999999963e-01
3.119810000000000083e-01 5.469220000000000192e-01 -1.475660000000000027e-01
3.670169999999999821e-01 -3.033109999999999973e-01 -1.791590000000000127e-01
2.953749999999999987e-01 -5.895700000000000246e-02 9.683200000000000141e-02
-1.762769999999999893e-01 3.464559999999999862e-01 9.322500000000000231e-02
-3.015229999999999855e-01 -2.146460000000000035e-01 4.899640000000000106e-01
-1.551939999999999986e-01 -2.904059999999999975e-01 6.101250000000000284e-01
4.077499999999999875e-02 -1.687879999999999936e-01 6.883999999999999841e-02
-1.884730000000000016e-01 3.197960000000000247e-01 1.094620000000000037e-01
3.086269999999999847e-01 3.418340000000000267e-01 -3.043259999999999854e-01
5.072510000000000074e-01 4.551299999999999790e-02 -5.772089999999999721e-01
-5.170299999999999896e-02 -4.678019999999999956e-01 -3.821740000000000137e-01
2.633150000000000213e-01 1.820599999999999996e-02 -2.588110000000000133e-01
-4.181429999999999869e-01 3.025229999999999864e-01 4.913489999999999802e-01
1.370750000000000024e-01 -2.975340000000000207e-01 5.201069999999999860e-01
1.316219999999999890e-01 5.115300000000000402e-01 -9.731800000000000173e-02
5.367859999999999854e-01 -1.987289999999999890e-01 -1.026920000000000055e-01
-4.794240000000000168e-01 1.035260000000000069e-01 5.563360000000000527e-01
