-3.217609822750091553e-01 -5.381444692611694336e-01 -2.576383650302886963e-01
-3.233014643192291260e-01 -5.409765243530273438e-01 -2.337994277477264404e-01
-3.298009335994720459e-01 -5.255438685417175293e-01 -2.435259371995925903e-01
-3.316820263862609863e-01 -5.294713973999023438e-01 -2.193811833858489990e-01
1.031576246023178101e-01 -3.813704252243041992e-01 2.411037087440490723e-01
8.522506058216094971e-02 -3.861857056617736816e-01 2.456482946872711182e-01
9.303674846887588501e-02 -3.662922680377960205e-01 2.464117556810379028e-01
7.551466673612594604e-02 -3.713851273059844971e-01 2.506743073463439941e-01
-4.724809229373931885e-01 -1.496008187532424927e-01 -2.168290019035339355e-01
-4.702088534832000732e-01 -1.494044512510299683e-01 -1.981020569801330566e-01
-4.849976599216461182e-01 -1.408610641956329346e-01 -2.046097964048385620e-01
-4.822601377964019775e-01 -1.403230130672454834e-01 -1.863469481468200684e-01
5.737745165824890137e-01 1.545344889163970947e-01 1.450210809707641602e-01
5.766525268554687500e-01 1.542651206254959106e-01 1.683144569396972656e-01
5.730393528938293457e-01 1.662646085023880005e-01 1.607195138931274414e-01
5.759858489036560059e-01 1.658208668231964111e-01 1.836156249046325684e-01
6.042034029960632324e-01 3.328811824321746826e-01 1.854642182588577271e-01
6.019937396049499512e-01 3.239854872226715088e-01 2.041879892349243164e-01
6.038550138473510742e-01 3.507194519042968750e-01 1.979913413524627686e-01
5.992857813835144043e-01 3.399298489093780518e-01 2.148149013519287109e-01
-1.393989007920026779e-02 -3.786590695381164551e-01 2.392328232526779175e-01
-2.958304062485694885e-02 -3.895308375358581543e-01 2.467138320207595825e-01
-1.784174889326095581e-02 -3.571620881557464600e-01 2.446070164442062378e-01
-3.360836580395698547e-02 -3.693288266658782959e-01 2.514597773551940918e-01
-2.698328793048858643e-01 1.092298254370689392e-01 2.448217719793319702e-01
-2.787495553493499756e-01 9.600800275802612305e-02 2.449553608894348145e-01
-2.814456820487976074e-01 1.233917400240898132e-01 2.461591958999633789e-01
-2.905966043472290039e-01 1.100464239716529846e-01 2.470079213380813599e-01
-3.013525605201721191e-01 7.456010580062866211e-02 -2.949577569961547852e-01
-2.942980825901031494e-01 7.625338435173034668e-02 -2.775992751121520996e-01
-3.063722550868988037e-01 7.960261404514312744e-02 -2.782216072082519531e-01
-2.992406189441680908e-01 8.093507587909698486e-02 -2.605179846286773682e-01
-2.086331248283386230e-01 -5.990608930587768555e-01 7.978221774101257324e-02
-2.017567306756973267e-01 -5.981735587120056152e-01 9.927736222743988037e-02
-2.189684808254241943e-01 -5.961945652961730957e-01 9.609988331794738770e-02
-2.130298316478729248e-01 -5.967783927917480469e-01 1.152162253856658936e-01
3.547547161579132080e-01 1.709816306829452515e-01 1.452032029628753662e-01
3.671979904174804688e-01 1.752786636352539062e-01 1.557884514331817627e-01
3.460647463798522949e-01 1.876205801963806152e-01 1.461650431156158447e-01
3.612394332885742188e-01 1.894928812980651855e-01 1.543240547180175781e-01
4.978278279304504395e-01 2.574908435344696045e-01 1.735707372426986694e-01
4.918547272682189941e-01 2.452795505523681641e-01 1.785003244876861572e-01
4.862992465496063232e-01 2.665003240108489990e-01 1.722135245800018311e-01
4.803680479526519775e-01 2.539344429969787598e-01 1.761746555566787720e-01
-2.950149178504943848e-01 -6.034372448921203613e-01 -1.695711463689804077e-01
-2.939122021198272705e-01 -6.065770387649536133e-01 -1.486589908599853516e-01
-3.035426139831542969e-01 -5.964697003364562988e-01 -1.544719636440277100e-01
-3.027426898479461670e-01 -5.997603535652160645e-01 -1.334561109542846680e-01
1.321275234222412109e-01 -2.077265679836273193e-01 -4.325230717658996582e-01
1.295559853315353394e-01 -2.163219749927520752e-01 -4.228069186210632324e-01
1.211692243814468384e-01 -1.979274898767471313e-01 -4.285800457000732422e-01
1.161509752273559570e-01 -2.086615860462188721e-01 -4.216353595256805420e-01
-4.741826355457305908e-01 -1.740969568490982056e-01 -3.932630121707916260e-01
-4.733615517616271973e-01 -1.761928647756576538e-01 -3.768137395381927490e-01
-4.864521920680999756e-01 -1.656116843223571777e-01 -3.879731595516204834e-01
-4.845595061779022217e-01 -1.670271009206771851e-01 -3.701278865337371826e-01
-5.252141952514648438e-01 5.828178673982620239e-02 -4.204203188419342041e-01
-5.196081995964050293e-01 6.095966324210166931e-02 -4.026014208793640137e-01
-5.341147184371948242e-01 6.064847111701965332e-02 -4.010486304759979248e-01
-5.279698371887207031e-01 6.351471692323684692e-02 -3.829222917556762695e-01
-3.083953261375427246e-01 2.220286577939987183e-01 1.020412445068359375e-01
-3.131460845470428467e-01 2.165372967720031738e-01 1.175479143857955933e-01
-3.048564791679382324e-01 2.304074615240097046e-01 1.286008954048156738e-01
-3.098088800907135010e-01 2.249306440353393555e-01 1.444076597690582275e-01
3.300610780715942383e-01 4.844212532043457031e-01 2.399666011333465576e-01
3.172103762626647949e-01 4.707126021385192871e-01 2.424040734767913818e-01
3.202216923236846924e-01 5.041054487228393555e-01 2.439860254526138306e-01
3.076390326023101807e-01 4.889476001262664795e-01 2.463475465774536133e-01
2.927740514278411865e-01 1.580387800931930542e-01 2.437999397516250610e-01
2.827451825141906738e-01 1.451397687196731567e-01 2.452075183391571045e-01
2.790792584419250488e-01 1.739380061626434326e-01 2.430590689182281494e-01
2.699872255325317383e-01 1.601076126098632812e-01 2.441316694021224976e-01
-1.953079253435134888e-01 9.364771097898483276e-02 -1.214177310466766357e-01
-1.886446624994277954e-01 9.740366786718368530e-02 -1.030932217836380005e-01
-2.086735218763351440e-01 1.021622791886329651e-01 -1.009682938456535339e-01
-2.039190828800201416e-01 1.071911007165908813e-01 -8.370552957057952881e-02
5.420555472373962402e-01 6.580666899681091309e-01 2.414201498031616211e-01
5.270467996597290039e-01 6.459375023841857910e-01 2.469644695520401001e-01
5.292804241180419922e-01 6.773115396499633789e-01 2.450051456689834595e-01
5.154489874839782715e-01 6.628911495208740234e-01 2.496235668659210205e-01
-3.290817141532897949e-01 -5.050054788589477539e-01 -1.207074970006942749e-01
-3.296593725681304932e-01 -5.077455639839172363e-01 -9.947957098484039307e-02
-3.314356207847595215e-01 -4.877969622611999512e-01 -1.057947576045989990e-01
-3.325414955615997314e-01 -4.914688766002655029e-01 -8.591484278440475464e-02
-4.825014472007751465e-01 -1.060236245393753052e-01 2.365858256816864014e-01
-4.772388935089111328e-01 -9.850775450468063354e-02 2.476124018430709839e-01
-4.914078116416931152e-01 -9.237151592969894409e-02 2.452031522989273071e-01
-4.855470359325408936e-01 -8.547072857618331909e-02 2.558202445507049561e-01
-2.304336056113243103e-03 -4.540296792984008789e-01 -2.342837154865264893e-01
-9.691976010799407959e-03 -4.616547524929046631e-01 -2.179924994707107544e-01
2.710963599383831024e-03 -4.443805515766143799e-01 -2.208053320646286011e-01
-4.785425961017608643e-03 -4.520520269870758057e-01 -2.046399861574172974e-01
-2.552024126052856445e-01 -1.617371588945388794e-01 2.424100339412689209e-01
-2.655880451202392578e-01 -1.804554164409637451e-01 2.450379878282546997e-01
-2.753294110298156738e-01 -1.518712639808654785e-01 2.440852373838424683e-01
-2.847168743610382080e-01 -1.685103327035903931e-01 2.453897595405578613e-01
3.520586192607879639e-01 1.657149344682693481e-01 2.447275966405868530e-01
3.432442247867584229e-01 1.539439558982849121e-01 2.452178150415420532e-01
3.450146317481994629e-01 1.775918006896972656e-01 2.466233819723129272e-01
3.358182013034820557e-01 1.656324863433837891e-01 2.468507885932922363e-01
-1.469472348690032959e-01 -5.973252058029174805e-01 1.512728035449981689e-01
-1.425737291574478149e-01 -5.960063338279724121e-01 1.678348779678344727e-01
-1.536960452795028687e-01 -5.940044522285461426e-01 1.676646023988723755e-01
-1.499461978673934937e-01 -5.929793715476989746e-01 1.848376244306564331e-01
3.537070751190185547e-01 -2.243689298629760742e-01 9.201603382825851440e-02
3.692717552185058594e-01 -2.237772196531295776e-01 1.027825549244880676e-01
3.541237413883209229e-01 -2.069954127073287964e-01 8.877039700746536255e-02
3.693490624427795410e-01 -2.072607725858688354e-01 1.012473180890083313e-01
4.318657517433166504e-02 -2.635804116725921631e-01 -4.168453812599182129e-01
3.901157528162002563e-02 -2.725512385368347168e-01 -4.044184088706970215e-01
3.053348883986473083e-02 -2.581142783164978027e-01 -4.093113541603088379e-01
2.482393383979797363e-02 -2.681579291820526123e-01 -3.979889154434204102e-01
1.249755024909973145e-01 1.945454627275466919e-01 2.441047877073287964e-01
1.152564436197280884e-01 1.796529293060302734e-01 2.452393323183059692e-01
1.186729073524475098e-01 2.111410498619079590e-01 2.454514950513839722e-01
1.090468689799308777e-01 1.965729594230651855e-01 2.465595155954360962e-01
-2.807921767234802246e-01 2.127411216497421265e-01 1.260542683303356171e-02
-2.776493728160858154e-01 2.233611494302749634e-01 2.551698125898838043e-02
-2.940572202205657959e-01 2.235966920852661133e-01 2.114223502576351166e-02
-2.961072921752929688e-01 2.290243655443191528e-01 3.519183769822120667e-02
-4.705775976181030273e-01 -1.254102289676666260e-01 1.555758416652679443e-01
-4.690716564655303955e-01 -1.261898279190063477e-01 1.745730340480804443e-01
-4.766868650913238525e-01 -1.199214830994606018e-01 1.685216128826141357e-01
-4.748044908046722412e-01 -1.198467016220092773e-01 1.874361038208007812e-01
1.104521974921226501e-01 -1.379122734069824219e-01 2.421065717935562134e-01
9.876453876495361328e-02 -1.536495089530944824e-01 2.429310232400894165e-01
8.967608213424682617e-02 -1.254364103078842163e-01 2.442096620798110962e-01
7.801654934883117676e-02 -1.409068107604980469e-01 2.444871962070465088e-01
-5.450531840324401855e-01 1.172972097992897034e-01 -3.108394145965576172e-02
-5.373602509498596191e-01 1.193937584757804871e-01 -1.413082610815763474e-02
-5.545629262924194336e-01 1.208608672022819519e-01 -9.256871417164802551e-03
-5.451078414916992188e-01 1.233535706996917725e-01 9.180215187370777130e-03
2.557137608528137207e-02 1.350942999124526978e-01 -5.108541250228881836e-02
2.723868563771247864e-02 1.447978019714355469e-01 -3.213251382112503052e-02
1.746767386794090271e-02 1.517667919397354126e-01 -2.497701719403266907e-02
1.812034100294113159e-02 1.618266105651855469e-01 -7.367178797721862793e-03
-1.707803905010223389e-01 -6.048464179039001465e-01 -9.713760577142238617e-03
-1.637900322675704956e-01 -6.036632657051086426e-01 1.005352009087800980e-02
-1.838634759187698364e-01 -6.022658348083496094e-01 8.152527734637260437e-03
-1.771820783615112305e-01 -6.008449196815490723e-01 2.793557941913604736e-02
-3.259804248809814453e-01 -4.947945475578308105e-01 2.242805249989032745e-02
-3.270825743675231934e-01 -4.973358213901519775e-01 4.261109232902526855e-02
-3.316592872142791748e-01 -4.823043346405029297e-01 3.743129223585128784e-02
-3.328741192817687988e-01 -4.844263494014739990e-01 5.846732854843139648e-02
-5.905898213386535645e-01 8.265666663646697998e-02 -2.597487568855285645e-01
-5.827245116233825684e-01 8.371633291244506836e-02 -2.417873591184616089e-01
-6.019911766052246094e-01 8.574701100587844849e-02 -2.411102056503295898e-01
-5.938367843627929688e-01 8.626329898834228516e-02 -2.223606854677200317e-01
1.772876977920532227e-01 -2.103323340415954590e-01 -3.538244962692260742e-01
1.775823533535003662e-01 -2.155623435974121094e-01 -3.373353481292724609e-01
1.782409101724624634e-01 -2.068929821252822876e-01 -3.383626043796539307e-01
1.784080415964126587e-01 -2.122218161821365356e-01 -3.222581446170806885e-01
-3.084012493491172791e-02 -4.818575382232666016e-01 -2.452360689640045166e-01
-3.469857573509216309e-02 -4.882262647151947021e-01 -2.267240732908248901e-01
-3.352932631969451904e-02 -4.751341640949249268e-01 -2.273113429546356201e-01
-3.803543001413345337e-02 -4.818011820316314697e-01 -2.078299522399902344e-01
3.050882518291473389e-01 -2.469622343778610229e-01 7.075463980436325073e-02
3.196471631526947021e-01 -2.463709264993667603e-01 8.148074895143508911e-02
3.099134266376495361e-01 -2.308294773101806641e-01 7.412581145763397217e-02
3.244866430759429932e-01 -2.296623438596725464e-01 8.461805433034896851e-02
1.670747697353363037e-01 -4.042609333992004395e-01 -2.777918986976146698e-02
1.740289330482482910e-01 -4.044054746627807617e-01 -1.073697209358215332e-02
1.684627681970596313e-01 -3.978233039379119873e-01 -1.375727262347936630e-02
1.756024956703186035e-01 -3.979565203189849854e-01 3.644741140305995941e-03
-6.827697157859802246e-01 9.121618233621120453e-03 -1.936627477407455444e-01
-6.841223835945129395e-01 5.424730014055967331e-03 -1.753568202257156372e-01
-6.861338615417480469e-01 2.271754294633865356e-02 -1.809968352317810059e-01
-6.870034933090209961e-01 1.820040121674537659e-02 -1.622303724288940430e-01
-6.791729331016540527e-01 -7.225748896598815918e-02 1.406486779451370239e-01
-6.796528697013854980e-01 -7.322257012128829956e-02 1.570753157138824463e-01
-6.860721707344055176e-01 -5.992034822702407837e-02 1.538667678833007812e-01
-6.866993308067321777e-01 -5.988415330648422241e-02 1.719536483287811279e-01
-6.869345903396606445e-01 -8.467053994536399841e-03 2.062699347734451294e-01
-6.793795228004455566e-01 -8.574206382036209106e-03 2.238430827856063843e-01
-6.943306326866149902e-01 4.011721350252628326e-03 2.184181809425354004e-01
-6.840848326683044434e-01 4.377802833914756775e-03 2.347975224256515503e-01
5.827777385711669922e-01 4.147911965847015381e-01 1.461146026849746704e-01
5.836762785911560059e-01 4.039977788925170898e-01 1.611741185188293457e-01
5.805535912513732910e-01 4.295041263103485107e-01 1.531732082366943359e-01
5.833947658538818359e-01 4.197014868259429932e-01 1.683280915021896362e-01
-7.161074317991733551e-03 -4.497085213661193848e-01 -1.312804818153381348e-01
-1.397524774074554443e-02 -4.539029300212860107e-01 -1.138388216495513916e-01
-8.683019317686557770e-03 -4.416112899780273438e-01 -1.063630357384681702e-01
-1.500819902867078781e-02 -4.481453895568847656e-01 -8.761075139045715332e-02
-1.788130849599838257e-01 -6.306226253509521484e-01 -2.716982960700988770e-01
-1.708839833736419678e-01 -6.287643313407897949e-01 -2.515068352222442627e-01
-1.905070543289184570e-01 -6.285197138786315918e-01 -2.507319748401641846e-01
-1.816747486591339111e-01 -6.266863346099853516e-01 -2.297277301549911499e-01
-6.187919527292251587e-02 -3.503181934356689453e-01 2.435484826564788818e-01
-7.495557516813278198e-02 -3.656942844390869141e-01 2.469821572303771973e-01
-7.494488358497619629e-02 -3.361535072326660156e-01 2.449324429035186768e-01
-8.652862906455993652e-02 -3.510692715644836426e-01 2.472771555185317993e-01
-2.320392578840255737e-01 9.455424547195434570e-02 -1.493847817182540894e-01
-2.247129231691360474e-01 9.710860252380371094e-02 -1.304984092712402344e-01
-2.343859374523162842e-01 1.007347255945205688e-01 -1.240918189287185669e-01
-2.288665920495986938e-01 1.035831794142723083e-01 -1.062411218881607056e-01
1.877894699573516846e-01 -1.933996826410293579e-01 2.432997524738311768e-01
1.753932982683181763e-01 -2.067921161651611328e-01 2.451419830322265625e-01
1.783530861139297485e-01 -1.775129288434982300e-01 2.460079938173294067e-01
1.658813655376434326e-01 -1.918037384748458862e-01 2.478953003883361816e-01
-2.945279479026794434e-01 2.325196564197540283e-01 5.997996777296066284e-02
-2.998501956462860107e-01 2.286111712455749512e-01 7.608689367771148682e-02
-2.932451367378234863e-01 2.402592897415161133e-01 8.430678397417068481e-02
-2.974978685379028320e-01 2.356764674186706543e-01 1.001679673790931702e-01
-3.234611749649047852e-01 -5.248768329620361328e-01 5.888042598962783813e-02
-3.244067430496215820e-01 -5.273851752281188965e-01 7.994521409273147583e-02
-3.297015130519866943e-01 -5.106545090675354004e-01 6.778121739625930786e-02
-3.308067321777343750e-01 -5.137852430343627930e-01 8.857287466526031494e-02
-3.633755147457122803e-01 -1.661158502101898193e-01 2.411961555480957031e-01
-3.693155646324157715e-01 -1.784562021493911743e-01 2.480683177709579468e-01
-3.690207600593566895e-01 -1.548049151897430420e-01 2.436265200376510620e-01
-3.785676360130310059e-01 -1.677690297365188599e-01 2.462592273950576782e-01
2.842137813568115234e-01 6.552224159240722656e-01 2.441572248935699463e-01
2.760143578052520752e-01 6.394088268280029297e-01 2.472159266471862793e-01
2.693167924880981445e-01 6.704171895980834961e-01 2.412338554859161377e-01
2.602337598800659180e-01 6.547340750694274902e-01 2.471845000982284546e-01
-4.775955379009246826e-01 1.084675490856170654e-01 -9.677124023437500000e-02
-4.721849262714385986e-01 1.137110218405723572e-01 -7.870628684759140015e-02
-4.803526997566223145e-01 1.184035614132881165e-01 -7.291105389595031738e-02
-4.753588736057281494e-01 1.234682798385620117e-01 -5.557021498680114746e-02
-3.300901353359222412e-01 -3.284312188625335693e-01 7.856133580207824707e-02
-3.299204111099243164e-01 -3.328736722469329834e-01 9.956511855125427246e-02
-3.344865143299102783e-01 -3.155047297477722168e-01 9.575879573822021484e-02
-3.345070481300354004e-01 -3.202497959136962891e-01 1.173027157783508301e-01
4.959987401962280273e-01 2.493727356195449829e-01 2.434050738811492920e-01
4.864692389965057373e-01 2.365139722824096680e-01 2.435785233974456787e-01
4.827401638031005859e-01 2.624323070049285889e-01 2.463389337062835693e-01
4.732484817504882812e-01 2.488785982131958008e-01 2.462033629417419434e-01
4.772803187370300293e-01 -5.137264728546142578e-02 2.443856447935104370e-01
4.674693048000335693e-01 -6.522239744663238525e-02 2.463791221380233765e-01
4.714273810386657715e-01 -3.517834097146987915e-02 2.462380528450012207e-01
4.610032141208648682e-01 -4.878623038530349731e-02 2.486331909894943237e-01
-5.021184682846069336e-01 1.027304008603096008e-01 -1.077266260981559753e-01
-4.967647194862365723e-01 1.065468713641166687e-01 -8.863129466772079468e-02
-5.140749216079711914e-01 1.105309501290321350e-01 -8.440946787595748901e-02
-5.082895159721374512e-01 1.140494868159294128e-01 -6.581150740385055542e-02
-4.666628688573837280e-02 -5.495665669441223145e-01 1.191960722208023071e-01
-4.767934978008270264e-02 -5.548310875892639160e-01 1.351715177297592163e-01
-4.597919434309005737e-02 -5.407464504241943359e-01 1.324119567871093750e-01
-4.727893695235252380e-02 -5.460153222084045410e-01 1.484326422214508057e-01
-3.455902636051177979e-02 -3.332842886447906494e-01 -4.039787054061889648e-01
-4.278326407074928284e-02 -3.493496477603912354e-01 -4.003724455833435059e-01
-4.474587738513946533e-02 -3.204256296157836914e-01 -4.060922563076019287e-01
-5.359092727303504944e-02 -3.360427320003509521e-01 -4.024103581905364990e-01
-4.114352166652679443e-01 -1.716498434543609619e-01 1.863184720277786255e-01
-4.100053310394287109e-01 -1.720816344022750854e-01 2.087152749300003052e-01
-4.174446165561676025e-01 -1.614338755607604980e-01 1.993616968393325806e-01
-4.154781103134155273e-01 -1.613952368497848511e-01 2.190069407224655151e-01
-4.567098617553710938e-01 -1.372838616371154785e-01 2.340061403810977936e-02
-4.534514546394348145e-01 -1.375966519117355347e-01 4.167713224887847900e-02
-4.672306180000305176e-01 -1.300794035196304321e-01 3.532494604587554932e-02
-4.636993110179901123e-01 -1.300419121980667114e-01 5.153416842222213745e-02
5.791659355163574219e-01 -3.674815893173217773e-01 2.263447642326354980e-01
5.630426406860351562e-01 -3.687830865383148193e-01 2.429091483354568481e-01
5.673686861991882324e-01 -3.522600531578063965e-01 2.420813739299774170e-01
5.496991276741027832e-01 -3.529740273952484131e-01 2.563403248786926270e-01
4.809281229972839355e-01 6.164112687110900879e-01 1.103375703096389771e-01
4.727872908115386963e-01 6.003438830375671387e-01 1.113251075148582458e-01
4.690881073474884033e-01 6.291337609291076660e-01 1.065031737089157104e-01
4.610235095024108887e-01 6.139540672302246094e-01 1.071515083312988281e-01
5.938193798065185547e-01 2.658197283744812012e-01 2.325031906366348267e-01
5.835425853729248047e-01 2.605981528759002686e-01 2.469818592071533203e-01
5.921959877014160156e-01 2.848275601863861084e-01 2.428414076566696167e-01
5.820453166961669922e-01 2.786119282245635986e-01 2.572253346443176270e-01
-1.566470414400100708e-01 1.233788654208183289e-01 -6.680243462324142456e-02
-1.520198881626129150e-01 1.322188377380371094e-01 -4.969859495759010315e-02
-1.759163439273834229e-01 1.346486359834671021e-01 -4.707963019609451294e-02
-1.708970516920089722e-01 1.442449390888214111e-01 -3.153619542717933655e-02
5.909507870674133301e-01 2.157119289040565491e-02 2.381324321031570435e-01
5.790110826492309570e-01 1.695130206644535065e-02 2.482070326805114746e-01
5.856003165245056152e-01 3.927701711654663086e-02 2.453820407390594482e-01
5.727657079696655273e-01 3.430025279521942139e-02 2.542603015899658203e-01
1.801675558090209961e-01 5.334861278533935547e-01 7.553899288177490234e-02
1.708763986825942993e-01 5.292873382568359375e-01 7.676433771848678589e-02
1.722540706396102905e-01 5.436622500419616699e-01 8.064691722393035889e-02
1.625475585460662842e-01 5.383762717247009277e-01 8.112549781799316406e-02
-3.295760750770568848e-01 -3.803087472915649414e-01 -9.463448077440261841e-04
-3.307984173297882080e-01 -3.841706514358520508e-01 2.357621118426322937e-02
-3.349702954292297363e-01 -3.659503459930419922e-01 1.743882894515991211e-02
-3.353240489959716797e-01 -3.700749874114990234e-01 4.162915050983428955e-02
-6.430457830429077148e-01 2.326027303934097290e-02 -4.795206785202026367e-01
-6.554254293441772461e-01 1.591410674154758453e-02 -4.642918109893798828e-01
-6.512934565544128418e-01 3.240787610411643982e-02 -4.650022685527801514e-01
-6.635055541992187500e-01 2.537392824888229370e-02 -4.494900703430175781e-01
3.420667946338653564e-01 -3.577008247375488281e-01 2.361253499984741211e-01
3.258810639381408691e-01 -3.610911071300506592e-01 2.410976290702819824e-01
3.346323072910308838e-01 -3.418553173542022705e-01 2.444093525409698486e-01
3.197360038757324219e-01 -3.475644588470458984e-01 2.473454326391220093e-01
-3.388182520866394043e-01 8.567342162132263184e-02 -2.235945314168930054e-01
-3.301291465759277344e-01 8.636923879384994507e-02 -2.026698291301727295e-01
-3.520161509513854980e-01 8.812955021858215332e-02 -2.031788080930709839e-01
-3.418845832347869873e-01 8.959306031465530396e-02 -1.823199391365051270e-01
4.908081889152526855e-01 -1.996211111545562744e-01 2.451523095369338989e-01
4.796072244644165039e-01 -2.116499394178390503e-01 2.466868907213211060e-01
4.787745773792266846e-01 -1.846678853034973145e-01 2.470587939023971558e-01
4.684382677078247070e-01 -1.970391720533370972e-01 2.485027015209197998e-01
-2.342064231634140015e-01 2.800073027610778809e-01 1.203973740339279175e-01
-2.413505464792251587e-01 2.761784791946411133e-01 1.389405578374862671e-01
-2.357313781976699829e-01 2.873775660991668701e-01 1.405853182077407837e-01
-2.414109110832214355e-01 2.824397683143615723e-01 1.592519581317901611e-01
-5.352115035057067871e-01 7.616395503282546997e-02 -2.882558703422546387e-01
-5.274072289466857910e-01 7.793560624122619629e-02 -2.700408101081848145e-01
-5.480831265449523926e-01 7.924846559762954712e-02 -2.697857916355133057e-01
-5.402809977531433105e-01 8.092962950468063354e-02 -2.513414025306701660e-01
-1.894249953329563141e-02 -4.386940002441406250e-01 -1.437397208064794540e-02
-2.720164880156517029e-02 -4.507298171520233154e-01 9.235673584043979645e-03
-1.611905731260776520e-02 -4.281010627746582031e-01 6.964652799069881439e-03
-2.484806999564170837e-02 -4.404565095901489258e-01 3.175319731235504150e-02
6.115430593490600586e-01 2.526562809944152832e-01 2.193844616413116455e-01
6.021546125411987305e-01 2.481602728366851807e-01 2.354499995708465576e-01
6.074103713035583496e-01 2.691327929496765137e-01 2.311998009681701660e-01
5.973401665687561035e-01 2.641546130180358887e-01 2.478569149971008301e-01
-3.871651589870452881e-01 1.739965379238128662e-01 1.602716185152530670e-02
-3.874637186527252197e-01 1.741172224283218384e-01 3.334042802453041077e-02
-3.829360604286193848e-01 1.800666898488998413e-01 4.826223850250244141e-02
-3.847353756427764893e-01 1.802140176296234131e-01 6.637035310268402100e-02
2.471449673175811768e-01 -2.542875111103057861e-01 2.437437474727630615e-01
2.374508082866668701e-01 -2.681887745857238770e-01 2.438378036022186279e-01
2.449846863746643066e-01 -2.368172705173492432e-01 2.458755820989608765e-01
2.343934774398803711e-01 -2.512581944465637207e-01 2.471859455108642578e-01
-1.195579841732978821e-01 -2.930789887905120850e-01 2.449177354574203491e-01
-1.277081668376922607e-01 -3.045312762260437012e-01 2.452844232320785522e-01
-1.336268037557601929e-01 -2.818878293037414551e-01 2.445664703845977783e-01
-1.419037580490112305e-01 -2.930006682872772217e-01 2.448734045028686523e-01
5.680857896804809570e-01 -6.969399750232696533e-02 -6.925123743712902069e-03
5.629476308822631836e-01 -8.562335371971130371e-02 -2.336224308237433434e-03
5.577447414398193359e-01 -5.748893693089485168e-02 -9.597041644155979156e-03
5.518845915794372559e-01 -7.363095134496688843e-02 -5.408372730016708374e-03
-4.352211058139801025e-01 -1.525791585445404053e-01 1.771010644733905792e-02
-4.321494400501251221e-01 -1.527408957481384277e-01 3.659044578671455383e-02
-4.460452795028686523e-01 -1.421521902084350586e-01 3.073215857148170471e-02
-4.428095221519470215e-01 -1.424324214458465576e-01 4.868071153759956360e-02
4.146877825260162354e-01 2.655036747455596924e-01 1.557666212320327759e-01
4.091281890869140625e-01 2.492893487215042114e-01 1.589513868093490601e-01
4.037767648696899414e-01 2.788754701614379883e-01 1.488510221242904663e-01
3.997688889503479004e-01 2.638143599033355713e-01 1.519845128059387207e-01
-3.793343156576156616e-02 -5.862082839012145996e-01 -2.904208898544311523e-01
-4.221247509121894836e-02 -5.891590714454650879e-01 -2.729871273040771484e-01
-4.031071439385414124e-02 -5.751649141311645508e-01 -2.775412499904632568e-01
-4.404897615313529968e-02 -5.794252157211303711e-01 -2.585481703281402588e-01
6.007243394851684570e-01 -1.455139815807342529e-01 5.878314841538667679e-03
5.962498784065246582e-01 -1.570054441690444946e-01 1.484346389770507812e-02
5.928120017051696777e-01 -1.356517672538757324e-01 3.452878911048173904e-03
5.875656604766845703e-01 -1.475767046213150024e-01 9.959189221262931824e-03
4.974240958690643311e-01 -2.792257070541381836e-01 2.398039251565933228e-01
4.808676242828369141e-01 -2.924304604530334473e-01 2.442516237497329712e-01
4.858636558055877686e-01 -2.592778503894805908e-01 2.439158558845520020e-01
4.707378447055816650e-01 -2.734158635139465332e-01 2.477657943964004517e-01
3.106833100318908691e-01 -3.930102288722991943e-01 1.672105044126510620e-01
3.164674341678619385e-01 -3.897985816001892090e-01 1.872570812702178955e-01
3.011386096477508545e-01 -3.881872296333312988e-01 1.853080540895462036e-01
3.049501776695251465e-01 -3.857229351997375488e-01 2.051107734441757202e-01
-9.715570509433746338e-02 -6.067670583724975586e-01 -9.930004924535751343e-02
-8.981496095657348633e-02 -6.068950295448303223e-01 -8.266965299844741821e-02
-1.032149717211723328e-01 -6.059401631355285645e-01 -7.515302300453186035e-02
-9.557902812957763672e-02 -6.049461960792541504e-01 -5.798653140664100647e-02
5.917375087738037109e-01 9.617500938475131989e-03 -2.231689728796482086e-02
5.880950093269348145e-01 -1.439164392650127411e-03 -1.323207281529903412e-02
5.820879936218261719e-01 2.743824757635593414e-02 -2.337716892361640930e-02
5.794256925582885742e-01 1.755036599934101105e-02 -1.524192653596401215e-02
-2.597722709178924561e-01 -3.870981931686401367e-01 2.437933981418609619e-01
-2.688768208026885986e-01 -4.008131623268127441e-01 2.462706565856933594e-01
-2.681947648525238037e-01 -3.766559064388275146e-01 2.454895973205566406e-01
-2.767057716846466064e-01 -3.896564245223999023e-01 2.470688372850418091e-01
5.298652648925781250e-01 -2.407156303524971008e-02 2.445580363273620605e-01
5.192962288856506348e-01 -3.646776080131530762e-02 2.464391142129898071e-01
5.183479785919189453e-01 -9.684655815362930298e-03 2.464083433151245117e-01
5.076950192451477051e-01 -2.273554541170597076e-02 2.475593984127044678e-01
1.292111724615097046e-01 -1.704786419868469238e-01 2.446282207965850830e-01
1.176532581448554993e-01 -1.854209899902343750e-01 2.462734133005142212e-01
1.115641966462135315e-01 -1.550441533327102661e-01 2.460201531648635864e-01
1.000423654913902283e-01 -1.705638766288757324e-01 2.473420351743698120e-01
-7.915618829429149628e-03 -1.508004218339920044e-01 -4.392436444759368896e-01
-1.792610809206962585e-02 -1.660484820604324341e-01 -4.357569217681884766e-01
-1.962172240018844604e-02 -1.361949294805526733e-01 -4.386971294879913330e-01
-2.921097353100776672e-02 -1.513485908508300781e-01 -4.353879094123840332e-01
-2.946246862411499023e-01 -5.366259813308715820e-02 -4.568853974342346191e-01
-3.057841360569000244e-01 -7.037431001663208008e-02 -4.503388702869415283e-01
-3.095965087413787842e-01 -4.019263386726379395e-02 -4.554374814033508301e-01
-3.186194598674774170e-01 -5.575389042496681213e-02 -4.510347545146942139e-01
4.292476177215576172e-01 -7.238700240850448608e-02 -4.376719892024993896e-02
4.423162043094635010e-01 -7.222057133913040161e-02 -3.695270791649818420e-02
4.198218286037445068e-01 -5.648823454976081848e-02 -4.901237040758132935e-02
4.333293139934539795e-01 -5.639226362109184265e-02 -4.246143996715545654e-02
1.499458998441696167e-01 -4.117078483104705811e-01 7.240789383649826050e-02
1.561017334461212158e-01 -4.102526009082794189e-01 9.051901102066040039e-02
1.430612057447433472e-01 -4.084192812442779541e-01 9.124037623405456543e-02
1.499907523393630981e-01 -4.073075652122497559e-01 1.084671840071678162e-01
-2.563813701272010803e-02 -1.310749351978302002e-01 -4.400842785835266113e-01
-3.493282571434974670e-02 -1.462675780057907104e-01 -4.368527531623840332e-01
-3.716814145445823669e-02 -1.176815629005432129e-01 -4.402586221694946289e-01
-4.563955590128898621e-02 -1.326754838228225708e-01 -4.369527399539947510e-01
5.019637942314147949e-01 2.762707471847534180e-01 1.723648011684417725e-01
4.965793490409851074e-01 2.630975246429443359e-01 1.765175163745880127e-01
4.910370707511901855e-01 2.876438796520233154e-01 1.702366322278976440e-01
4.850602149963378906e-01 2.744824290275573730e-01 1.737499535083770752e-01
-4.367340207099914551e-01 1.428044289350509644e-01 -4.420963674783706665e-02
-4.361976981163024902e-01 1.482194960117340088e-01 -3.076905384659767151e-02
-4.431675970554351807e-01 1.520288884639739990e-01 -2.186520770192146301e-02
-4.433298110961914062e-01 1.573920547962188721e-01 -8.984698913991451263e-03
-6.329385563731193542e-03 -1.633324325084686279e-01 -4.380770623683929443e-01
-1.611668616533279419e-02 -1.788578480482101440e-01 -4.352864325046539307e-01
-1.613118872046470642e-02 -1.498840451240539551e-01 -4.381967782974243164e-01
-2.614167891442775726e-02 -1.651321053504943848e-01 -4.347100555896759033e-01
2.170807421207427979e-01 -2.658152878284454346e-01 2.440954446792602539e-01
2.073401063680648804e-01 -2.793740928173065186e-01 2.439246475696563721e-01
2.097703367471694946e-01 -2.515872120857238770e-01 2.459140866994857788e-01
1.995787173509597778e-01 -2.651166021823883057e-01 2.461369931697845459e-01
4.475231170654296875e-01 1.533845812082290649e-01 1.388845592737197876e-01
4.531317353248596191e-01 1.577513962984085083e-01 1.543020755052566528e-01
4.358825981616973877e-01 1.622423976659774780e-01 1.525506079196929932e-01
4.400878250598907471e-01 1.656571775674819946e-01 1.652438342571258545e-01
-3.980408608913421631e-02 -4.582867026329040527e-01 -5.861343815922737122e-02
-4.712887108325958252e-02 -4.678404331207275391e-01 -3.890608251094818115e-02
-3.562499210238456726e-02 -4.477795958518981934e-01 -3.782782331109046936e-02
-4.405535012483596802e-02 -4.592113494873046875e-01 -1.565531268715858459e-02
1.606918275356292725e-01 -2.020885646343231201e-01 -1.545351594686508179e-01
1.726065576076507568e-01 -2.019530385732650757e-01 -1.393021941184997559e-01
1.571943163871765137e-01 -2.002875655889511108e-01 -1.337158232927322388e-01
1.686601489782333374e-01 -2.004134654998779297e-01 -1.185545176267623901e-01
6.717497110366821289e-02 -4.218958914279937744e-01 8.802065253257751465e-02
7.780027389526367188e-02 -4.199637174606323242e-01 1.063744127750396729e-01
6.070360168814659119e-02 -4.208219945430755615e-01 1.118293553590774536e-01
7.138465344905853271e-02 -4.189238250255584717e-01 1.296341121196746826e-01
3.100321888923645020e-01 -1.827246844768524170e-01 -5.453190207481384277e-02
3.187324106693267822e-01 -1.825095117092132568e-01 -3.618729859590530396e-02
2.984917163848876953e-01 -1.791135966777801514e-01 -3.123305924236774445e-02
3.070152997970581055e-01 -1.789766997098922729e-01 -1.269858609884977341e-02
2.987996041774749756e-01 -1.633446812629699707e-01 -1.153743937611579895e-01
3.110700547695159912e-01 -1.635594069957733154e-01 -9.922003746032714844e-02
3.082191348075866699e-01 -1.526481509208679199e-01 -1.019982174038887024e-01
3.202384710311889648e-01 -1.538959443569183350e-01 -8.627630025148391724e-02
1.332869082689285278e-01 -1.116283331066370010e-02 -3.257749974727630615e-01
1.404388546943664551e-01 -1.056180056184530258e-02 -3.089340925216674805e-01
1.304575353860855103e-01 -2.563314512372016907e-03 -3.134851157665252686e-01
1.378958225250244141e-01 -2.234513871371746063e-03 -2.961538434028625488e-01
-1.157761141657829285e-01 -5.959778428077697754e-01 1.308847218751907349e-01
-1.093253791332244873e-01 -5.957151651382446289e-01 1.478771120309829712e-01
-1.260747015476226807e-01 -5.946488976478576660e-01 1.500200778245925903e-01
-1.203234791755676270e-01 -5.945307612419128418e-01 1.659601181745529175e-01
2.103684991598129272e-01 6.050458550453186035e-01 8.685172349214553833e-02
1.963930875062942505e-01 6.037493944168090820e-01 9.013259410858154297e-02
2.011011987924575806e-01 6.165882349014282227e-01 9.272284805774688721e-02
1.863612979650497437e-01 6.172702312469482422e-01 9.739039838314056396e-02
-1.485941559076309204e-01 -2.888791561126708984e-01 2.450113445520401001e-01
-1.572649478912353516e-01 -3.004208803176879883e-01 2.454196065664291382e-01
-1.564747542142868042e-01 -2.751347422599792480e-01 2.461591213941574097e-01
-1.658850461244583130e-01 -2.862890064716339111e-01 2.471281588077545166e-01
3.103324770927429199e-02 5.522333383560180664e-01 1.002232953906059265e-01
2.295920625329017639e-02 5.500602126121520996e-01 1.183978021144866943e-01
2.998494356870651245e-02 5.639201998710632324e-01 1.204769834876060486e-01
2.253510989248752594e-02 5.608953237533569336e-01 1.379468739032745361e-01
-2.261837869882583618e-01 -5.974786281585693359e-01 1.256922781467437744e-01
-2.209735363721847534e-01 -5.999194979667663574e-01 1.453837454319000244e-01
-2.345992475748062134e-01 -5.947577357292175293e-01 1.448421180248260498e-01
-2.294827103614807129e-01 -5.972806811332702637e-01 1.642656624317169189e-01
4.673646390438079834e-01 -2.051395326852798462e-01 2.441110014915466309e-01
4.575931429862976074e-01 -2.193641513586044312e-01 2.454471439123153687e-01
4.553163051605224609e-01 -1.877548992633819580e-01 2.452728003263473511e-01
4.460093975067138672e-01 -2.023202031850814819e-01 2.468440532684326172e-01
-4.897948503494262695e-01 7.655371725559234619e-02 -2.825306653976440430e-01
-4.803244471549987793e-01 7.879520207643508911e-02 -2.616380453109741211e-01
-4.981695711612701416e-01 8.139338344335556030e-02 -2.602689266204833984e-01
-4.894750714302062988e-01 8.354464918375015259e-02 -2.397705614566802979e-01
-3.404048979282379150e-01 -2.428750135004520416e-02 -4.566279053688049316e-01
-3.483395576477050781e-01 -3.736677765846252441e-02 -4.537317454814910889e-01
-3.558261096477508545e-01 -1.006641611456871033e-02 -4.606441855430603027e-01
-3.643114566802978516e-01 -2.252191491425037384e-02 -4.582007229328155518e-01
-6.831615567207336426e-01 -7.035034894943237305e-02 2.140890806913375854e-01
-6.803419589996337891e-01 -6.835237890481948853e-02 2.350503802299499512e-01
-6.902167797088623047e-01 -5.495779961347579956e-02 2.286872565746307373e-01
-6.864638328552246094e-01 -5.254856124520301819e-02 2.497349679470062256e-01
-1.212895587086677551e-01 -3.821498751640319824e-01 -3.985465466976165771e-01
-1.298861801624298096e-01 -3.966526091098785400e-01 -3.941242694854736328e-01
-1.314222812652587891e-01 -3.694127500057220459e-01 -3.968856036663055420e-01
-1.405219584703445435e-01 -3.843677043914794922e-01 -3.925709128379821777e-01
-2.777531445026397705e-01 -6.232184767723083496e-01 -2.213231623172760010e-01
-2.777910530567169189e-01 -6.217640042304992676e-01 -1.980847418308258057e-01
-2.944373488426208496e-01 -6.103894710540771484e-01 -2.117251902818679810e-01
-2.937506437301635742e-01 -6.111961007118225098e-01 -1.887793987989425659e-01
-5.029442906379699707e-01 -1.230165809392929077e-01 -9.254533797502517700e-02
-4.996412694454193115e-01 -1.236848831176757812e-01 -7.341641187667846680e-02
-5.120022892951965332e-01 -1.167572140693664551e-01 -7.852773368358612061e-02
-5.095567107200622559e-01 -1.170572340488433838e-01 -5.919423699378967285e-02
-2.095544040203094482e-01 -3.069657087326049805e-01 -4.126380085945129395e-01
-2.205201536417007446e-01 -3.198598027229309082e-01 -4.042245745658874512e-01
-2.238142937421798706e-01 -2.963134050369262695e-01 -4.133174121379852295e-01
-2.349169850349426270e-01 -3.087570071220397949e-01 -4.049492478370666504e-01
3.881279230117797852e-01 3.174274042248725891e-02 -5.592859536409378052e-02
3.987365067005157471e-01 3.940686956048011780e-02 -3.923491388559341431e-02
3.818893134593963623e-01 4.437872767448425293e-02 -4.117300361394882202e-02
3.901396691799163818e-01 5.142411962151527405e-02 -2.265401557087898254e-02
-3.315540254116058350e-01 -3.042525351047515869e-01 7.181200385093688965e-02
-3.318452537059783936e-01 -3.082080483436584473e-01 9.267331659793853760e-02
-3.366907238960266113e-01 -2.919875979423522949e-01 8.854649960994720459e-02
-3.373956084251403809e-01 -2.954134643077850342e-01 1.098259389400482178e-01
-3.107426129281520844e-02 -4.992724359035491943e-01 -1.265773456543684006e-02
-3.464649617671966553e-02 -5.066764950752258301e-01 1.056138798594474792e-02
-3.548827394843101501e-02 -4.929449558258056641e-01 6.373076699674129486e-03
-3.828864172101020813e-02 -5.008655786514282227e-01 2.949114888906478882e-02
-6.740646902471780777e-03 -4.382817149162292480e-01 2.186774909496307373e-01
-1.108827255666255951e-02 -4.423941969871520996e-01 2.324419617652893066e-01
-1.264844927936792374e-02 -4.225830435752868652e-01 2.309735268354415894e-01
-2.340494841337203979e-02 -4.305214881896972656e-01 2.409065216779708862e-01
-2.366666793823242188e-01 4.783302918076515198e-02 -4.740326404571533203e-01
-2.488386034965515137e-01 4.837391152977943420e-02 -4.630159735679626465e-01
-2.531400918960571289e-01 5.713520199060440063e-02 -4.618394076824188232e-01
-2.546198666095733643e-01 6.261008977890014648e-02 -4.469728171825408936e-01
4.018885493278503418e-01 5.946908593177795410e-01 9.173907339572906494e-02
3.947486877441406250e-01 5.807411074638366699e-01 9.208837896585464478e-02
3.944552242755889893e-01 6.101483106613159180e-01 9.129030257463455200e-02
3.867025673389434814e-01 5.968432426452636719e-01 9.132478386163711548e-02
-1.770823895931243896e-01 -2.530373036861419678e-01 -4.233275055885314941e-01
-1.866485625505447388e-01 -2.696390151977539062e-01 -4.139699637889862061e-01
-2.002185285091400146e-01 -2.435322850942611694e-01 -4.221194386482238770e-01
-2.092980742454528809e-01 -2.597225606441497803e-01 -4.142528474330902100e-01
-3.875803351402282715e-01 -1.973951607942581177e-01 4.252243041992187500e-02
-3.843163251876831055e-01 -1.983415931463241577e-01 6.476084142923355103e-02
-3.950445950031280518e-01 -1.861906200647354126e-01 6.060346215963363647e-02
-3.925932943820953369e-01 -1.864811778068542480e-01 8.303444087505340576e-02
3.741819858551025391e-01 7.214135527610778809e-01 1.643108129501342773e-01
3.853901624679565430e-01 7.216119170188903809e-01 1.844999641180038452e-01
3.689520061016082764e-01 7.291003465652465820e-01 1.873750090599060059e-01
3.705388903617858887e-01 7.238394021987915039e-01 2.050453275442123413e-01
9.357570856809616089e-02 -4.253619015216827393e-01 -1.126901581883430481e-01
9.152393788099288940e-02 -4.352024793624877930e-01 -9.593404829502105713e-02
9.482822567224502563e-02 -4.229755401611328125e-01 -9.266754239797592163e-02
9.489753842353820801e-02 -4.322818219661712646e-01 -7.589889317750930786e-02
4.167129099369049072e-01 4.721154570579528809e-01 2.435453683137893677e-01
4.051685333251953125e-01 4.634342789649963379e-01 2.463787198066711426e-01
4.037008881568908691e-01 4.839489161968231201e-01 2.450713664293289185e-01
3.921397030353546143e-01 4.749313294887542725e-01 2.475900650024414062e-01
-3.403102159500122070e-01 -2.808864712715148926e-01 -3.291491791605949402e-02
-3.406047224998474121e-01 -2.844092249870300293e-01 -1.491847354918718338e-02
-3.463757038116455078e-01 -2.696345746517181396e-01 -2.180210314691066742e-02
-3.463227748870849609e-01 -2.739516794681549072e-01 -3.954661544412374496e-03
1.554129123687744141e-01 5.615833401679992676e-01 7.977075129747390747e-02
1.432352513074874878e-01 5.555369853973388672e-01 8.025843650102615356e-02
1.523223370313644409e-01 5.740578770637512207e-01 8.452631533145904541e-02
1.377661228179931641e-01 5.704091191291809082e-01 8.676338940858840942e-02
-1.922923475503921509e-01 -2.735506594181060791e-01 -4.187548160552978516e-01
-2.032115757465362549e-01 -2.882189452648162842e-01 -4.097706675529479980e-01
-2.118044495582580566e-01 -2.627396285533905029e-01 -4.176197052001953125e-01
-2.214839458465576172e-01 -2.782709896564483643e-01 -4.100726246833801270e-01
-4.555045664310455322e-01 -1.793265044689178467e-01 -4.243960976600646973e-01
-4.590803980827331543e-01 -1.879410892724990845e-01 -4.089846014976501465e-01
-4.661552608013153076e-01 -1.696907579898834229e-01 -4.200370907783508301e-01
-4.716159105300903320e-01 -1.793398112058639526e-01 -4.060283005237579346e-01
4.033158998936414719e-03 -4.809931851923465729e-03 2.442393749952316284e-01
-7.790870033204555511e-03 -1.654771715402603149e-02 2.462125569581985474e-01
-9.078061208128929138e-03 1.164802256971597672e-02 2.461916655302047729e-01
-2.140147238969802856e-02 -7.592029287479817867e-04 2.483401149511337280e-01
-6.792489290237426758e-01 -1.243038326501846313e-01 -2.949107885360717773e-01
-6.719969511032104492e-01 -1.254662573337554932e-01 -2.707101404666900635e-01
-6.917680501937866211e-01 -1.186996996402740479e-01 -2.773731350898742676e-01
-6.853926181793212891e-01 -1.212575286626815796e-01 -2.530178725719451904e-01
1.278922855854034424e-01 -2.103798389434814453e-01 -1.672327071428298950e-01
1.375200450420379639e-01 -2.102504819631576538e-01 -1.492117047309875488e-01
1.255198270082473755e-01 -2.038097977638244629e-01 -1.469179987907409668e-01
1.347360014915466309e-01 -2.049027830362319946e-01 -1.307988464832305908e-01
-1.447210162878036499e-01 1.516948454082012177e-03 -4.645221829414367676e-01
-1.546745300292968750e-01 -1.259052753448486328e-02 -4.593426883220672607e-01
-1.551788151264190674e-01 1.231197547167539597e-02 -4.636911749839782715e-01
-1.665960401296615601e-01 -5.409908480942249298e-04 -4.574235677719116211e-01
-4.118304327130317688e-02 -5.876740813255310059e-01 -3.812084197998046875e-01
-4.263541474938392639e-02 -5.941682457923889160e-01 -3.631642460823059082e-01
-3.764966130256652832e-02 -5.801008939743041992e-01 -3.668492734432220459e-01
-3.903008624911308289e-02 -5.861683487892150879e-01 -3.480145037174224854e-01
1.108798682689666748e-01 -3.492590487003326416e-01 -1.238239407539367676e-01
1.177491322159767151e-01 -3.530958890914916992e-01 -1.069612279534339905e-01
1.123271808028221130e-01 -3.363389968872070312e-01 -1.125218495726585388e-01
1.192716583609580994e-01 -3.393032550811767578e-01 -9.599636495113372803e-02
1.397093534469604492e-01 3.622674345970153809e-01 4.430821165442466736e-02
1.291573941707611084e-01 3.528863191604614258e-01 4.490241035819053650e-02
1.342006772756576538e-01 3.769948780536651611e-01 4.952314496040344238e-02
1.233480945229530334e-01 3.678763210773468018e-01 5.023187026381492615e-02
-3.794499039649963379e-01 -2.082668840885162354e-01 1.772469431161880493e-01
-3.777409195899963379e-01 -2.089799940586090088e-01 1.997814178466796875e-01
-3.868933916091918945e-01 -1.947309672832489014e-01 1.951926201581954956e-01
-3.845264911651611328e-01 -1.948407739400863647e-01 2.198217362165451050e-01
-5.956369638442993164e-01 -1.387118250131607056e-01 -3.813593089580535889e-01
-5.926035642623901367e-01 -1.373669952154159546e-01 -3.605975806713104248e-01
-6.106738448143005371e-01 -1.340371817350387573e-01 -3.679318428039550781e-01
-6.058323979377746582e-01 -1.313682645559310913e-01 -3.461697697639465332e-01
6.053020358085632324e-01 -2.174171060323715210e-01 1.698457300662994385e-01
6.125654578208923340e-01 -2.176346480846405029e-01 1.840195357799530029e-01
5.973721742630004883e-01 -2.091741859912872314e-01 1.808878928422927856e-01
6.007773876190185547e-01 -2.112548500299453735e-01 1.963923126459121704e-01
6.088093519210815430e-01 1.147604808211326599e-01 1.777691543102264404e-01
6.060933470726013184e-01 1.102651730179786682e-01 2.018586248159408569e-01
6.081521511077880859e-01 1.320158988237380981e-01 1.916618943214416504e-01
6.040042638778686523e-01 1.252174377441406250e-01 2.167966216802597046e-01
4.943813085556030273e-01 -1.005612760782241821e-01 2.438796758651733398e-01
4.847708940505981445e-01 -1.132914349436759949e-01 2.464119642972946167e-01
4.846878051757812500e-01 -8.987490087747573853e-02 2.462405562400817871e-01
4.751084148883819580e-01 -1.026476621627807617e-01 2.483614087104797363e-01
6.066597104072570801e-01 4.009124636650085449e-01 2.322095334529876709e-01
5.976719260215759277e-01 3.987061679363250732e-01 2.441558092832565308e-01
6.026711463928222656e-01 4.134916663169860840e-01 2.425831556320190430e-01
5.937203168869018555e-01 4.115313887596130371e-01 2.541528046131134033e-01
-1.270919591188430786e-01 -4.454860091209411621e-01 -3.835733830928802490e-01
-1.336178332567214966e-01 -4.572333991527557373e-01 -3.811396956443786621e-01
-1.336760967969894409e-01 -4.323044717311859131e-01 -3.844203650951385498e-01
-1.402662545442581177e-01 -4.444517791271209717e-01 -3.814586699008941650e-01
-3.227923512458801270e-01 -5.373500585556030273e-01 -3.351797461509704590e-01
-3.255966901779174805e-01 -5.378705263137817383e-01 -3.182525336742401123e-01
-3.324362039566040039e-01 -5.219299197196960449e-01 -3.265577256679534912e-01
-3.348612487316131592e-01 -5.217880010604858398e-01 -3.079743385314941406e-01
6.143023371696472168e-01 8.696739561855792999e-03 4.515191167593002319e-02
6.159152388572692871e-01 8.139674551784992218e-03 6.729090213775634766e-02
6.003971099853515625e-01 2.374934032559394836e-02 6.338053196668624878e-02
6.036465167999267578e-01 2.600113861262798309e-02 8.655101805925369263e-02
4.282671958208084106e-03 8.806624263525009155e-02 -1.918208450078964233e-01
9.059490635991096497e-03 8.936552703380584717e-02 -1.772743463516235352e-01
-7.279715500771999359e-03 8.909721672534942627e-02 -1.748848855495452881e-01
-2.027508104220032692e-03 9.003140777349472046e-02 -1.605880558490753174e-01
4.358604252338409424e-01 1.460269391536712646e-01 1.071248650550842285e-01
4.411646723747253418e-01 1.506783217191696167e-01 1.245169714093208313e-01
4.312620460987091064e-01 1.546818315982818604e-01 1.239627152681350708e-01
4.360173046588897705e-01 1.594529598951339722e-01 1.410296857357025146e-01
4.982656538486480713e-01 -1.649555116891860962e-01 6.233457475900650024e-02
4.970138370990753174e-01 -1.718661338090896606e-01 8.290390670299530029e-02
4.856347739696502686e-01 -1.510523110628128052e-01 6.274390965700149536e-02
4.817320704460144043e-01 -1.591256409883499146e-01 8.340757340192794800e-02
4.275919497013092041e-01 6.923581659793853760e-02 5.503807216882705688e-02
4.309880137443542480e-01 7.145849615335464478e-02 7.279958575963973999e-02
