4.221260000000000012e-01 -1.812259999999999982e-01 1.154140000000000027e-01
-2.307720000000000049e-01 1.888920000000000043e-01 2.454139999999999933e-01
-5.386670000000000069e-01 -1.155950000000000033e-01 -1.521730000000000027e-01
1.074539999999999940e-01 9.809800000000000464e-02 -1.234770000000000034e-01
4.229100000000000081e-01 6.103939999999999921e-01 9.860199999999999521e-02
-7.218900000000000317e-02 -4.784240000000000159e-01 -3.777809999999999779e-01
-5.001079999999999970e-01 1.477000000000000014e-03 2.454139999999999933e-01
-1.897880000000000122e-01 7.356600000000000639e-02 -3.137210000000000276e-01
6.012599999999999889e-02 -9.126999999999999696e-03 2.454139999999999933e-01
-3.492959999999999954e-01 -2.521950000000000025e-01 2.454139999999999933e-01
6.055730000000000279e-01 -1.844280000000000086e-01 2.048540000000000083e-01
1.112869999999999970e-01 6.155580000000000496e-01 2.357789999999999886e-01
3.643089999999999939e-01 1.403059999999999863e-01 2.454139999999999933e-01
1.032939999999999969e-01 -1.095030000000000031e-01 2.454139999999999933e-01
5.328819999999999668e-01 -1.561339999999999950e-01 1.122019999999999962e-01
-4.189700000000000091e-01 -1.109300000000000043e-02 2.454139999999999933e-01
-4.820659999999999945e-01 -1.594319999999999904e-01 -4.340269999999999961e-01
-2.128220000000000112e-01 1.263100000000000056e-01 -5.596500000000000086e-02
-6.282999999999999696e-01 -9.237499999999999878e-02 7.794800000000000340e-02
-3.303170000000000273e-01 -3.384949999999999903e-01 2.102729999999999877e-01
4.118510000000000226e-01 -2.396999999999999825e-03 2.454139999999999933e-01
-5.066110000000000335e-01 -1.106749999999999956e-01 3.014199999999999866e-02
4.679300000000000126e-01 6.517150000000000443e-01 2.454139999999999933e-01
-7.450099999999999778e-02 -5.185250000000000137e-01 -3.707110000000000127e-01
1.816180000000000017e-01 -1.428039999999999865e-01 -3.234409999999999785e-01
-2.699980000000000158e-01 -2.933709999999999929e-01 2.454139999999999933e-01
-5.054290000000000171e-01 5.928100000000000036e-02 2.454139999999999933e-01
4.547799999999999759e-02 -4.125440000000000218e-01 -2.955070000000000197e-01
-5.447520000000000140e-01 -1.434149999999999869e-01 -3.760319999999999774e-01
-4.027749999999999941e-01 9.566700000000000204e-02 -1.319180000000000075e-01
5.147080000000000544e-01 6.411799999999999444e-02 9.183099999999999596e-02
2.022930000000000006e-01 5.073199999999999932e-01 7.363300000000000400e-02
-6.777689999999999548e-01 -2.246899999999999939e-02 2.454139999999999933e-01
-1.824000000000000100e-03 -4.786949999999999816e-01 -3.637900000000000023e-01
-5.597130000000000161e-01 7.201899999999999968e-02 -3.251149999999999873e-01
-1.797999999999999876e-01 8.884599999999999442e-02 -1.879349999999999909e-01
-4.276530000000000054e-01 -1.771989999999999954e-01 -4.308930000000000260e-01
-1.676390000000000102e-01 1.967319999999999902e-01 8.134999999999999870e-03
-2.337549999999999906e-01 -5.565560000000000507e-01 2.454139999999999933e-01
-2.758809999999999873e-01 -2.818979999999999819e-01 2.454139999999999933e-01
-3.373479999999999812e-01 -3.387049999999999783e-01 -3.353860000000000174e-01
-2.812060000000000115e-01 -9.156300000000000550e-02 -4.459969999999999768e-01
4.611430000000000251e-01 5.552699999999999997e-02 4.310499999999999748e-02
4.231619999999999826e-01 4.569819999999999993e-01 1.254770000000000052e-01
-3.958579999999999877e-01 -2.252149999999999985e-01 -3.401339999999999919e-01
4.319950000000000179e-01 5.382900000000000185e-02 3.346099999999999769e-02
-2.320200000000000040e-02 1.898769999999999902e-01 2.454139999999999933e-01
6.055730000000000279e-01 -3.746100000000000124e-02 1.244999999999999996e-01
3.927599999999999841e-02 -3.945750000000000091e-01 -3.668770000000000087e-01
-4.036020000000000163e-01 -2.245060000000000111e-01 -3.867169999999999774e-01
2.194740000000000024e-01 6.397770000000000401e-01 9.699000000000000676e-02
-2.876770000000000160e-01 -5.953600000000000003e-01 1.184400000000000036e-02
2.726359999999999895e-01 5.840210000000000123e-01 8.715699999999999836e-02
-1.898269999999999957e-01 -2.633199999999999985e-01 2.454139999999999933e-01
-3.295100000000000251e-01 -4.975289999999999990e-01 2.018300000000000094e-01
-3.412400000000000155e-02 8.613500000000000323e-02 -2.126240000000000074e-01
5.519490000000000229e-01 1.601100000000000093e-02 2.454139999999999933e-01
6.055730000000000279e-01 6.055580000000000407e-01 1.311509999999999898e-01
-5.962779999999999747e-01 -9.141399999999999526e-02 -4.460210000000000008e-01
-8.100799999999999668e-02 -5.971800000000000441e-01 -2.632999999999999924e-03
-1.361779999999999935e-01 -4.849319999999999742e-01 -3.766340000000000243e-01
1.747620000000000007e-01 -1.542320000000000080e-01 -3.522640000000000216e-01
3.503850000000000020e-01 4.894879999999999787e-01 2.454139999999999933e-01
-6.844970000000000221e-01 9.997399999999999343e-02 1.792759999999999909e-01
-2.000010000000000121e-01 5.117100000000000121e-02 -4.583999999999999742e-01
-4.980000000000000052e-03 -1.570999999999999827e-02 -4.593690000000000273e-01
-5.213489999999999513e-01 -1.360679999999999945e-01 -2.867819999999999814e-01
2.649830000000000241e-01 -1.895840000000000025e-01 3.258500000000000285e-02
4.712959999999999927e-01 7.358919999999999906e-01 2.454139999999999933e-01
-1.701759999999999939e-01 -6.156449999999999978e-01 -1.521260000000000112e-01
4.707669999999999910e-01 -3.780229999999999979e-01 2.268910000000000093e-01
1.818940000000000001e-01 -1.177519999999999956e-01 2.454139999999999933e-01
-3.573599999999999693e-02 -5.033689999999999554e-01 1.607860000000000122e-01
2.605739999999999723e-01 3.813799999999999968e-01 2.454139999999999933e-01
-3.594979999999999842e-01 1.913940000000000086e-01 2.454139999999999933e-01
-3.404570000000000096e-01 -2.835670000000000135e-01 9.529799999999999383e-02
4.026899999999999924e-02 -2.429260000000000030e-01 -3.657000000000000250e-01
7.718000000000000034e-03 -4.091710000000000069e-01 -3.899929999999999786e-01
-1.691199999999999995e-02 2.265159999999999951e-01 2.037599999999999828e-02
3.215999999999999970e-01 4.733899999999999914e-02 -3.286999999999999991e-03
2.186000000000000096e-02 -3.807590000000000141e-01 2.454139999999999933e-01
5.471120000000000427e-01 1.606660000000000033e-01 2.454139999999999933e-01
3.164830000000000143e-01 -1.188680000000000014e-01 -1.063660000000000022e-01
-2.308890000000000109e-01 -1.810549999999999937e-01 -4.302159999999999873e-01
3.234179999999999833e-01 -3.865169999999999995e-01 2.257260000000000100e-01
-6.845010000000000261e-01 -7.358000000000000651e-02 2.292800000000000116e-01
-5.505790000000000406e-01 7.519900000000000195e-02 -3.016889999999999850e-01
2.497870000000000090e-01 6.592499999999999749e-02 -2.313600000000000032e-02
1.555680000000000118e-01 -2.293659999999999866e-01 -3.031159999999999966e-01
6.863600000000000256e-02 -2.325149999999999995e-01 -3.209429999999999783e-01
5.481099999999999861e-02 5.768140000000000489e-01 1.732779999999999876e-01
5.661640000000000006e-01 -1.680389999999999939e-01 1.106200000000000065e-02
7.398799999999999821e-02 1.769759999999999944e-01 2.454139999999999933e-01
5.705820000000000336e-01 6.555569999999999453e-01 2.454139999999999933e-01
-3.106249999999999845e-01 -5.901260000000000394e-01 -1.075220000000000065e-01
7.568400000000000127e-02 -2.179740000000000011e-01 -2.384340000000000070e-01
-4.767029999999999879e-01 -1.359150000000000080e-01 -1.311970000000000081e-01
2.593840000000000034e-01 2.870480000000000254e-01 8.499800000000000411e-02
6.055730000000000279e-01 5.628229999999999622e-01 2.028220000000000023e-01
-3.295100000000000251e-01 -4.709550000000000125e-01 1.268199999999999883e-01
-5.454010000000000247e-01 -6.473999999999999720e-03 -4.609989999999999921e-01
-2.638900000000000134e-01 -3.963220000000000076e-01 2.454139999999999933e-01
2.808970000000000078e-01 -3.906819999999999737e-01 1.762180000000000135e-01
-6.589390000000000525e-01 -1.443079999999999918e-01 -4.124450000000000061e-01
-1.204839999999999939e-01 -1.517129999999999868e-01 2.454139999999999933e-01
-6.845010000000000261e-01 -1.051999999999999984e-02 3.165300000000000058e-02
1.048440000000000066e-01 -3.614330000000000043e-01 -1.268690000000000095e-01
-3.011059999999999848e-01 2.323729999999999962e-01 1.874349999999999905e-01
-6.560900000000000065e-02 7.267099999999999949e-02 -3.203690000000000149e-01
-4.146560000000000246e-01 -2.064630000000000076e-01 -3.460670000000000135e-01
4.364689999999999959e-01 6.274020000000000152e-01 2.454139999999999933e-01
-1.692220000000000113e-01 -3.217209999999999792e-01 -4.054110000000000213e-01
-1.624720000000000053e-01 -5.117700000000000027e-02 -4.531169999999999920e-01
3.802059999999999884e-01 7.169269999999999810e-01 1.105929999999999969e-01
2.780190000000000161e-01 -2.503290000000000237e-01 5.238099999999999701e-02
-6.845010000000000261e-01 -6.414999999999999696e-03 -3.906910000000000105e-01
5.582880000000000065e-01 -1.267359999999999876e-01 2.912000000000000092e-03
2.008079999999999865e-01 4.839299999999999852e-02 2.454139999999999933e-01
-4.144200000000000106e-01 8.175899999999999834e-02 -2.501999999999999780e-01
-4.468190000000000217e-01 7.550600000000000367e-02 -2.996099999999999874e-01
1.465990000000000071e-01 8.931999999999999662e-02 -1.368600000000000094e-01
4.795860000000000123e-01 1.179380000000000012e-01 8.025100000000000289e-02
1.559699999999999975e-02 -4.637209999999999943e-01 -2.894349999999999978e-01
-1.930920000000000136e-01 2.440479999999999872e-01 2.638100000000000167e-02
4.676489999999999814e-01 1.266720000000000068e-01 7.582700000000000551e-02
5.918020000000000502e-01 -3.847999999999999858e-03 2.454139999999999933e-01
-6.399470000000000436e-01 5.752999999999999781e-02 -4.206630000000000091e-01
5.620859999999999745e-01 5.170719999999999761e-01 1.388159999999999950e-01
-5.140149999999999997e-01 -1.296239999999999892e-01 -2.162040000000000073e-01
-2.999890000000000057e-01 -5.308840000000000225e-01 -3.685320000000000262e-01
6.055709999999999704e-01 7.280100000000000460e-01 1.361449999999999882e-01
-2.762399999999999856e-01 -1.349839999999999929e-01 -4.383389999999999787e-01
-1.683779999999999999e-01 -5.939210000000000322e-01 1.444020000000000026e-01
3.589870000000000005e-01 5.046509999999999607e-01 2.454139999999999933e-01
-4.079590000000000161e-01 -1.000879999999999964e-01 2.454139999999999933e-01
-2.756390000000000229e-01 9.082800000000000595e-02 -1.688119999999999898e-01
1.941509999999999903e-01 -2.125859999999999972e-01 -2.705290000000000195e-01
-5.574199999999999988e-02 -5.164999999999999591e-01 2.454139999999999933e-01
-3.573599999999999693e-02 -5.060850000000000071e-01 -2.666020000000000056e-01
1.844709999999999961e-01 -1.756689999999999918e-01 -3.067949999999999844e-01
5.007599999999999829e-01 -2.796469999999999789e-01 1.538349999999999995e-01
4.391010000000000191e-01 1.504500000000000004e-01 1.044709999999999944e-01
-5.553090000000000526e-01 1.205900000000000027e-01 2.454139999999999933e-01
-3.295100000000000251e-01 -4.683570000000000233e-01 2.040220000000000089e-01
2.945220000000000060e-01 1.528299999999999971e-02 2.454139999999999933e-01
-3.712639999999999829e-01 -6.838700000000000334e-02 2.454139999999999933e-01
3.440300000000000025e-01 -3.083009999999999917e-01 2.454139999999999933e-01
-3.039359999999999840e-01 -3.130149999999999877e-01 2.454139999999999933e-01
-3.732989999999999919e-01 9.841600000000000348e-02 -1.184349999999999986e-01
2.657470000000000110e-01 -1.620080000000000131e-01 2.454139999999999933e-01
7.396999999999999409e-02 3.810089999999999866e-01 2.454139999999999933e-01
-6.560540000000000260e-01 1.030579999999999968e-01 -2.940500000000000058e-02
-3.341439999999999966e-01 -3.079489999999999728e-01 1.518960000000000032e-01
4.669500000000000040e-02 -3.461699999999999777e-01 -3.009049999999999780e-01
-8.673999999999999766e-02 -5.636290000000000466e-01 -3.627560000000000229e-01
-4.637290000000000023e-01 1.403669999999999918e-01 -2.846200000000000119e-02
4.921490000000000031e-01 2.010240000000000082e-01 1.863130000000000064e-01
-3.826809999999999934e-01 1.777870000000000006e-01 1.876799999999999996e-02
-1.728300000000000114e-01 -1.344730000000000092e-01 2.454139999999999933e-01
5.044600000000000195e-01 -3.572509999999999852e-01 2.454139999999999933e-01
-3.293980000000000241e-01 -5.273189999999999822e-01 1.575419999999999876e-01
2.342670000000000030e-01 -3.998369999999999980e-01 4.877900000000000291e-02
5.671749999999999847e-01 -1.727360000000000007e-01 2.454139999999999933e-01
-4.940399999999999792e-01 -1.092680000000000040e-01 2.312819999999999876e-01
3.182260000000000089e-01 -1.768810000000000104e-01 -5.415999999999999807e-03
3.556230000000000224e-01 5.051560000000000494e-01 9.430499999999999994e-02
1.912020000000000108e-01 -1.497890000000000055e-01 -2.899649999999999728e-01
5.954249999999999821e-01 4.874200000000000060e-02 4.675999999999999601e-03
-5.351380000000000026e-01 -1.414719999999999867e-01 -4.371950000000000003e-01
-2.176720000000000044e-01 1.788299999999999959e-02 -4.652910000000000101e-01
-3.337609999999999744e-01 2.914800000000000030e-02 -4.672789999999999999e-01
5.364360000000000239e-01 4.665409999999999835e-01 2.454139999999999933e-01
-5.642160000000000508e-01 3.198800000000000254e-02 2.454139999999999933e-01
-1.521059999999999912e-01 3.727239999999999998e-01 1.203489999999999976e-01
4.290780000000000149e-01 -3.262189999999999812e-01 2.454139999999999933e-01
-2.573799999999999977e-01 1.681259999999999977e-01 -1.069100000000000085e-02
6.055730000000000279e-01 -1.369960000000000067e-01 1.954180000000000084e-01
3.009270000000000000e-01 6.710450000000000026e-01 1.025039999999999979e-01
5.623700000000000226e-02 -8.486000000000000487e-03 -3.200060000000000127e-01
3.729500000000000037e-01 -3.832829999999999848e-01 1.964249999999999885e-01
-3.402430000000000176e-01 -2.917429999999999746e-01 -2.545199999999999893e-02
-1.144809999999999994e-01 -6.241440000000000321e-01 -2.192220000000000002e-01
1.296710000000000085e-01 1.002220000000000055e-01 -1.149069999999999953e-01
1.662240000000000106e-01 6.381059999999999510e-01 9.669600000000000417e-02
4.215110000000000245e-01 7.167350000000000110e-01 2.454139999999999933e-01
-3.501340000000000008e-01 -2.571849999999999969e-01 8.107899999999999829e-02
-6.747170000000000112e-01 9.093999999999999653e-03 2.454139999999999933e-01
1.685989999999999989e-01 -5.839999999999999705e-03 -3.049040000000000084e-01
1.002750000000000030e-01 -3.742389999999999883e-01 -1.336610000000000020e-01
-3.295100000000000251e-01 -4.350379999999999803e-01 -3.147340000000000138e-01
1.963360000000000105e-01 -1.869840000000000113e-01 -6.271000000000000185e-02
5.455020000000000424e-01 -1.412319999999999964e-01 3.955000000000000182e-03
-4.429199999999999804e-02 -5.982809999999999517e-01 -3.044089999999999852e-01
-3.451239999999999863e-01 -1.773039999999999894e-01 -4.308770000000000100e-01
-3.184299999999999908e-01 -6.001210000000000155e-01 -2.780549999999999966e-01
-1.715389999999999970e-01 -5.777900000000000258e-01 2.454139999999999933e-01
-2.176619999999999944e-01 9.431499999999999606e-02 -1.394589999999999996e-01
-1.649400000000000033e-01 -5.981049999999999978e-01 4.895900000000000252e-02
-1.442190000000000139e-01 -6.343659999999999854e-01 -2.880019999999999802e-01
-3.990469999999999851e-01 1.196600000000000025e-01 -6.685199999999999476e-02
-3.299500000000000210e-01 -4.015509999999999913e-01 -3.848199999999999954e-01
-1.647760000000000058e-01 -3.120379999999999820e-01 -4.071190000000000087e-01
-6.845010000000000261e-01 1.002669999999999950e-01 -5.778000000000000150e-03
3.637319999999999998e-01 -2.227149999999999963e-01 2.454139999999999933e-01
-2.841319999999999957e-01 -4.301189999999999736e-01 -3.862970000000000015e-01
-6.361339999999999772e-01 1.102690000000000059e-01 8.266900000000000637e-02
-1.552659999999999874e-01 -6.126030000000000086e-01 -3.541219999999999923e-01
2.641270000000000007e-01 -2.198829999999999951e-01 3.730100000000000082e-02
-8.315500000000000669e-02 9.584700000000000164e-02 -1.302399999999999947e-01
-5.142700000000000049e-02 3.934579999999999744e-01 2.454139999999999933e-01
-2.680890000000000217e-01 -7.393399999999999972e-02 2.454139999999999933e-01
2.729940000000000144e-01 5.667370000000000463e-01 2.454139999999999933e-01
-5.535879999999999690e-01 1.064439999999999970e-01 -9.374100000000000488e-02
-6.021419999999999551e-01 -1.280050000000000077e-01 -3.081329999999999902e-01
4.177060000000000217e-01 -1.628800000000000039e-02 2.454139999999999933e-01
-3.445489999999999942e-01 1.926120000000000054e-01 2.454139999999999933e-01
-6.845010000000000261e-01 4.927299999999999736e-02 -3.038259999999999850e-01
-5.365029999999999522e-01 -1.188720000000000054e-01 -1.781200000000000006e-01
6.028999999999999637e-03 -4.450930000000000164e-01 -1.309549999999999881e-01
7.346800000000000552e-02 3.365310000000000246e-01 4.351900000000000213e-02
-3.854859999999999953e-01 -2.316819999999999991e-01 -4.212870000000000226e-01
-2.239859999999999907e-01 -1.070429999999999993e-01 -4.432670000000000221e-01
4.403590000000000004e-01 4.630999999999999700e-02 -9.169999999999999332e-03
-1.485309999999999964e-01 2.733740000000000059e-01 2.454139999999999933e-01
5.765609999999999902e-01 -3.352510000000000212e-01 2.454139999999999933e-01
-6.845010000000000261e-01 -2.849000000000000143e-02 2.023050000000000126e-01
5.726769999999999916e-01 -8.467199999999999727e-02 -3.174000000000000172e-03
4.564159999999999884e-01 4.795599999999999863e-02 2.329999999999999986e-04
-1.931259999999999921e-01 -3.648540000000000116e-01 -3.978059999999999929e-01
-6.845010000000000261e-01 5.906800000000000245e-02 -8.161999999999999811e-02
6.055730000000000279e-01 -2.547389999999999932e-01 2.415539999999999909e-01
-5.981030000000000513e-01 6.890999999999999903e-02 -3.465300000000000047e-01
-4.532240000000000157e-01 -8.506199999999999872e-02 2.454139999999999933e-01
-4.780700000000000227e-02 -5.789229999999999654e-01 -1.229940000000000061e-01
3.910799999999999693e-02 -3.026920000000000166e-01 -3.728090000000000015e-01
1.577089999999999881e-01 -4.032220000000000248e-01 2.265069999999999861e-01
-2.164169999999999983e-01 -6.045779999999999488e-01 -4.252299999999999830e-02
-2.982349999999999723e-01 2.329610000000000014e-01 1.182900000000000063e-01
-3.295100000000000251e-01 -4.328299999999999925e-01 -1.966179999999999872e-01
5.364630000000000232e-01 2.848240000000000216e-01 1.775299999999999934e-01
-3.823750000000000204e-01 -3.318800000000000222e-02 2.454139999999999933e-01
-1.227660000000000001e-01 2.611470000000000180e-01 3.001099999999999948e-02
1.051819999999999977e-01 -3.355899999999999855e-02 2.454139999999999933e-01
5.948699999999999821e-02 -2.505339999999999789e-01 -2.602090000000000236e-01
4.782800000000000246e-02 -4.187069999999999959e-01 2.075909999999999977e-01
-3.556600000000000039e-02 1.031969999999999971e-01 -1.018919999999999965e-01
1.256500000000000117e-01 -2.884289999999999909e-01 -1.036809999999999954e-01
-1.688209999999999988e-01 1.159250000000000003e-01 -7.295400000000000496e-02
1.365730000000000000e-01 -3.431540000000000146e-01 -7.711600000000000399e-02
1.354950000000000043e-01 -3.762460000000000249e-01 -7.268099999999999561e-02
-5.853059999999999929e-01 -1.082039999999999946e-01 -1.393030000000000102e-01
6.055730000000000279e-01 -1.306799999999999976e-02 -1.332999999999999984e-03
-1.211499999999999938e-01 -6.257489999999999997e-01 -2.307669999999999999e-01
2.411580000000000112e-01 -2.225870000000000071e-01 1.922499999999999903e-02
4.042189999999999950e-01 -3.155279999999999752e-01 1.325270000000000059e-01
-2.626060000000000061e-01 -6.092199999999999699e-02 2.454139999999999933e-01
-2.517000000000000140e-03 -4.278819999999999846e-01 1.543309999999999960e-01
2.158999999999999895e-03 5.336379999999999457e-01 9.825899999999999912e-02
2.556590000000000251e-01 6.889440000000000008e-01 2.258139999999999870e-01
4.325729999999999853e-01 -3.123469999999999858e-01 2.454139999999999933e-01
4.278600000000000181e-01 -3.080979999999999830e-01 1.396489999999999954e-01
-6.143140000000000267e-01 4.852599999999999969e-02 -4.706960000000000033e-01
4.070239999999999969e-01 1.794989999999999919e-01 1.698270000000000057e-01
1.376809999999999978e-01 -2.509419999999999984e-01 2.454139999999999933e-01
1.744880000000000042e-01 4.354399999999999937e-02 2.454139999999999933e-01
-1.828110000000000013e-01 4.628000000000000169e-03 2.454139999999999933e-01
3.330960000000000032e-01 -3.451200000000000101e-02 2.454139999999999933e-01
5.499870000000000037e-01 -2.548349999999999782e-01 1.561279999999999890e-01
-9.455800000000000316e-02 -6.094260000000000232e-01 -1.106720000000000065e-01
4.105389999999999873e-01 -3.139689999999999981e-01 2.454139999999999933e-01
4.773180000000000200e-01 6.978529999999999456e-01 1.072300000000000059e-01
-3.573599999999999693e-02 -4.557459999999999845e-01 1.497570000000000012e-01
-5.535959999999999770e-01 2.981200000000000169e-02 2.454139999999999933e-01
5.635459999999999914e-01 4.521809999999999996e-01 2.454139999999999933e-01
-1.905930000000000124e-01 -6.119179999999999620e-01 -1.189800000000000024e-01
-1.180999999999999966e-01 -6.042130000000000001e-01 -3.812999999999999723e-02
-3.417430000000000190e-01 -3.029100000000000126e-01 -1.993360000000000132e-01
-3.528400000000000286e-02 1.845179999999999876e-01 2.454139999999999933e-01
-1.583940000000000070e-01 -1.409849999999999992e-01 -4.372800000000000020e-01
-2.985550000000000148e-01 2.321090000000000098e-01 9.860900000000000221e-02
-6.845010000000000261e-01 3.218700000000000033e-02 -3.817220000000000057e-01
3.931970000000000187e-01 5.631260000000000154e-01 9.781600000000000017e-02
-3.787539999999999796e-01 7.567999999999999727e-02 -2.981099999999999861e-01
-1.830739999999999867e-01 -1.722640000000000005e-01 -4.317659999999999831e-01
-2.784360000000000168e-01 1.355220000000000036e-01 -4.344499999999999751e-02
4.478690000000000171e-01 -2.868530000000000246e-01 2.454139999999999933e-01
-1.708230000000000026e-01 -8.838600000000000623e-02 2.454139999999999933e-01
4.445049999999999835e-01 7.423819999999999864e-01 1.735720000000000041e-01
-3.573599999999999693e-02 -4.728240000000000220e-01 5.648399999999999949e-02
1.112910000000000010e-01 -2.478879999999999972e-01 -4.081400000000000028e-01
4.478880000000000083e-01 6.437680000000000069e-01 2.454139999999999933e-01
-3.560670000000000224e-01 -1.671459999999999890e-01 -4.326679999999999970e-01
6.055730000000000279e-01 -1.611940000000000039e-01 6.077699999999999769e-02
-3.467339999999999867e-01 -3.144819999999999838e-01 -3.773540000000000227e-01
1.445899999999999963e-02 -4.256119999999999903e-01 1.349229999999999874e-01
-5.068329999999999780e-01 1.200900000000000058e-02 -4.642580000000000040e-01
2.120879999999999987e-01 1.301899999999999932e-02 -1.979670000000000041e-01
4.150220000000000020e-01 3.240899999999999892e-01 1.465740000000000098e-01
-4.789939999999999753e-01 -8.922099999999999476e-02 -4.464069999999999983e-01
-3.567770000000000108e-01 1.976900000000000046e-01 2.379779999999999951e-01
3.595240000000000102e-01 -1.748790000000000067e-01 5.957999999999999755e-03
-1.911239999999999883e-01 2.083990000000000009e-01 1.414100000000000079e-02
-4.391780000000000128e-01 1.123630000000000045e-01 -7.959900000000000309e-02
-4.484799999999999898e-02 -5.561760000000000037e-01 1.792600000000000027e-01
-4.133970000000000145e-01 -2.259299999999999850e-02 -4.581549999999999789e-01
5.646099999999999730e-02 -8.939400000000000124e-02 2.454139999999999933e-01
-6.198050000000000503e-01 -1.273140000000000105e-01 -4.396920000000000273e-01
2.015979999999999994e-01 6.203530000000000433e-01 2.454139999999999933e-01
-3.342599999999999738e-02 -4.569130000000000136e-01 -1.757599999999999996e-01
-1.390029999999999877e-01 -4.053459999999999841e-01 -3.906660000000000132e-01
2.339529999999999943e-01 6.034289999999999932e-01 9.057999999999999385e-02
-3.987199999999999772e-02 -2.634409999999999807e-01 -4.156889999999999752e-01
1.761890000000000123e-01 6.525729999999999587e-01 2.420219999999999871e-01
-6.563170000000000393e-01 5.687799999999999800e-02 2.454139999999999933e-01
2.694409999999999861e-01 3.699700000000000211e-02 -6.196700000000000125e-02
-2.329529999999999934e-01 1.112230000000000024e-01 -8.290400000000000547e-02
1.674539999999999917e-01 -9.932299999999999462e-02 -4.352630000000000110e-01
2.383989999999999998e-01 1.422460000000000113e-01 5.787699999999999789e-02
-4.433969999999999856e-01 -1.573970000000000091e-01 -1.449199999999999933e-01
6.600100000000000411e-02 -2.438319999999999932e-01 -2.406530000000000058e-01
-3.197630000000000194e-01 -4.844140000000000112e-01 -3.767260000000000053e-01
2.831549999999999900e-01 6.815200000000000424e-02 2.454139999999999933e-01
3.423869999999999969e-01 1.689779999999999893e-01 1.480829999999999924e-01
-2.195010000000000017e-01 7.942100000000000548e-02 -2.689770000000000216e-01
4.197100000000000136e-02 7.271199999999999886e-02 -3.200020000000000087e-01
2.997700000000000017e-02 -4.214910000000000045e-01 2.136790000000000078e-01
-6.845010000000000261e-01 5.443599999999999828e-02 -3.914839999999999987e-01
5.202240000000000197e-01 3.497419999999999973e-01 2.454139999999999933e-01
-3.445900000000000074e-01 1.534899999999999980e-02 2.454139999999999933e-01
4.568300000000000138e-02 1.396060000000000079e-01 -3.843599999999999794e-02
1.660700000000000023e-02 8.851100000000000634e-02 -1.909599999999999909e-01
1.500579999999999969e-01 -1.931690000000000074e-01 -9.775300000000000655e-02
3.598319999999999852e-01 3.569209999999999883e-01 2.454139999999999933e-01
-4.505810000000000093e-01 -1.470170000000000088e-01 -9.093999999999999306e-02
-8.463000000000000037e-03 4.958859999999999935e-01 7.161599999999999910e-02
-3.295100000000000251e-01 -3.621869999999999812e-01 1.894830000000000125e-01
2.125829999999999942e-01 -3.806840000000000224e-01 2.103899999999999867e-02
4.283100000000000102e-02 3.068040000000000211e-01 2.454139999999999933e-01
-3.942939999999999778e-01 1.780690000000000051e-01 2.075400000000000023e-01
-4.986749999999999794e-01 1.378860000000000086e-01 1.977299999999999891e-01
-6.845010000000000261e-01 -5.739999999999999963e-02 -3.517100000000000087e-02
-6.008409999999999584e-01 -1.350260000000000071e-01 -3.552629999999999955e-01
6.055730000000000279e-01 5.629199999999999759e-01 2.107850000000000001e-01
2.295270000000000088e-01 6.760110000000000285e-01 1.073149999999999937e-01
1.552600000000000091e-01 6.172999999999999668e-03 2.454139999999999933e-01
-2.724679999999999880e-01 2.509709999999999996e-01 8.484800000000000675e-02
2.243509999999999949e-01 -2.545339999999999825e-01 2.454139999999999933e-01
-1.606080000000000008e-01 6.317699999999999705e-02 -3.851160000000000139e-01
-6.703670000000000462e-01 5.142399999999999749e-02 -4.569019999999999748e-01
-1.887060000000000126e-01 -3.794460000000000055e-01 -3.952350000000000030e-01
-6.588640000000000052e-01 1.121759999999999979e-01 2.121979999999999977e-01
-3.289179999999999882e-01 -5.472789999999999599e-01 -1.145889999999999964e-01
-3.318980000000000263e-01 -3.355569999999999942e-01 -4.844199999999999895e-02
3.016460000000000252e-01 -1.004359999999999975e-01 -1.234529999999999933e-01
-1.878309999999999980e-01 -1.208049999999999957e-01 -4.408389999999999809e-01
2.274529999999999885e-01 -1.781379999999999908e-01 -1.253499999999999927e-02
-2.301169999999999882e-01 -6.393259999999999499e-01 -3.189509999999999845e-01
1.855789999999999940e-01 1.218390000000000029e-01 -5.789199999999999902e-02
-3.915390000000000259e-01 -2.325579999999999870e-01 -3.552420000000000022e-01
-3.516929999999999779e-01 -4.123000000000000276e-02 2.454139999999999933e-01
-6.845010000000000261e-01 3.730999999999999941e-03 -3.253849999999999798e-01
-1.003970000000000001e-01 -5.593439999999999523e-01 -3.635129999999999750e-01
3.602460000000000107e-01 5.240600000000000119e-02 2.541900000000000062e-02
1.600030000000000063e-01 -2.455259999999999942e-01 -3.947010000000000240e-01
4.997530000000000028e-01 3.401939999999999964e-01 1.632419999999999982e-01
-4.547829999999999928e-01 -3.040000000000000167e-04 -4.620879999999999987e-01
1.354390000000000038e-01 5.932709999999999928e-01 8.878900000000000681e-02
3.757900000000000129e-02 -8.252999999999999919e-03 -4.295499999999999874e-01
-3.591570000000000040e-01 -9.056699999999999473e-02 -4.461709999999999843e-01
-1.744410000000000127e-01 3.455090000000000106e-01 9.092300000000000382e-02
5.239800000000000013e-02 -4.366450000000000053e-01 -1.214439999999999964e-01
6.055730000000000279e-01 -1.440009999999999901e-01 1.219370000000000037e-01
-9.482599999999999363e-02 -3.214299999999999935e-01 -4.054630000000000178e-01
-3.458660000000000068e-01 -3.135569999999999746e-01 -4.068490000000000162e-01
-2.453639999999999988e-01 2.727950000000000097e-01 7.156700000000000561e-02
-3.573599999999999693e-02 -4.951690000000000258e-01 -2.145870000000000000e-01
1.091300000000000048e-01 1.226570000000000021e-01 -5.323699999999999960e-02
3.799270000000000147e-01 3.254650000000000043e-01 1.350870000000000126e-01
2.086050000000000126e-01 -3.314039999999999764e-01 8.363999999999999907e-03
2.469850000000000101e-01 1.322709999999999997e-01 2.454139999999999933e-01
-2.890670000000000184e-01 -6.006310000000000260e-01 -7.162699999999999623e-02
-2.988129999999999953e-01 2.344130000000000102e-01 2.360829999999999873e-01
1.194989999999999941e-01 -5.688800000000000107e-02 -4.521089999999999831e-01
5.351120000000000321e-01 2.234500000000000028e-02 -2.658500000000000099e-02
-4.335140000000000104e-01 1.313340000000000063e-01 -4.863599999999999868e-02
1.607470000000000010e-01 -2.451570000000000138e-01 -3.926049999999999818e-01
4.471900000000000180e-02 -3.422749999999999959e-01 -3.126380000000000270e-01
-8.391400000000000248e-02 -4.577359999999999762e-01 2.454139999999999933e-01
1.945870000000000100e-01 4.536259999999999737e-01 6.416499999999999981e-02
5.959300000000000014e-02 5.223499999999999671e-02 -3.093920000000000003e-01
6.289300000000000446e-02 -3.254270000000000218e-01 -2.359749999999999903e-01
3.690100000000000324e-02 9.134499999999999564e-02 -1.635159999999999947e-01
-2.932429999999999759e-01 -2.642160000000000064e-01 -4.155510000000000037e-01
-5.096910000000000052e-01 6.799499999999999988e-02 -3.532370000000000232e-01
2.566700000000000093e-01 -1.878269999999999940e-01 2.570700000000000068e-02
-3.345310000000000228e-01 -3.104859999999999842e-01 3.645799999999999735e-02
3.426879999999999926e-01 -1.753879999999999884e-01 3.079000000000000140e-03
1.006859999999999977e-01 -3.899199999999999888e-02 2.454139999999999933e-01
5.814289999999999736e-01 -3.313429999999999986e-01 2.454139999999999933e-01
-1.370979999999999976e-01 3.905190000000000050e-01 1.262350000000000139e-01
-2.547800000000000065e-02 -4.107999999999999846e-02 2.454139999999999933e-01
6.055730000000000279e-01 -1.547580000000000067e-01 6.166499999999999759e-02
-6.845010000000000261e-01 -2.399700000000000097e-02 -1.753540000000000099e-01
1.604750000000000065e-01 1.375750000000000028e-01 2.454139999999999933e-01
-4.311269999999999825e-01 5.803400000000000225e-02 -4.176329999999999765e-01
-4.539900000000000185e-02 -5.641570000000000196e-01 4.165100000000000052e-02
-2.466279999999999861e-01 -5.062370000000000481e-01 -3.728770000000000140e-01
2.038290000000000102e-01 -1.205910000000000037e-01 -2.621200000000000196e-01
4.263100000000000223e-02 -2.449250000000000038e-01 -3.442200000000000260e-01
-6.845010000000000261e-01 -2.373899999999999968e-02 -1.219360000000000027e-01
-3.245149999999999979e-01 -5.988860000000000294e-01 -3.295409999999999728e-01
5.762690000000000312e-01 -2.570279999999999787e-01 1.587320000000000120e-01
1.069139999999999951e-01 -3.153199999999999753e-02 -4.505879999999999885e-01
4.232620000000000271e-01 5.875099999999999767e-02 6.139900000000000219e-02
-1.292550000000000088e-01 -4.792609999999999926e-01 -3.776340000000000252e-01
6.045949999999999935e-01 9.577299999999999702e-02 2.454139999999999933e-01
4.943279999999999896e-01 -1.710990000000000011e-01 1.333179999999999921e-01
-5.028900000000000037e-02 -7.350800000000000389e-02 2.454139999999999933e-01
4.085590000000000055e-01 6.306389999999999496e-01 9.540200000000000069e-02
5.806980000000000475e-01 6.204910000000000148e-01 2.454139999999999933e-01
-1.244600000000000047e-02 5.235250000000000181e-01 2.335470000000000046e-01
3.181799999999999906e-02 -4.676509999999999834e-01 -3.314500000000000224e-01
-4.040400000000000241e-02 -1.201239999999999947e-01 2.454139999999999933e-01
-5.041000000000000342e-03 -4.620580000000000243e-01 -2.538480000000000181e-01
-3.447120000000000184e-01 -2.826699999999999768e-01 -9.463900000000000090e-02
-2.722069999999999768e-01 -5.961410000000000320e-01 4.909499999999999975e-02
-5.840370000000000283e-01 1.441500000000000073e-02 -4.646810000000000107e-01
6.055730000000000279e-01 -4.994900000000000034e-02 4.565999999999999920e-02
-2.576729999999999854e-01 2.647379999999999733e-01 1.420160000000000033e-01
-1.645900000000000141e-02 -4.297790000000000221e-01 1.753770000000000051e-01
-6.255359999999999809e-01 -8.355100000000000027e-02 -4.474069999999999991e-01
-1.001480000000000009e-01 -6.191480000000000317e-01 -1.849240000000000050e-01
-1.612460000000000004e-01 -1.913779999999999926e-01 -4.283950000000000258e-01
9.564200000000000479e-02 2.118619999999999948e-01 1.542499999999999948e-02
-3.898730000000000251e-01 1.800920000000000021e-01 2.246190000000000131e-01
8.720600000000000573e-02 1.602889999999999870e-01 -1.775600000000000095e-02
3.030079999999999996e-01 6.314140000000000308e-01 9.551500000000000268e-02
4.130799999999999750e-02 9.291699999999999959e-02 -1.480589999999999962e-01
4.273069999999999924e-01 -1.265670000000000128e-01 -3.289899999999999769e-02
-1.863589999999999969e-01 2.096540000000000070e-01 1.473799999999999936e-02
-1.264949999999999963e-01 -6.031579999999999719e-01 -2.504299999999999929e-02
1.989940000000000042e-01 1.389670000000000072e-01 2.454139999999999933e-01
-1.012600000000000028e-01 9.486799999999999400e-02 -1.359299999999999953e-01
-1.626340000000000008e-01 -6.261860000000000204e-01 -2.338639999999999886e-01
5.700000000000000205e-02 5.780549999999999855e-01 1.500470000000000137e-01
-3.272970000000000046e-01 2.147030000000000050e-01 1.808130000000000015e-01
-4.170639999999999903e-01 -1.745440000000000047e-01 -1.033720000000000055e-01
2.016660000000000119e-01 -2.495819999999999983e-01 -1.282699999999999986e-02
-4.872330000000000272e-01 -1.115550000000000014e-01 2.449050000000000116e-01
-3.252929999999999988e-01 -5.007629999999999582e-01 2.454139999999999933e-01
5.451179999999999914e-01 -1.367410000000000014e-01 3.114000000000000015e-03
-5.502690000000000081e-01 -7.751500000000000057e-02 2.454139999999999933e-01
-6.669939999999999758e-01 -9.422099999999999920e-02 3.870799999999999935e-02
4.815380000000000216e-01 5.362160000000000259e-01 1.254020000000000135e-01
5.696600000000000275e-02 -1.361799999999999990e-02 -3.489889999999999937e-01
-6.845010000000000261e-01 -6.768000000000000405e-02 -2.074270000000000003e-01
1.757879999999999998e-01 5.025899999999999812e-02 -9.281100000000000461e-02
-3.954599999999999782e-02 -5.613289999999999669e-01 -1.155130000000000046e-01
-4.774010000000000198e-01 -3.139999999999999996e-03 -4.615879999999999983e-01
-3.157499999999999751e-01 -5.727640000000000509e-01 2.589999999999999854e-03
1.283729999999999871e-01 -3.188400000000000262e-02 -4.525890000000000191e-01
1.033990000000000048e-01 -2.267470000000000041e-01 -2.881839999999999957e-01
4.944839999999999791e-01 8.095800000000000218e-02 9.006200000000000316e-02
6.055730000000000279e-01 3.400279999999999969e-01 1.823529999999999873e-01
-6.365220000000000322e-01 -1.329120000000000024e-01 -3.417089999999999850e-01
2.905780000000000030e-01 -3.272900000000000253e-01 7.527799999999999769e-02
2.816739999999999799e-01 3.792429999999999968e-01 8.168200000000000460e-02
1.394819999999999949e-01 6.311649999999999761e-01 1.367609999999999937e-01
-1.741290000000000060e-01 9.349999999999999978e-02 -1.459110000000000129e-01
2.848600000000000021e-01 4.642080000000000095e-01 2.454139999999999933e-01
-3.677360000000000073e-01 1.915699999999999903e-01 2.198569999999999969e-01
1.414019999999999999e-01 6.324450000000000349e-01 1.413629999999999887e-01
5.158610000000000140e-01 -1.737760000000000138e-01 1.376930000000000098e-01
5.259840000000000071e-01 -2.290250000000000064e-01 1.491089999999999915e-01
-3.295100000000000251e-01 -5.053659999999999819e-01 2.815199999999999994e-02
-3.079000000000000070e-01 1.528899999999999981e-01 -2.417800000000000157e-02
1.744729999999999892e-01 1.244510000000000061e-01 -4.307600000000000318e-02
-1.138310000000000016e-01 -5.973749999999999893e-01 6.145799999999999874e-02
-1.959639999999999993e-01 -6.194889999999999564e-01 -1.839449999999999974e-01
4.104820000000000135e-01 3.481859999999999955e-01 1.405520000000000103e-01
3.813980000000000148e-01 5.284879999999999578e-01 9.987100000000000144e-02
3.636440000000000228e-01 2.845119999999999871e-01 1.362460000000000060e-01
-3.289960000000000107e-01 -4.488880000000000092e-01 2.454139999999999933e-01
-5.634130000000000527e-01 -9.553000000000000380e-02 5.873300000000000048e-02
4.660520000000000218e-01 -6.744600000000000595e-02 -2.799400000000000152e-02
6.534500000000000031e-02 -3.394309999999999827e-01 -2.254909999999999970e-01
-2.994430000000000147e-01 -5.907520000000000548e-01 -2.751200000000000173e-02
-6.237100000000000283e-02 1.614939999999999987e-01 -1.646299999999999847e-02
1.693870000000000098e-01 5.565740000000000132e-01 2.454139999999999933e-01
6.232200000000000240e-02 -3.002399999999999861e-02 -4.420740000000000225e-01
5.588830000000000187e-01 1.596279999999999921e-01 1.564429999999999987e-01
-4.613630000000000231e-01 -1.662339999999999929e-01 -3.147780000000000022e-01
3.854810000000000181e-01 4.790559999999999818e-01 1.100190000000000057e-01
4.070700000000000013e-02 -3.489189999999999792e-01 -3.432649999999999868e-01
-6.289300000000000446e-02 -4.723609999999999753e-01 2.454139999999999933e-01
-4.482530000000000125e-01 -1.351819999999999966e-01 1.423770000000000036e-01
-6.717130000000000045e-01 -9.064500000000000335e-02 1.238660000000000039e-01
7.345100000000000240e-02 -4.165710000000000246e-01 1.310250000000000026e-01
4.235780000000000101e-01 6.730699999999999461e-01 2.454139999999999933e-01
4.561319999999999819e-01 5.465499999999999803e-01 1.183290000000000036e-01
3.099169999999999980e-01 -9.013999999999999443e-03 2.454139999999999933e-01
-6.213539999999999619e-01 -1.425059999999999938e-01 -4.020449999999999857e-01
3.340139999999999776e-01 1.492479999999999918e-01 9.763499999999999956e-02
-1.889599999999999891e-01 -6.250019999999999465e-01 -2.252069999999999905e-01
-4.172100000000000114e-02 -5.982619999999999605e-01 -3.140649999999999831e-01
-5.498999999999999722e-02 -1.116049999999999959e-01 -4.424609999999999932e-01
-6.456849999999999534e-01 -7.110199999999999854e-02 2.454139999999999933e-01
6.055730000000000279e-01 6.304349999999999676e-01 1.311779999999999891e-01
6.055730000000000279e-01 2.762109999999999843e-01 2.179089999999999916e-01
5.365969999999999906e-01 -2.433220000000000105e-01 1.531889999999999918e-01
-6.845010000000000261e-01 2.229000000000000078e-03 -2.776299999999999948e-02
4.246360000000000134e-01 3.046459999999999724e-01 2.454139999999999933e-01
5.868799999999999711e-02 -3.003930000000000211e-01 -2.589870000000000227e-01
5.834540000000000282e-01 4.958710000000000062e-01 1.434189999999999909e-01
-2.329249999999999932e-01 -4.409100000000000241e-01 -3.843949999999999867e-01
9.087699999999999945e-02 2.916250000000000231e-01 3.559899999999999870e-02
1.154369999999999979e-01 8.118799999999999628e-02 -1.834790000000000032e-01
-3.849440000000000084e-01 -2.025720000000000021e-01 -1.659400000000000111e-02
6.055730000000000279e-01 -5.086199999999999749e-02 1.436929999999999874e-01
-3.291970000000000174e-01 -5.354470000000000063e-01 5.705000000000000002e-03
-5.621899999999999814e-02 -5.953939999999999788e-01 -1.416719999999999924e-01
5.200519999999999587e-01 2.625560000000000116e-01 1.796810000000000074e-01
-6.845010000000000261e-01 -4.479500000000000148e-02 1.005299999999999944e-01
-6.845010000000000261e-01 1.591800000000000159e-02 -8.917400000000000326e-02
5.265680000000000360e-01 5.047900000000000303e-02 1.448999999999999941e-02
-1.688900000000000123e-01 3.546509999999999940e-01 1.945099999999999885e-01
3.799440000000000039e-01 -1.909720000000000029e-01 1.002669999999999950e-01
1.609999999999999973e-02 -7.759199999999999431e-02 2.454139999999999933e-01
4.936699999999999977e-01 1.746389999999999887e-01 2.454139999999999933e-01
-5.063480000000000203e-01 -1.093719999999999970e-01 5.677700000000000108e-02
-2.647869999999999946e-01 -3.294480000000000186e-01 2.454139999999999933e-01
5.909609999999999586e-01 4.629770000000000274e-01 1.495970000000000077e-01
-2.445340000000000014e-01 -6.003049999999999775e-01 1.322899999999999944e-02
4.436720000000000108e-01 3.028250000000000108e-01 1.583199999999999885e-01
-1.529929999999999901e-01 -6.161809999999999787e-01 -3.534909999999999997e-01
-2.504299999999999929e-02 3.904259999999999953e-01 5.302099999999999869e-02
6.055660000000000487e-01 -2.652579999999999938e-01 1.832759999999999945e-01
-4.182270000000000154e-01 -8.193699999999999595e-02 2.454139999999999933e-01
3.557150000000000034e-01 2.111250000000000071e-01 1.461919999999999886e-01
-4.553119999999999945e-01 3.508300000000000307e-02 -4.683260000000000201e-01
4.530730000000000035e-01 -1.315149999999999930e-01 2.454139999999999933e-01
-3.182849999999999846e-01 1.017330000000000040e-01 -1.084350000000000036e-01
-3.323289999999999855e-01 -3.587659999999999738e-01 -2.754159999999999942e-01
3.838639999999999830e-01 -3.826330000000000009e-01 1.931150000000000089e-01
-2.505930000000000102e-01 -4.997619999999999840e-01 -3.740189999999999904e-01
3.137840000000000074e-01 1.360979999999999968e-01 2.454139999999999933e-01
2.603829999999999756e-01 -2.297480000000000078e-01 3.606800000000000284e-02
9.794700000000000628e-02 3.771689999999999765e-01 5.068500000000000089e-02
2.627039999999999931e-01 -1.193639999999999979e-01 -1.634940000000000004e-01
-4.908469999999999778e-01 6.725899999999999934e-02 -3.581969999999999876e-01
2.680719999999999770e-01 3.965219999999999856e-01 2.454139999999999933e-01
-1.792269999999999974e-01 -2.403359999999999941e-01 -4.197620000000000240e-01
2.320109999999999950e-01 2.567920000000000202e-01 2.454139999999999933e-01
-5.817949999999999511e-01 6.200699999999999962e-02 -3.924960000000000115e-01
1.353560000000000041e-01 4.234899999999999776e-02 -1.446900000000000130e-01
3.326970000000000205e-01 -2.198060000000000014e-01 2.454139999999999933e-01
-1.805539999999999923e-01 -6.192039999999999766e-01 -1.816850000000000132e-01
-4.001699999999999702e-02 -5.397929999999999673e-01 1.493790000000000118e-01
-2.520149999999999890e-01 -5.924829999999999819e-01 2.315649999999999931e-01
3.855080000000000173e-01 4.316329999999999889e-01 1.181470000000000020e-01
-3.521179999999999866e-01 -1.351219999999999921e-01 2.454139999999999933e-01
1.692569999999999908e-01 -2.308580000000000076e-01 -3.773380000000000067e-01
4.328400000000000025e-01 4.516160000000000174e-01 2.454139999999999933e-01
-2.847850000000000104e-01 6.730300000000000171e-02 -3.578959999999999919e-01
6.055730000000000279e-01 5.740140000000000242e-01 1.743180000000000007e-01
8.009999999999999759e-03 -2.170989999999999864e-01 2.454139999999999933e-01
-2.716029999999999833e-01 -3.024709999999999899e-01 2.454139999999999933e-01
2.106359999999999899e-01 -3.004680000000000129e-01 2.454139999999999933e-01
-6.805600000000000538e-02 -6.252079999999999860e-01 -2.990059999999999940e-01
-4.773370000000000113e-01 -2.564900000000000166e-02 -4.576200000000000268e-01
3.982379999999999809e-01 4.244089999999999807e-01 1.237609999999999960e-01
1.760069999999999968e-01 -1.615949999999999886e-01 -3.459550000000000125e-01
-2.652140000000000053e-01 -4.875280000000000169e-01 2.454139999999999933e-01
1.044569999999999943e-01 5.555949999999999500e-01 2.454139999999999933e-01
2.393220000000000069e-01 -1.931869999999999976e-01 -9.786599999999999466e-02
-6.202330000000000343e-01 1.145140000000000047e-01 1.971100000000000074e-01
-1.452209999999999890e-01 -5.944030000000000147e-01 1.296299999999999952e-01
8.168300000000000560e-02 2.099519999999999997e-01 1.437800000000000016e-02
-7.478400000000000325e-02 -7.267300000000000149e-02 -4.493269999999999764e-01
-4.536649999999999849e-01 -1.090200000000000023e-02 2.454139999999999933e-01
-3.307800000000000185e-01 -5.015800000000000120e-02 2.454139999999999933e-01
2.080269999999999897e-01 -2.527599999999999986e-02 -2.702689999999999815e-01
-4.902200000000000307e-02 -1.982029999999999903e-01 -4.271920000000000162e-01
-8.576300000000000590e-02 8.708399999999999475e-02 -2.041669999999999874e-01
3.184520000000000128e-01 -3.492129999999999956e-01 9.668699999999999517e-02
-2.491319999999999923e-01 -4.935069999999999735e-01 -3.751229999999999842e-01
-6.796069999999999611e-01 9.708500000000000463e-02 -1.020410000000000067e-01
5.535879999999999690e-01 5.929879999999999596e-01 1.248660000000000048e-01
1.414350000000000052e-01 -4.128649999999999820e-01 -5.734100000000000308e-02
3.111099999999999977e-01 -8.680100000000000315e-02 2.454139999999999933e-01
-3.288440000000000252e-01 1.955770000000000008e-01 2.454139999999999933e-01
4.537970000000000059e-01 -1.561120000000000008e-01 2.454139999999999933e-01
5.597560000000000313e-01 9.983000000000000554e-03 -2.110300000000000023e-02
2.836609999999999965e-01 2.671499999999999916e-02 -1.202750000000000069e-01
-4.424069999999999947e-01 -1.511540000000000106e-01 -7.336499999999999966e-02
-3.618999999999999995e-02 -5.242219999999999658e-01 -2.525209999999999955e-01
6.524000000000000285e-03 2.405049999999999966e-01 2.542300000000000115e-02
2.708820000000000117e-01 -9.415800000000000558e-02 -1.578130000000000088e-01
-3.471639999999999726e-01 2.031550000000000022e-01 1.920070000000000110e-01
-1.272760000000000002e-01 -5.076019999999999976e-01 -3.726360000000000228e-01
3.226559999999999984e-01 5.924850000000000394e-01 8.864900000000000557e-02
-5.071520000000000472e-01 -1.161449999999999982e-01 -5.553299999999999903e-02
-1.749120000000000119e-01 -1.360250000000000070e-01 -4.381550000000000167e-01
6.055730000000000279e-01 -1.137269999999999948e-01 1.632989999999999997e-01
-3.563490000000000268e-01 1.239529999999999937e-01 2.454139999999999933e-01
6.055730000000000279e-01 -2.006000000000000144e-02 1.218179999999999957e-01
3.605269999999999864e-01 4.827540000000000164e-01 2.454139999999999933e-01
5.841999999999999971e-02 2.524300000000000155e-02 -3.087360000000000104e-01
-3.295100000000000251e-01 -4.136730000000000129e-01 -1.125899999999999956e-01
3.892899999999999833e-02 -1.521220000000000072e-01 -4.353170000000000095e-01
2.412700000000000122e-01 6.826710000000000278e-01 1.818799999999999861e-01
3.537449999999999761e-01 5.863340000000000218e-01 8.756400000000000294e-02
-6.137700000000000100e-02 -5.913610000000000255e-01 -6.857199999999999407e-02
-1.458899999999999954e-02 -5.289699999999999958e-02 2.454139999999999933e-01
3.858199999999999824e-02 -3.670189999999999841e-01 -3.674569999999999781e-01
2.191829999999999889e-01 3.834049999999999958e-01 5.178399999999999670e-02
-5.880309999999999704e-01 1.187639999999999946e-01 2.452080000000000093e-01
4.151190000000000158e-01 1.547040000000000082e-01 1.285830000000000028e-01
3.362979999999999858e-01 2.861879999999999979e-01 2.454139999999999933e-01
6.055730000000000279e-01 -3.214650000000000007e-01 1.996979999999999866e-01
-5.053279999999999994e-01 1.360959999999999948e-01 2.387900000000000023e-01
-1.894500000000000003e-02 8.081399999999999695e-02 -2.581800000000000206e-01
-8.855999999999999983e-02 -7.174700000000000522e-02 2.454139999999999933e-01
5.021369999999999445e-01 6.833449999999999802e-01 1.046720000000000012e-01
-6.107409999999999783e-01 8.978999999999999482e-02 -1.788379999999999970e-01
-1.139020000000000032e-01 7.497399999999999898e-02 -3.033080000000000220e-01
1.829490000000000005e-01 1.291269999999999918e-01 -1.648799999999999918e-02
