-5.790589999999999904e-01 -4.976240000000000108e-01 -3.506460000000000132e-01
6.380479999999999485e-01 -9.508700000000000485e-02 1.255709999999999882e-01
-7.309090000000000309e-01 -4.588500000000000217e-02 -6.342299999999999327e-02
3.527509999999999812e-01 -2.477969999999999895e-01 -1.507799999999999974e-01
6.942920000000000202e-01 9.975900000000000045e-02 -2.752009999999999734e-01
3.760859999999999759e-01 -2.856099999999999958e-02 -2.532840000000000091e-01
2.613340000000000107e-01 -3.712670000000000137e-01 -3.948360000000000203e-01
3.328119999999999967e-01 -3.415699999999999847e-01 -5.602399999999999741e-02
-5.942020000000000080e-01 -5.635959999999999859e-01 -2.657050000000000245e-01
-1.995840000000000114e-01 5.444219999999999615e-01 1.459380000000000122e-01
-5.083450000000000468e-01 -1.719860000000000000e-01 1.051020000000000010e-01
-4.731420000000000070e-01 -9.222700000000000342e-02 2.559799999999999853e-01
6.267030000000000101e-01 -2.657519999999999882e-01 1.737390000000000045e-01
5.262900000000000217e-02 4.211759999999999948e-01 -3.802519999999999789e-01
-3.934559999999999724e-01 7.426299999999999568e-02 -1.770079999999999987e-01
-1.722140000000000060e-01 2.710420000000000051e-01 4.528039999999999843e-01
3.908070000000000155e-01 -1.793200000000000072e-01 -1.715450000000000030e-01
2.223060000000000036e-01 3.156979999999999786e-01 -1.855479999999999907e-01
-2.541800000000000170e-01 6.155699999999999505e-01 -3.866699999999999998e-02
5.522300000000000125e-02 -4.732009999999999827e-01 -9.281899999999999873e-02
2.821110000000000007e-01 -3.973630000000000217e-01 -5.449999999999999983e-02
7.290410000000000501e-01 -1.894399999999999973e-01 7.337100000000000566e-02
-2.819420000000000259e-01 6.187679999999999847e-01 -9.540200000000000069e-02
2.811109999999999998e-01 -9.459299999999999653e-02 3.665510000000000157e-01
-4.334979999999999944e-01 -2.891589999999999994e-01 7.366599999999999537e-02
8.089070000000000427e-01 -1.149659999999999987e-01 -1.178830000000000017e-01
4.805499999999999772e-01 4.206300000000000039e-01 -2.659070000000000045e-01
-4.446169999999999844e-01 -7.152799999999999436e-02 -3.879600000000000271e-01
2.607570000000000165e-01 5.779840000000000533e-01 -3.723000000000000181e-03
-6.812120000000000397e-01 -2.953370000000000162e-01 -3.809400000000000008e-01
3.772980000000000222e-01 -2.657990000000000075e-01 -9.012599999999999778e-02
7.190149999999999597e-01 -3.217110000000000247e-01 6.831399999999999972e-02
-3.156149999999999789e-01 -3.373689999999999745e-01 2.515120000000000133e-01
-4.461199999999999888e-02 8.535190000000000277e-01 -1.274430000000000007e-01
-5.614170000000000549e-01 1.278960000000000097e-01 -6.005599999999999827e-02
2.729369999999999852e-01 1.653850000000000042e-01 -2.864780000000000104e-01
5.129000000000000226e-02 -4.933569999999999900e-01 -3.741220000000000101e-01
-7.246700000000000363e-02 8.484749999999999792e-01 -1.383790000000000020e-01
2.775739999999999874e-01 -6.031750000000000167e-01 -1.978959999999999886e-01
-5.640330000000000066e-01 -5.293099999999999472e-01 -2.809800000000000145e-02
-3.433910000000000018e-01 -7.959000000000000796e-03 -3.610579999999999901e-01
-3.604069999999999774e-01 -4.713950000000000085e-01 4.142699999999999855e-02
1.167689999999999978e-01 -3.956990000000000229e-01 -1.445559999999999901e-01
3.111909999999999954e-01 6.295429999999999637e-01 -1.247769999999999990e-01
-8.205230000000000024e-01 -2.758309999999999929e-01 -3.218000000000000027e-02
-2.671510000000000273e-01 6.709699999999999553e-01 -1.996719999999999884e-01
6.955300000000000371e-02 3.372519999999999962e-01 -2.733110000000000261e-01
-6.076150000000000162e-01 -4.178580000000000072e-01 9.829300000000000537e-02
2.599999999999999772e-04 -4.284870000000000068e-01 -1.311029999999999973e-01
4.673979999999999801e-01 -1.955929999999999891e-01 -1.230200000000000043e-02
1.853799999999999892e-02 -6.070449999999999458e-01 -2.261199999999999877e-01
4.949069999999999858e-01 -5.775900000000000478e-01 -1.389249999999999929e-01
-4.406889999999999974e-01 -3.666599999999999721e-02 3.289420000000000122e-01
8.772400000000000198e-01 -2.433160000000000045e-01 -2.436699999999999977e-01
-2.061250000000000027e-01 7.454159999999999675e-01 -2.352349999999999997e-01
-4.364620000000000166e-01 -5.475809999999999844e-01 -2.934399999999999856e-02
-6.078820000000000334e-01 -2.576769999999999894e-01 2.033169999999999977e-01
-7.522140000000000493e-01 -3.501900000000000152e-02 -2.072839999999999960e-01
-1.899399999999999977e-01 5.983070000000000332e-01 1.077469999999999956e-01
2.715969999999999773e-01 -5.552730000000000166e-01 -5.552800000000000097e-02
6.496979999999999977e-01 1.725160000000000027e-01 -1.564949999999999952e-01
-2.533679999999999821e-01 -1.230310000000000015e-01 5.157969999999999500e-01
-4.172890000000000210e-01 -2.689799999999999969e-01 1.568330000000000002e-01
-2.332899999999999904e-02 -3.312470000000000137e-01 -3.810410000000000186e-01
-8.673619999999999663e-01 -2.618079999999999852e-01 -1.520479999999999887e-01
6.931490000000000151e-01 -5.250270000000000215e-01 -1.205019999999999980e-01
-3.188099999999999823e-01 -3.832900000000000196e-02 3.933780000000000054e-01
-6.849389999999999645e-01 -2.273799999999999988e-01 1.411739999999999939e-01
6.765000000000000180e-03 3.734549999999999814e-01 -2.220129999999999881e-01
-3.455400000000000138e-01 -4.578999999999999737e-01 -3.829899999999999971e-01
-3.512179999999999747e-01 1.888700000000000101e-01 -3.937649999999999761e-01
-8.493000000000000549e-01 -2.900229999999999753e-01 -2.948830000000000062e-01
-6.215540000000000509e-01 1.395849999999999869e-01 -1.090190000000000048e-01
4.349529999999999785e-01 -6.624499999999999833e-02 -3.850089999999999901e-01
-7.431339999999999613e-01 -1.580449999999999910e-01 5.339100000000000096e-02
-5.313769999999999882e-01 -1.892830000000000068e-01 -3.929469999999999907e-01
6.703820000000000334e-01 -1.185210000000000014e-01 -3.815330000000000110e-01
5.758309999999999818e-01 -4.155260000000000065e-01 -3.818960000000000132e-01
4.624590000000000090e-01 3.369449999999999945e-01 -8.160199999999999398e-02
5.539889999999999537e-01 2.845360000000000111e-01 -3.060720000000000107e-01
-2.721970000000000223e-01 -5.846139999999999670e-01 -9.495800000000000074e-02
-2.670279999999999876e-01 6.592550000000000354e-01 -2.545430000000000192e-01
4.628590000000000204e-01 -1.554780000000000051e-01 -7.958300000000000096e-02
1.820529999999999926e-01 6.274089999999999945e-01 8.229300000000000503e-02
-8.826000000000000512e-03 1.877500000000000002e-01 5.542709999999999582e-01
4.269959999999999867e-01 -2.478289999999999937e-01 1.139099999999999974e-01
-6.098599999999999854e-02 4.237719999999999820e-01 3.652540000000000231e-01
-3.981680000000000219e-01 4.384419999999999984e-01 -2.893899999999999806e-01
-6.700129999999999697e-01 -2.936150000000000149e-01 -3.830979999999999941e-01
2.944220000000000170e-01 -2.767339999999999800e-01 3.955580000000000207e-01
1.118190000000000017e-01 4.980829999999999980e-01 1.305350000000000121e-01
6.735520000000000396e-01 -3.786829999999999918e-01 -3.771619999999999973e-01
2.446170000000000011e-01 2.393899999999999917e-01 -2.379199999999999926e-01
4.544549999999999979e-01 1.339529999999999887e-01 -3.935429999999999762e-01
-5.378610000000000335e-01 -1.368149999999999922e-01 -3.931700000000000195e-01
2.060750000000000082e-01 2.454580000000000095e-01 4.199209999999999887e-01
-2.339350000000000041e-01 9.149000000000000188e-02 4.506120000000000125e-01
4.658240000000000158e-01 -8.824300000000000199e-02 3.530110000000000192e-01
2.118869999999999920e-01 -3.954969999999999875e-01 -3.946770000000000000e-01
-5.922450000000000214e-01 -2.962389999999999746e-01 -3.914020000000000277e-01
-4.314399999999999902e-01 3.883989999999999942e-01 -8.980299999999999394e-02
7.039210000000000189e-01 -1.566099999999999992e-01 9.422600000000000420e-02
-1.767070000000000030e-01 6.451500000000000290e-02 4.596569999999999823e-01
4.688599999999999712e-02 -3.052199999999999913e-01 -2.743410000000000015e-01
-1.874379999999999935e-01 6.801789999999999781e-01 8.340000000000000191e-03
-3.783389999999999809e-01 -4.699679999999999969e-01 8.502400000000000235e-02
3.129669999999999952e-01 3.827269999999999839e-01 -3.907740000000000102e-01
1.118399999999999950e-01 3.720899999999999763e-01 -1.926690000000000069e-01
-2.826480000000000103e-01 -3.445099999999999829e-01 2.893580000000000041e-01
-6.011799999999999783e-02 8.079899999999999860e-01 -3.272579999999999933e-01
-1.845960000000000101e-01 -3.316910000000000136e-01 -3.854429999999999801e-01
6.327530000000000099e-01 -5.568769999999999554e-01 -2.540680000000000160e-01
4.142060000000000186e-01 -1.966070000000000040e-01 2.023480000000000001e-01
-1.332309999999999883e-01 7.442200000000000204e-02 5.773949999999999916e-01
1.865290000000000004e-01 -1.597689999999999944e-01 5.242139999999999578e-01
3.393760000000000110e-01 -6.662800000000000666e-02 3.441400000000000015e-01
8.433349999999999458e-01 -1.628759999999999930e-01 -2.653639999999999888e-01
1.918009999999999993e-01 4.182310000000000194e-01 -1.035110000000000058e-01
-6.487199999999999911e-02 5.328600000000000003e-01 -3.942240000000000189e-01
-2.637600000000000014e-02 8.347269999999999968e-01 -3.166930000000000023e-01
7.865959999999999619e-01 -2.843840000000000257e-01 5.224000000000000345e-03
3.097369999999999846e-01 -3.494240000000000124e-01 3.203639999999999821e-01
-1.946960000000000079e-01 6.210550000000000237e-01 7.238500000000000489e-02
2.456069999999999920e-01 7.273330000000000073e-01 -2.578340000000000076e-01
-7.234089999999999687e-01 -1.911450000000000093e-01 9.704599999999999338e-02
6.161259999999999515e-01 -2.596470000000000167e-01 -3.935319999999999929e-01
-4.438429999999999875e-01 2.567869999999999875e-01 -3.592859999999999943e-01
3.692309999999999759e-01 -4.668800000000000033e-02 -3.547540000000000138e-01
-3.035590000000000233e-01 -2.184500000000000053e-01 3.165789999999999993e-01
-2.848990000000000133e-01 1.172040000000000026e-01 -2.877750000000000030e-01
-4.378200000000000147e-02 6.999959999999999516e-01 -3.755539999999999989e-01
-4.303509999999999835e-01 -5.023250000000000215e-01 -3.621240000000000014e-01
6.780200000000000116e-02 3.893179999999999974e-01 -1.860289999999999999e-01
-3.494220000000000104e-01 -2.704730000000000190e-01 2.468130000000000046e-01
1.935999999999999943e-01 -2.021280000000000021e-01 3.835540000000000060e-01
1.203609999999999958e-01 3.045849999999999946e-01 -2.902290000000000147e-01
5.199470000000000480e-01 2.928370000000000140e-01 -9.505600000000000160e-02
-8.041399999999999937e-02 -2.832439999999999958e-01 -3.407419999999999893e-01
-2.191839999999999899e-01 1.777600000000000013e-01 4.866240000000000010e-01
2.163579999999999948e-01 5.306539999999999591e-01 2.295499999999999971e-02
-3.181900000000000006e-02 7.681820000000000315e-01 -3.544309999999999961e-01
2.053669999999999940e-01 -5.168949999999999934e-01 -3.603900000000000159e-02
3.536210000000000186e-01 -3.184150000000000036e-01 -3.929329999999999767e-01
-3.884699999999999959e-02 -2.704730000000000190e-01 4.549759999999999915e-01
-1.170339999999999991e-01 8.346230000000000038e-01 -1.774570000000000036e-01
-4.806230000000000224e-01 -6.009899999999999964e-02 3.508490000000000220e-01
-6.176169999999999716e-01 -5.653259999999999952e-01 -2.408659999999999968e-01
3.251780000000000226e-01 -5.706769999999999898e-01 -8.034499999999999975e-02
8.564570000000000238e-01 -3.506929999999999770e-01 -1.099170000000000008e-01
3.867229999999999834e-01 -2.958919999999999884e-01 3.313249999999999806e-01
4.674980000000000246e-01 -4.923060000000000214e-01 6.426700000000000468e-02
-6.562780000000000280e-01 3.815999999999999948e-02 -3.126019999999999910e-01
4.293969999999999732e-01 -5.846139999999999670e-01 -1.369529999999999914e-01
-5.710699999999999804e-02 2.893060000000000076e-01 3.707860000000000045e-01
-4.168950000000000156e-01 -3.110359999999999792e-01 1.890500000000000166e-02
6.867750000000000243e-01 -2.508329999999999727e-01 1.225200000000000039e-01
-1.319000000000000077e-03 -5.066810000000000480e-01 -8.275599999999999623e-02
-3.193210000000000215e-01 -3.112610000000000099e-01 -1.243090000000000028e-01
-5.089719999999999800e-01 -2.885340000000000127e-01 -3.927880000000000260e-01
2.098970000000000002e-01 -1.683080000000000132e-01 3.849710000000000076e-01
3.038069999999999937e-01 4.596799999999999775e-01 -3.821570000000000245e-01
8.379159999999999942e-01 -1.482600000000000029e-01 -1.579369999999999941e-01
-1.739050000000000040e-01 7.858779999999999655e-01 -1.963789999999999980e-01
8.426730000000000054e-01 -2.492510000000000003e-01 -8.398300000000000209e-02
3.692699999999999871e-01 -1.288849999999999996e-01 -2.506209999999999827e-01
2.001070000000000071e-01 7.009600000000000275e-01 -3.421480000000000077e-01
-8.836749999999999883e-01 -3.175569999999999782e-01 -2.242210000000000036e-01
6.903409999999999824e-01 -4.412690000000000223e-01 -3.574869999999999992e-01
-2.989350000000000063e-01 -2.598699999999999899e-01 3.004919999999999813e-01
3.695869999999999989e-01 -8.380400000000000349e-02 -2.677610000000000268e-01
-1.580900000000000014e-02 4.851489999999999969e-01 -3.915379999999999971e-01
3.195169999999999955e-01 6.428880000000000150e-01 -2.509580000000000144e-01
2.584170000000000078e-01 2.515700000000000158e-01 -3.803429999999999866e-01
4.024329999999999852e-01 5.152409999999999490e-01 -2.910150000000000237e-01
3.253599999999999826e-01 -2.896429999999999838e-01 2.257160000000000000e-01
1.799389999999999878e-01 2.757689999999999864e-01 3.727010000000000045e-01
-2.000109999999999943e-01 -1.897760000000000002e-01 3.958940000000000237e-01
-3.661579999999999835e-01 -2.112380000000000091e-01 2.666250000000000009e-01
-2.803539999999999921e-01 6.500329999999999719e-01 -1.650830000000000075e-01
1.110929999999999973e-01 8.464549999999999574e-01 -1.925520000000000009e-01
-2.634520000000000195e-01 -9.403599999999999459e-02 3.997089999999999810e-01
-2.469100000000000114e-02 2.376830000000000054e-01 5.226030000000000397e-01
-5.321169999999999511e-01 -1.427519999999999900e-01 1.061480000000000062e-01
3.967419999999999836e-01 -1.974080000000000001e-01 -3.778500000000000192e-01
3.981640000000000179e-01 -4.428309999999999746e-01 -3.858210000000000250e-01
1.225289999999999990e-01 3.678549999999999875e-01 3.019319999999999782e-01
1.077700000000000047e-01 8.461670000000000025e-01 -1.821039999999999881e-01
-1.476159999999999972e-01 3.972220000000000195e-01 3.608279999999999821e-01
2.604509999999999881e-01 -3.824230000000000129e-01 -8.826399999999999524e-02
-2.008010000000000073e-01 5.053199999999999914e-01 7.772199999999999942e-02
-4.302900000000000058e-01 -2.913769999999999971e-01 8.812899999999999900e-02
-3.864920000000000022e-01 -5.299660000000000482e-01 -3.472109999999999919e-01
2.029430000000000123e-01 2.836659999999999737e-01 -3.712070000000000092e-01
6.314100000000000268e-01 8.394999999999999685e-03 -2.610000000000000167e-02
3.625699999999999756e-02 4.548320000000000141e-01 1.940840000000000065e-01
3.988940000000000263e-01 2.489389999999999936e-01 -1.133190000000000031e-01
-4.102520000000000056e-01 -3.295370000000000243e-01 -3.921330000000000093e-01
7.270539999999999781e-01 -5.154760000000000453e-01 -2.884479999999999822e-01
9.190000000000000252e-03 -4.284439999999999915e-01 -3.920190000000000063e-01
-1.561250000000000138e-01 4.111250000000000182e-01 -3.931979999999999920e-01
-1.820720000000000116e-01 4.424719999999999764e-01 2.906250000000000222e-01
-1.122520000000000046e-01 -8.695100000000000051e-02 5.837649999999999784e-01
-1.214510000000000034e-01 -6.365700000000000525e-02 4.582609999999999739e-01
-4.927650000000000086e-01 -5.658260000000000511e-01 -2.942890000000000228e-01
3.027520000000000211e-01 -2.342920000000000003e-01 -2.389729999999999910e-01
-1.868599999999999983e-01 2.654690000000000105e-01 3.992419999999999858e-01
5.212379999999999791e-01 -9.701700000000000601e-02 -4.694299999999999862e-02
3.226299999999999724e-01 -2.198420000000000096e-01 -2.324819999999999942e-01
-8.626300000000000634e-02 5.241000000000000103e-01 2.627419999999999756e-01
3.124689999999999968e-01 4.249729999999999897e-01 -3.860509999999999775e-01
4.328560000000000185e-01 -1.088549999999999934e-01 2.601359999999999784e-01
-5.082799999999999818e-02 4.576080000000000148e-01 1.820859999999999979e-01
-4.155539999999999790e-01 3.778730000000000144e-01 -7.238899999999999502e-02
3.927700000000000080e-01 1.212450000000000055e-01 -3.911600000000000077e-01
-3.812269999999999825e-01 -2.891110000000000069e-01 -3.863650000000000140e-01
7.914609999999999701e-01 -6.374599999999999711e-02 -2.762350000000000083e-01
-1.370379999999999932e-01 4.941220000000000057e-01 -3.935739999999999794e-01
3.920210000000000083e-01 -1.083940000000000042e-01 -2.193049999999999999e-01
7.144399999999999640e-01 -4.974129999999999940e-01 -3.176939999999999764e-01
4.803330000000000100e-01 -5.208600000000000035e-02 -1.182419999999999999e-01
-3.466600000000000237e-01 -5.981520000000000170e-01 -2.315679999999999961e-01
-5.093670000000000142e-01 -5.805590000000000472e-01 -2.505000000000000004e-01
1.977180000000000049e-01 1.180500000000000022e-01 4.296730000000000271e-01
3.497999999999999807e-03 -4.334959999999999924e-01 -3.913200000000000012e-01
6.344199999999999839e-02 -3.278240000000000043e-01 -2.353889999999999871e-01
3.585160000000000013e-01 -2.602979999999999738e-01 2.096679999999999933e-01
-3.118230000000000168e-01 -2.406939999999999913e-01 -3.652810000000000223e-01
-4.698430000000000106e-01 -2.860800000000000148e-02 3.486980000000000079e-01
6.328699999999999604e-02 -6.022530000000000383e-01 -2.461160000000000014e-01
-5.010539999999999994e-01 -1.905739999999999934e-01 5.884999999999999953e-02
-3.209719999999999795e-01 -1.269589999999999885e-01 -2.876879999999999993e-01
2.580450000000000244e-01 7.959099999999999508e-02 4.942130000000000134e-01
-1.988679999999999892e-01 -1.091840000000000033e-01 5.466980000000000173e-01
-8.685049999999999715e-01 -2.808620000000000005e-01 -2.539429999999999743e-01
7.679160000000000430e-01 -3.959999999999999762e-04 -2.175580000000000014e-01
-6.903669999999999529e-01 -1.197060000000000068e-01 1.075770000000000060e-01
4.124450000000000061e-01 -2.371759999999999979e-01 1.601849999999999941e-01
-3.798770000000000202e-01 -2.971150000000000180e-01 1.911490000000000133e-01
-9.571599999999999553e-02 5.364649999999999697e-01 2.477709999999999912e-01
1.936779999999999891e-01 7.853200000000000458e-02 5.406480000000000175e-01
-1.158330000000000054e-01 8.173570000000000002e-01 -2.816620000000000235e-01
-3.796800000000000175e-02 -7.469699999999999951e-02 4.661819999999999853e-01
-6.120130000000000292e-01 -7.482300000000000062e-02 8.710600000000000287e-02
-1.407090000000000007e-01 -2.797410000000000174e-01 -2.711759999999999726e-01
2.485340000000000049e-01 -4.239840000000000275e-01 -3.920359999999999956e-01
5.163149999999999684e-01 3.130809999999999982e-01 -3.272559999999999913e-01
-5.669500000000000234e-02 1.804719999999999935e-01 4.355649999999999800e-01
-2.209589999999999888e-01 -5.578549999999999898e-01 -6.458600000000000452e-02
-1.086499999999999966e-01 -8.913100000000000189e-02 5.839910000000000379e-01
-2.805710000000000148e-01 -3.348579999999999890e-01 2.920670000000000210e-01
3.565180000000000016e-01 -3.271530000000000271e-01 -3.629799999999999693e-02
2.245399999999999896e-01 -8.445700000000000429e-02 5.355680000000000440e-01
-6.958349999999999813e-01 -3.003400000000000167e-02 -2.752100000000000032e-02
1.652720000000000022e-01 4.653539999999999899e-01 -5.826900000000000135e-02
8.164799999999999836e-02 3.060689999999999800e-01 4.591580000000000106e-01
1.731640000000000124e-01 2.715460000000000096e-01 4.386120000000000019e-01
-1.499600000000000065e-02 -4.500410000000000244e-01 -3.882539999999999880e-01
7.692510000000000181e-01 -4.928119999999999723e-01 -2.934860000000000246e-01
2.357180000000000109e-01 -1.794449999999999934e-01 3.648700000000000276e-01
3.636320000000000108e-01 1.136169999999999958e-01 -2.089020000000000044e-01
3.155189999999999939e-01 1.353530000000000011e-01 -2.517420000000000213e-01
7.962599999999999678e-01 -4.675949999999999829e-01 -1.260340000000000071e-01
-2.566379999999999773e-01 -2.214089999999999947e-01 -2.737720000000000153e-01
1.254329999999999889e-01 8.398290000000000477e-01 -2.134079999999999866e-01
6.059050000000000269e-01 -8.437200000000000255e-02 1.209400000000000058e-01
-7.026400000000000423e-01 -2.079060000000000075e-01 1.239350000000000035e-01
7.586400000000000088e-02 7.594400000000000039e-01 -3.558620000000000116e-01
-3.886789999999999967e-01 -2.732660000000000089e-01 3.544880000000000253e-01
4.591620000000000146e-01 -6.041900000000000048e-02 -1.403749999999999998e-01
-3.600809999999999844e-01 -1.670310000000000128e-01 -1.973370000000000124e-01
1.456919999999999882e-01 4.051730000000000054e-01 -3.877539999999999876e-01
-2.106210000000000027e-01 -3.250499999999999917e-02 4.404290000000000149e-01
5.593749999999999556e-01 2.866299999999999959e-01 -2.956500000000000239e-01
7.792710000000000470e-01 -3.944799999999999696e-02 -1.474560000000000037e-01
3.818969999999999865e-01 2.358899999999999886e-02 -3.754109999999999947e-01
1.169349999999999973e-01 5.964429999999999454e-01 1.729479999999999906e-01
4.728500000000000064e-02 -6.100360000000000227e-01 -1.859030000000000127e-01
2.617860000000000187e-01 -2.515979999999999883e-01 -3.584979999999999833e-01
-4.492899999999999672e-02 4.745699999999999918e-01 3.193030000000000035e-01
9.561300000000000354e-02 3.237400000000000277e-01 -3.437919999999999865e-01
-2.620120000000000227e-01 -1.363219999999999987e-01 5.063130000000000130e-01
-1.889830000000000121e-01 4.491919999999999802e-01 2.651800000000000268e-01
1.422339999999999993e-01 4.596999999999999975e-01 2.972799999999999887e-01
1.081310000000000049e-01 4.101020000000000221e-01 3.604220000000000201e-01
2.154469999999999996e-01 6.832810000000000272e-01 -3.193599999999999911e-02
-4.631190000000000029e-01 -4.512479999999999825e-01 -3.803259999999999974e-01
1.435600000000000070e-02 5.575099999999999500e-01 -3.942430000000000101e-01
5.698429999999999884e-01 -9.098299999999999443e-02 1.522630000000000094e-01
-7.077999999999999570e-02 7.356380000000000141e-01 4.059499999999999914e-02
2.964100000000000068e-02 -6.884999999999999627e-03 4.665369999999999795e-01
6.460489999999999844e-01 -3.928500000000000048e-02 9.287999999999999381e-03
5.901079999999999659e-01 -4.487220000000000097e-01 6.909999999999999476e-02
6.796569999999999556e-01 -5.477629999999999999e-01 -2.409729999999999928e-01
-7.255310000000000370e-01 -3.098609999999999975e-01 7.716599999999999848e-02
1.532789999999999986e-01 -5.596280000000000143e-01 -3.263220000000000010e-01
4.943359999999999976e-01 4.099050000000000193e-01 -1.888980000000000103e-01
-5.127180000000000071e-01 -4.871349999999999847e-01 6.648900000000000643e-02
5.220839999999999925e-01 2.077809999999999935e-01 -3.684769999999999990e-01
-1.268890000000000018e-01 7.395199999999999552e-01 1.121000000000000035e-03
-2.992090000000000027e-01 9.328899999999999693e-02 -3.590209999999999790e-01
2.790679999999999827e-01 -4.291929999999999912e-01 -2.762200000000000072e-02
3.379499999999999865e-02 4.030920000000000059e-01 -1.721129999999999882e-01
-4.382860000000000089e-01 -1.862389999999999879e-01 -8.405899999999999483e-02
-2.828379999999999783e-01 -5.512719999999999843e-01 -3.331169999999999964e-01
-4.639409999999999923e-01 -1.433220000000000049e-01 -7.884099999999999442e-02
-5.516000000000000070e-03 -2.257609999999999895e-01 5.129230000000000178e-01
6.043799999999999867e-02 6.080790000000000362e-01 1.809119999999999895e-01
-7.824499999999999789e-01 -1.090300000000000019e-01 -8.782299999999999829e-02
3.895270000000000121e-01 5.517130000000000090e-01 -1.816329999999999889e-01
-2.187199999999999908e-02 -4.403630000000000044e-01 -1.226340000000000069e-01
3.134029999999999871e-01 1.024079999999999990e-01 -2.883749999999999925e-01
-5.125830000000000108e-01 -9.531399999999999595e-02 -3.930330000000000212e-01
4.704699999999999854e-02 6.494680000000000453e-01 -3.872229999999999839e-01
-8.028399999999999981e-01 -1.328729999999999911e-01 -2.508909999999999751e-01
-1.801270000000000093e-01 4.753450000000000175e-01 1.803049999999999931e-01
-3.773500000000000187e-01 2.703860000000000152e-01 -1.065019999999999994e-01
-2.074100000000000110e-01 -1.340949999999999920e-01 5.333379999999999788e-01
-1.208759999999999973e-01 7.609999999999999577e-04 4.655889999999999751e-01
7.326100000000000667e-02 -4.964390000000000192e-01 -7.716499999999999748e-02
3.597449999999999815e-01 -3.161590000000000233e-01 -3.930049999999999932e-01
-4.668530000000000180e-01 -5.825339999999999963e-01 -1.260149999999999881e-01
-5.452380000000000004e-01 -5.813580000000000414e-01 -1.887270000000000059e-01
-1.054540000000000061e-01 -3.201699999999999685e-02 5.971170000000000089e-01
-8.663640000000000230e-01 -3.574510000000000187e-01 -2.846179999999999821e-01
-6.853399999999999770e-02 4.665000000000000258e-01 -3.920509999999999828e-01
2.143720000000000070e-01 3.871410000000000129e-01 -1.239790000000000059e-01
6.671599999999999753e-02 -3.167309999999999848e-01 -3.745089999999999808e-01
1.263700000000000066e-02 3.419630000000000170e-01 4.430839999999999779e-01
4.146460000000000146e-01 -5.712429999999999453e-01 -9.228799999999999504e-02
-1.739789999999999948e-01 4.505669999999999953e-01 2.920530000000000070e-01
7.031770000000000520e-01 -1.068780000000000008e-01 5.048099999999999810e-02
4.622959999999999847e-01 -2.915650000000000186e-01 2.864639999999999964e-01
3.239500000000000018e-02 3.515460000000000251e-01 4.328139999999999765e-01
-8.974300000000000332e-02 -7.133899999999999963e-02 5.936510000000000398e-01
3.376910000000000189e-01 -5.895890000000000297e-01 -2.642019999999999924e-01
3.570160000000000000e-01 -9.042799999999999450e-02 -3.138750000000000151e-01
-3.755120000000000124e-01 -4.084740000000000038e-01 6.913300000000000001e-02
-4.193089999999999873e-01 -8.848399999999999321e-02 4.075770000000000226e-01
3.028319999999999901e-01 6.419569999999999999e-01 -1.283239999999999936e-01
4.205559999999999854e-01 3.050900000000000140e-02 -1.807600000000000040e-01
8.374899999999999567e-01 -2.131329999999999891e-01 -9.045300000000000562e-02
4.098609999999999753e-01 -4.643999999999999795e-01 1.266349999999999976e-01
4.210119999999999973e-01 -3.064470000000000249e-01 -3.947740000000000138e-01
4.346110000000000251e-01 1.947649999999999937e-01 -1.136189999999999978e-01
1.933459999999999901e-01 6.904390000000000249e-01 -8.708000000000000462e-03
1.530459999999999876e-01 6.034819999999999629e-01 -3.855480000000000018e-01
1.267570000000000086e-01 3.106400000000000272e-01 -3.502210000000000045e-01
-1.624339999999999951e-01 -2.598249999999999726e-01 3.922209999999999863e-01
7.961449999999999916e-01 -4.353040000000000243e-01 -3.245350000000000179e-01
-4.336189999999999767e-01 -2.614650000000000030e-01 1.341900000000000037e-01
-1.466520000000000046e-01 5.317899999999999711e-02 5.773920000000000163e-01
-2.432719999999999883e-01 -6.063800000000000301e-01 -1.964589999999999947e-01
3.573760000000000270e-01 -5.982129999999999947e-01 -2.068480000000000041e-01
7.927140000000000297e-01 -3.875750000000000028e-01 -3.431290000000000173e-01
-8.442700000000000204e-02 9.986299999999999344e-02 5.847639999999999505e-01
1.261780000000000124e-01 -4.418900000000000050e-01 -3.898780000000000023e-01
-6.833900000000000530e-01 6.679000000000000214e-02 -2.107479999999999909e-01
1.213739999999999958e-01 2.976010000000000044e-01 -3.257720000000000060e-01
-1.211210000000000064e-01 6.397760000000000113e-01 1.282280000000000086e-01
-4.634940000000000171e-01 1.822169999999999901e-01 -9.238499999999999490e-02
-2.643070000000000142e-01 5.334449999999999470e-01 -3.580590000000000162e-01
3.404190000000000271e-01 -2.205580000000000040e-01 -2.036540000000000017e-01
-3.224690000000000056e-01 -3.195640000000000147e-01 -1.139639999999999959e-01
-7.093949999999999978e-01 -3.583049999999999846e-01 6.813700000000000312e-02
3.773310000000000275e-01 -1.091599999999999931e-01 2.994060000000000055e-01
-3.876450000000000173e-01 -5.336999999999999522e-01 -8.007999999999999494e-03
-2.522179999999999978e-01 4.061560000000000170e-01 -8.068200000000000371e-02
3.212059999999999915e-01 -2.031389999999999862e-01 -2.632749999999999813e-01
7.598240000000000549e-01 1.301000000000000073e-02 -2.217119999999999924e-01
-6.363020000000000342e-01 -1.828629999999999978e-01 -3.861049999999999760e-01
-7.848220000000000196e-01 -1.750180000000000069e-01 -9.320999999999999425e-03
-1.752209999999999879e-01 6.126390000000000446e-01 -3.702630000000000088e-01
7.960080000000000489e-01 -2.199990000000000001e-01 -1.377399999999999979e-02
-4.450549999999999784e-01 -2.072670000000000068e-01 -5.756200000000000205e-02
7.405749999999999833e-01 1.848500000000000143e-02 -1.362069999999999947e-01
2.048389999999999933e-01 6.290879999999999805e-01 4.769700000000000328e-02
-5.865070000000000006e-01 -1.814590000000000092e-01 2.461099999999999954e-01
1.607899999999999885e-01 4.947460000000000191e-01 -1.729599999999999888e-02
4.652200000000000085e-02 8.774629999999999930e-01 -2.316439999999999888e-01
2.346870000000000067e-01 7.091319999999999846e-01 -1.029589999999999950e-01
-7.873399999999999843e-02 3.788540000000000241e-01 2.904970000000000052e-01
-4.937679999999999847e-01 -5.884859999999999536e-01 -1.856849999999999890e-01
2.362760000000000138e-01 -1.182050000000000045e-01 3.854529999999999901e-01
-4.353609999999999980e-01 3.741450000000000053e-01 -2.967029999999999945e-01
4.659960000000000213e-01 -1.879830000000000112e-01 -3.903220000000000023e-01
2.583909999999999818e-01 -5.378309999999999480e-01 -3.697399999999999992e-02
-2.002009999999999901e-01 -5.244109999999999605e-01 -5.932500000000000273e-02
-7.790690000000000115e-01 -2.276110000000000078e-01 2.625600000000000156e-02
8.643939999999999957e-01 -2.893879999999999786e-01 -2.990120000000000000e-01
6.518199999999999550e-01 -2.752439999999999887e-01 1.481379999999999919e-01
-1.118230000000000057e-01 -5.516039999999999832e-01 -3.355870000000000242e-01
-3.445889999999999787e-01 -4.895570000000000199e-01 -3.721169999999999756e-01
1.289540000000000131e-01 -1.413409999999999944e-01 4.303009999999999891e-01
-1.974899999999999919e-02 -1.553999999999999999e-02 6.121830000000000327e-01
5.599640000000000173e-01 7.290000000000000646e-02 -6.362099999999999700e-02
5.170700000000000296e-02 -7.498000000000000498e-02 4.601549999999999807e-01
6.323050000000000059e-01 -5.143419999999999659e-01 -5.100799999999999779e-02
-6.238679999999999781e-01 -4.604269999999999752e-01 4.241400000000000031e-02
-5.816130000000000466e-01 -1.033700000000000035e-01 -3.894719999999999849e-01
2.079110000000000125e-01 -5.181310000000000082e-01 -3.523899999999999949e-02
4.049090000000000189e-01 4.940430000000000099e-01 -3.111539999999999861e-01
-4.100679999999999881e-01 -5.384510000000000129e-01 -1.213099999999999942e-02
7.643069999999999586e-01 5.719000000000000125e-03 -2.139089999999999880e-01
-1.731890000000000096e-01 -6.362099999999999700e-02 4.456890000000000018e-01
-2.879700000000000037e-01 -2.159580000000000111e-01 4.505140000000000255e-01
-4.393889999999999740e-01 -5.490819999999999590e-01 -3.254499999999999754e-02
-3.000990000000000046e-01 6.966500000000000470e-02 4.795119999999999938e-01
-1.271079999999999988e-01 3.831720000000000126e-01 -1.720500000000000085e-01
2.904760000000000120e-01 1.937439999999999996e-01 -2.316229999999999956e-01
1.341400000000000058e-02 7.650970000000000271e-01 1.621799999999999978e-02
2.509299999999999864e-01 -2.260479999999999989e-01 4.550799999999999845e-01
3.937050000000000272e-01 1.372539999999999871e-01 -1.676860000000000017e-01
-2.176859999999999906e-01 2.742049999999999765e-01 -3.841249999999999942e-01
-7.316270000000000273e-01 -7.505499999999999672e-02 -2.652600000000000097e-02
7.867370000000000196e-01 -2.214440000000000019e-01 9.380000000000000317e-04
-4.063189999999999857e-01 3.974639999999999840e-01 -7.281600000000000572e-02
-4.355800000000000227e-01 -1.205139999999999961e-01 2.659309999999999730e-01
3.315350000000000241e-01 -2.138800000000000076e-02 4.659150000000000236e-01
-3.401549999999999851e-01 3.782260000000000066e-01 -3.709540000000000060e-01
6.537220000000000253e-01 -5.529479999999999951e-01 -1.696449999999999902e-01
4.257549999999999946e-01 1.300949999999999884e-01 -1.437199999999999867e-01
-8.430039999999999756e-01 -2.051419999999999910e-01 -1.288189999999999891e-01
-2.045939999999999981e-01 7.505330000000000057e-01 -2.183070000000000010e-01
7.442210000000000214e-01 -3.699660000000000171e-01 1.937799999999999939e-02
6.326129999999999809e-01 -1.316219999999999890e-01 1.777279999999999971e-01
4.539100000000000079e-02 -4.908680000000000265e-01 -8.447899999999999854e-02
3.609140000000000126e-01 -1.128959999999999964e-01 -3.442850000000000077e-01
6.403499999999999748e-01 -4.880280000000000173e-01 -1.368499999999999925e-02
-1.761149999999999938e-01 3.863179999999999947e-01 3.528000000000000025e-01
5.190190000000000081e-01 -1.360580000000000123e-01 3.031449999999999978e-01
-1.658910000000000107e-01 6.122659999999999769e-01 -3.732130000000000170e-01
7.781919999999999948e-01 -4.913819999999999855e-01 -2.886040000000000272e-01
2.067099999999999840e-02 2.356669999999999876e-01 4.015310000000000268e-01
2.111490000000000034e-01 7.681689999999999907e-01 -2.097980000000000123e-01
-4.681080000000000241e-01 3.813289999999999735e-01 -1.781419999999999948e-01
2.656259999999999732e-01 -2.325790000000000080e-01 3.198610000000000064e-01
-2.360250000000000126e-01 -2.666390000000000149e-01 4.343020000000000214e-01
-4.594289999999999763e-01 -1.752940000000000054e-01 -3.859719999999999818e-01
1.983800000000000147e-02 7.238510000000000222e-01 6.425799999999999568e-02
4.440740000000000243e-01 -4.732000000000000095e-01 1.041580000000000006e-01
1.579820000000000113e-01 1.517179999999999918e-01 5.290569999999999995e-01
7.031539999999999457e-01 -1.277909999999999879e-01 7.423100000000000531e-02
3.337080000000000046e-01 -5.732500000000000373e-01 -3.011590000000000100e-01
3.507709999999999995e-01 -1.377609999999999946e-01 -3.326600000000000112e-01
4.322320000000000051e-01 4.362509999999999999e-01 -9.884999999999999343e-02
-3.699350000000000138e-01 -2.927830000000000155e-01 -8.626599999999999546e-02
-1.904689999999999994e-01 -4.224859999999999727e-01 -1.109139999999999987e-01
-6.497640000000000082e-01 -2.615999999999999992e-01 -3.864150000000000085e-01
-8.671940000000000204e-01 -3.306200000000000250e-01 -2.802569999999999784e-01
-4.061779999999999835e-01 4.634809999999999763e-01 -1.435230000000000117e-01
-2.231190000000000118e-01 5.375229999999999730e-01 7.447499999999999953e-02
6.819870000000000099e-01 1.192990000000000023e-01 -1.493599999999999928e-01
-2.117819999999999980e-01 7.422069999999999501e-01 -1.798839999999999884e-01
-3.229310000000000236e-01 1.763540000000000108e-01 -2.002790000000000126e-01
-5.784529999999999950e-01 -4.986769999999999814e-01 1.757500000000000034e-02
-8.492299999999999849e-02 -5.465130000000000265e-01 -3.401669999999999972e-01
1.787199999999999900e-01 -4.790099999999999913e-01 -5.412800000000000250e-02
-3.720260000000000233e-01 -5.407210000000000072e-01 -3.388249999999999873e-01
-1.406449999999999922e-01 8.179699999999999749e-01 -2.024729999999999863e-01
1.122159999999999963e-01 8.283460000000000267e-01 -2.915880000000000138e-01
5.872739999999999627e-01 -4.957119999999999860e-01 7.422999999999999911e-03
-3.187989999999999990e-01 -3.728369999999999740e-01 2.856750000000000123e-01
-2.056320000000000092e-01 2.442960000000000131e-01 -2.773800000000000154e-01
-1.842610000000000081e-01 2.473229999999999873e-01 -3.055930000000000035e-01
2.216740000000000099e-01 -3.045470000000000121e-01 3.969300000000000050e-01
7.187810000000000032e-01 -1.466939999999999911e-01 -3.703679999999999750e-01
2.849510000000000098e-01 6.325929999999999609e-01 -8.025000000000000189e-02
3.732900000000000107e-02 6.827579999999999760e-01 -3.816979999999999817e-01
4.978810000000000180e-01 4.056899999999999951e-01 -1.932439999999999991e-01
4.845590000000000175e-01 -1.838919999999999999e-01 9.415300000000000058e-02
1.603670000000000095e-01 4.743680000000000119e-01 2.692760000000000153e-01
2.679929999999999812e-01 3.156729999999999814e-01 -1.541859999999999897e-01
1.520799999999999930e-02 4.268560000000000132e-01 2.311940000000000106e-01
-4.882600000000000273e-01 4.896999999999999964e-02 -9.812500000000000389e-02
6.874500000000000055e-01 4.740500000000000269e-02 -3.314759999999999929e-01
-8.517770000000000064e-01 -3.449400000000000244e-01 -9.191299999999999470e-02
4.295619999999999994e-01 -5.913389999999999480e-01 -2.252530000000000088e-01
-2.945820000000000105e-01 -2.675179999999999780e-01 -1.860529999999999962e-01
8.652239999999999931e-01 -2.098559999999999870e-01 -1.717090000000000005e-01
-3.738060000000000271e-01 -5.226299999999999696e-02 -3.697849999999999748e-01
1.000449999999999950e-01 4.395649999999999835e-01 -1.056460000000000038e-01
-4.789390000000000036e-01 1.665470000000000006e-01 -8.803900000000000614e-02
3.037000000000000203e-03 -3.355580000000000229e-01 -3.827409999999999979e-01
7.131549999999999834e-01 -3.006869999999999821e-01 -3.782190000000000274e-01
-7.707469999999999599e-01 -3.357530000000000237e-01 2.035100000000000103e-02
-5.168099999999999777e-02 -4.922200000000000186e-02 4.681469999999999798e-01
-4.517639999999999989e-01 -2.341229999999999978e-01 1.340270000000000072e-01
2.395509999999999862e-01 1.013059999999999933e-01 4.230010000000000159e-01
6.535260000000000513e-01 -3.818090000000000095e-01 8.780100000000000404e-02
-1.061239999999999961e-01 5.300439999999999596e-01 2.509210000000000051e-01
5.186319999999999819e-01 3.082539999999999725e-01 -1.010009999999999936e-01
6.047979999999999468e-01 1.600399999999999878e-01 -3.399119999999999919e-01
-8.334669999999999579e-01 -1.705019999999999869e-01 -1.855829999999999980e-01
2.024299999999999988e-01 1.931279999999999941e-01 4.723589999999999733e-01
-2.692080000000000028e-01 -2.305149999999999977e-01 4.495410000000000239e-01
-5.733489999999999975e-01 -3.178599999999999759e-01 -3.918090000000000184e-01
6.611390000000000322e-01 -4.839530000000000221e-01 -2.208600000000000146e-02
5.567739999999999911e-01 -5.769290000000000251e-01 -2.007559999999999900e-01
-3.274850000000000261e-01 2.292849999999999888e-01 -1.647299999999999875e-01
5.184000000000000240e-03 8.587700000000000333e-01 -1.270840000000000025e-01
7.092960000000000376e-01 -1.111700000000000049e-01 4.686300000000000188e-02
4.813800000000000023e-02 -2.969010000000000260e-01 -3.534089999999999732e-01
-7.836790000000000145e-01 -8.236100000000000365e-02 -1.846669999999999978e-01
2.281900000000000039e-01 -2.850320000000000076e-01 -2.346290000000000042e-01
-6.311689999999999801e-01 -4.398360000000000047e-01 -3.686039999999999872e-01
-2.083019999999999872e-01 4.146850000000000258e-01 -3.933900000000000174e-01
1.681189999999999907e-01 -3.525059999999999860e-01 -3.914590000000000014e-01
-2.167800000000000005e-01 5.341420000000000057e-01 9.421300000000000507e-02
-8.350000000000000217e-04 -7.820299999999999474e-02 6.004749999999999810e-01
-2.133120000000000016e-01 7.205749999999999655e-01 -1.107500000000000012e-01
-2.238950000000000107e-01 -5.439270000000000493e-01 -5.686999999999999694e-02
7.598099999999999854e-01 1.153400000000000085e-02 -2.313449999999999951e-01
-4.177399999999999863e-02 7.876260000000000483e-01 -1.665600000000000067e-02
-3.581309999999999771e-01 -2.482540000000000024e-01 -1.372329999999999939e-01
-1.423999999999999919e-02 3.270919999999999939e-01 3.369960000000000178e-01
2.121800000000000075e-01 1.752400000000000138e-02 5.449650000000000327e-01
1.848599999999999965e-01 1.895010000000000028e-01 4.099499999999999811e-01
3.006559999999999788e-01 -3.748099999999999765e-01 2.909729999999999817e-01
4.734800000000000120e-01 -3.934719999999999884e-01 -3.920719999999999761e-01
6.266690000000000316e-01 -2.909340000000000259e-01 1.631569999999999965e-01
3.296600000000000225e-02 4.318670000000000009e-01 3.602310000000000234e-01
1.536150000000000015e-01 -2.856730000000000103e-01 4.331050000000000177e-01
7.710100000000000287e-02 -6.053129999999999900e-01 -2.319980000000000098e-01
6.612139999999999684e-01 1.694640000000000035e-01 -2.126689999999999969e-01
3.823960000000000137e-01 9.638999999999999999e-03 3.745249999999999968e-01
-1.886680000000000024e-01 -2.044789999999999941e-01 5.004410000000000247e-01
1.757890000000000008e-01 -3.178610000000000047e-01 -2.170469999999999899e-01
-8.336780000000000301e-01 -3.471449999999999814e-01 -3.191959999999999797e-01
3.289500000000000202e-01 -2.753510000000000124e-01 -3.832430000000000003e-01
-4.157239999999999824e-01 4.534639999999999782e-01 -1.551359999999999961e-01
-2.336670000000000136e-01 -2.632390000000000008e-01 -2.386759999999999993e-01
1.642710000000000004e-01 3.890739999999999754e-01 -3.877149999999999763e-01
2.278820000000000012e-01 7.195939999999999559e-01 -1.086359999999999965e-01
5.307720000000000216e-01 -4.928000000000000158e-01 -3.585400000000000253e-01
-1.457269999999999954e-01 4.354979999999999962e-01 2.304299999999999959e-01
8.535909999999999886e-01 -3.624919999999999809e-01 -3.106369999999999965e-01
1.281500000000000000e-02 4.663399999999999768e-01 3.292689999999999784e-01
3.680000000000000003e-04 -5.849910000000000387e-01 -1.014349999999999974e-01
7.254770000000000385e-01 6.706700000000000161e-02 -1.903350000000000042e-01
2.849700000000000150e-02 2.287510000000000099e-01 4.048470000000000124e-01
-9.574900000000000078e-02 6.916189999999999838e-01 -3.695189999999999864e-01
1.896619999999999973e-01 6.322510000000000074e-01 6.680999999999999439e-02
4.590049999999999963e-01 -5.668619999999999770e-01 -9.121100000000000041e-02
-5.934749999999999748e-01 1.516309999999999880e-01 -8.163499999999999923e-02
3.690249999999999919e-01 -1.123819999999999958e-01 -3.528850000000000042e-01
-2.212270000000000070e-01 -4.492099999999999982e-01 -8.137400000000000189e-02
2.441399999999999959e-01 6.494529999999999470e-01 -3.537499999999999672e-02
3.235609999999999875e-01 -3.288189999999999724e-01 1.963409999999999878e-01
4.513679999999999914e-01 3.673230000000000106e-01 -3.495860000000000078e-01
-2.061530000000000029e-01 7.292319999999999913e-01 -1.106970000000000037e-01
4.028860000000000219e-01 5.381620000000000292e-01 -2.280300000000000105e-01
4.780070000000000152e-01 -2.232109999999999927e-01 -3.930259999999999865e-01
-8.675939999999999763e-01 -2.583179999999999921e-01 -1.584339999999999915e-01
4.660860000000000003e-01 -1.862209999999999976e-01 1.392460000000000087e-01
5.703780000000000516e-01 -9.738099999999999534e-02 1.147230000000000055e-01
-1.078179999999999972e-01 1.289629999999999943e-01 5.665550000000000308e-01
-1.124460000000000043e-01 4.879350000000000076e-01 -2.226999999999999813e-03
-1.923100000000000087e-01 2.629759999999999875e-01 4.459369999999999723e-01
-1.958899999999999877e-02 4.241539999999999755e-01 -1.408050000000000135e-01
6.443839999999999568e-01 9.322700000000000431e-02 -7.574000000000000177e-02
1.587890000000000135e-01 1.856500000000000164e-02 5.729119999999999768e-01
-1.125130000000000019e-01 -5.587320000000000064e-01 -3.277669999999999750e-01
3.745789999999999953e-01 1.110590000000000049e-01 -3.867349999999999954e-01
5.655130000000000434e-01 -4.226829999999999754e-01 1.124769999999999937e-01
-2.816600000000000006e-02 4.168520000000000003e-01 -3.811599999999999988e-01
-2.349599999999999952e-02 -2.333959999999999924e-01 4.392269999999999786e-01
-1.110320000000000057e-01 4.272770000000000179e-01 3.486020000000000230e-01
1.280860000000000054e-01 4.455680000000000196e-01 -9.141799999999999926e-02
-2.799159999999999981e-01 1.476270000000000082e-01 -3.687810000000000255e-01
-3.873550000000000049e-01 -2.805719999999999881e-01 -7.494399999999999673e-02
-2.446869999999999878e-01 -3.311549999999999772e-01 3.316839999999999788e-01
-4.611549999999999816e-01 -2.035690000000000000e-01 -3.862140000000000017e-01
-5.825649999999999995e-01 1.303960000000000119e-01 -3.218349999999999822e-01
2.772649999999999837e-01 -3.785359999999999836e-01 -7.891499999999999904e-02
-4.989709999999999979e-01 -2.530879999999999797e-01 -3.914850000000000274e-01
-8.396109999999999962e-01 -2.800179999999999891e-01 -6.541099999999999692e-02
-5.767820000000000169e-01 2.244589999999999919e-01 -1.658600000000000074e-01
-3.114589999999999859e-01 7.182399999999999896e-02 4.680889999999999773e-01
-3.448080000000000034e-01 3.039100000000000135e-01 -3.854850000000000221e-01
1.343479999999999952e-01 -1.287639999999999896e-01 5.578830000000000178e-01
3.385349999999999748e-01 2.911639999999999784e-01 -3.936859999999999804e-01
6.396290000000000031e-01 -2.426969999999999961e-01 1.700599999999999890e-01
-2.394489999999999952e-01 4.552129999999999788e-01 -3.783500000000000058e-02
-2.739909999999999846e-01 -1.901460000000000095e-01 -3.071160000000000001e-01
1.903019999999999989e-01 2.517989999999999950e-01 -3.412029999999999785e-01
-2.772300000000000111e-02 6.728199999999999736e-01 -3.826419999999999821e-01
3.557330000000000214e-01 -1.801929999999999921e-01 2.721339999999999870e-01
-4.333960000000000035e-01 -3.922229999999999883e-01 -3.917919999999999736e-01
-7.293840000000000323e-01 -8.316900000000000681e-02 -3.202639999999999931e-01
-1.702150000000000052e-01 -5.689260000000000428e-01 -3.148199999999999887e-01
3.436330000000000218e-01 -1.592220000000000024e-01 -2.860190000000000232e-01
3.212949999999999973e-01 -3.008100000000000010e-02 4.752549999999999830e-01
-3.617600000000000260e-01 2.405770000000000131e-01 -1.315570000000000073e-01
-7.054699999999999860e-02 -1.110450000000000048e-01 4.586979999999999946e-01
-6.683899999999999564e-02 4.929339999999999833e-01 2.977969999999999784e-01
-2.355629999999999946e-01 -7.861700000000000632e-02 5.371369999999999756e-01
3.938380000000000214e-01 -5.956270000000000175e-01 -2.021129999999999871e-01
-6.493600000000000483e-01 -8.114100000000000479e-02 1.068599999999999967e-01
3.520019999999999816e-01 -1.458790000000000087e-01 -2.791370000000000240e-01
6.448490000000000055e-01 -1.355999999999999983e-01 1.637180000000000024e-01
-8.071679999999999966e-01 -4.085199999999999942e-01 -6.277199999999999447e-02
-4.747330000000000161e-01 -3.925319999999999920e-01 -3.905850000000000155e-01
5.639650000000000496e-01 8.065100000000000047e-02 -6.295699999999999907e-02
4.665400000000000102e-01 4.510440000000000005e-01 -2.050490000000000090e-01
-2.918099999999999861e-02 4.725050000000000083e-01 -5.308100000000000318e-02
3.422359999999999847e-01 1.907400000000000068e-02 -3.166769999999999863e-01
5.160820000000000407e-01 -4.409939999999999971e-01 1.207629999999999953e-01
-1.720959999999999990e-01 -5.955890000000000351e-01 -2.641510000000000247e-01
-3.234999999999999681e-02 7.620860000000000412e-01 -3.569209999999999883e-01
-4.998489999999999878e-01 -3.518890000000000073e-01 2.250939999999999885e-01
-2.816350000000000242e-01 -3.432490000000000263e-01 -3.903110000000000190e-01
-3.508510000000000240e-01 5.419580000000000508e-01 -1.403929999999999900e-01
-6.548519999999999897e-01 -6.402299999999999658e-02 5.229400000000000021e-02
1.170260000000000050e-01 4.781259999999999954e-01 -4.458100000000000257e-02
2.891960000000000086e-01 1.493849999999999900e-01 -2.776779999999999804e-01
-8.235569999999999835e-01 -4.272110000000000074e-01 -1.003760000000000069e-01
-1.006899999999999983e-02 -4.845280000000000142e-01 -9.320699999999999819e-02
3.615030000000000188e-01 -1.123849999999999988e-01 -2.795019999999999727e-01
1.680939999999999934e-01 -3.164870000000000183e-01 3.883119999999999905e-01
-3.423490000000000144e-01 -1.420760000000000078e-01 -2.379060000000000064e-01
2.441250000000000087e-01 5.616039999999999921e-01 -3.763290000000000246e-01
1.584980000000000000e-01 -5.404099999999999460e-01 -3.450639999999999818e-01
7.027670000000000305e-01 -1.282659999999999911e-01 7.532600000000000406e-02
-3.715570000000000261e-01 -2.715060000000000251e-01 2.211700000000000055e-01
2.661569999999999769e-01 6.352879999999999638e-01 -5.367899999999999755e-02
