-2.243480831384658813e-01 2.245479971170425415e-01 4.112901985645294189e-01
-2.241651564836502075e-01 2.139893621206283569e-01 4.351877570152282715e-01
-2.303764820098876953e-01 2.423814088106155396e-01 4.151852428913116455e-01
-2.313542962074279785e-01 2.307160645723342896e-01 4.388447701930999756e-01
-3.659560978412628174e-01 3.597128689289093018e-01 -3.699628114700317383e-01
-3.854732811450958252e-01 3.609555959701538086e-01 -3.551175594329833984e-01
-3.750733137130737305e-01 3.821429014205932617e-01 -3.545806407928466797e-01
-3.908173739910125732e-01 3.821662962436676025e-01 -3.364921808242797852e-01
-2.975000441074371338e-02 -1.468643248081207275e-01 5.639923810958862305e-01
-2.385763637721538544e-02 -1.351887136697769165e-01 5.756869316101074219e-01
-3.017175942659378052e-02 -1.308441311120986938e-01 5.776757001876831055e-01
-2.900379709899425507e-02 -1.209335327148437500e-01 5.866314172744750977e-01
3.711641728878021240e-01 1.263922750949859619e-01 -2.051723748445510864e-01
3.814969062805175781e-01 1.291206777095794678e-01 -1.834485083818435669e-01
3.626961708068847656e-01 1.462405025959014893e-01 -1.964634358882904053e-01
3.723973333835601807e-01 1.494521200656890869e-01 -1.757466346025466919e-01
4.622207283973693848e-01 -5.890060067176818848e-01 -1.901487559080123901e-01
4.696126878261566162e-01 -5.865762233734130859e-01 -1.687468886375427246e-01
4.549467861652374268e-01 -5.822147130966186523e-01 -1.633745282888412476e-01
4.619873762130737305e-01 -5.790773630142211914e-01 -1.419805735349655151e-01
-5.187755078077316284e-02 -4.407249689102172852e-01 -1.307106316089630127e-01
-6.678809225559234619e-02 -4.558261036872863770e-01 -1.188651770353317261e-01
-6.885167956352233887e-02 -4.340112209320068359e-01 -1.259476393461227417e-01
-8.556994795799255371e-02 -4.474130868911743164e-01 -1.131813973188400269e-01
3.106835484504699707e-01 5.808984041213989258e-01 -7.428852468729019165e-02
3.045886456966400146e-01 5.765255689620971680e-01 -5.049776658415794373e-02
2.998698055744171143e-01 5.964451432228088379e-01 -5.734253674745559692e-02
2.939856052398681641e-01 5.932097434997558594e-01 -3.544982522726058960e-02
4.165868759155273438e-01 -1.390654891729354858e-01 -1.631368398666381836e-01
4.248644709587097168e-01 -1.458976566791534424e-01 -1.416482180356979370e-01
4.282430410385131836e-01 -1.263533383607864380e-01 -1.524423360824584961e-01
4.370840191841125488e-01 -1.324053257703781128e-01 -1.322361677885055542e-01
-3.466930240392684937e-02 6.369326114654541016e-01 -3.919717073440551758e-01
-5.292730033397674561e-02 6.313284039497375488e-01 -3.890570700168609619e-01
-3.864020109176635742e-02 6.600123643875122070e-01 -3.852857053279876709e-01
-6.224605813622474670e-02 6.588287353515625000e-01 -3.810058832168579102e-01
-4.445906281471252441e-01 -3.909852802753448486e-01 2.071389704942703247e-01
-4.324578046798706055e-01 -3.852199614048004150e-01 2.301719635725021362e-01
-4.468578398227691650e-01 -3.759495317935943604e-01 2.282373458147048950e-01
-4.347946643829345703e-01 -3.696634769439697266e-01 2.525163888931274414e-01
3.877236843109130859e-01 -2.842881157994270325e-02 -2.385885715484619141e-01
3.965995311737060547e-01 -3.208243101835250854e-02 -2.185883969068527222e-01
3.851726353168487549e-01 -1.053155027329921722e-02 -2.301297038793563843e-01
3.962070345878601074e-01 -1.339186169207096100e-02 -2.092144936323165894e-01
3.229528367519378662e-01 -5.526319742202758789e-01 -5.536534637212753296e-02
3.291402161121368408e-01 -5.461630821228027344e-01 -3.818484768271446228e-02
3.113145232200622559e-01 -5.407979488372802734e-01 -3.512523695826530457e-02
3.187310695648193359e-01 -5.330929756164550781e-01 -1.772173494100570679e-02
5.265762805938720703e-01 -1.091223955154418945e-01 1.705688983201980591e-01
5.191875100135803223e-01 -1.104306951165199280e-01 1.881431490182876587e-01
5.140124559402465820e-01 -9.855106472969055176e-02 1.967492550611495972e-01
5.017408132553100586e-01 -9.990321844816207886e-02 2.138235867023468018e-01
-2.994571924209594727e-01 5.091469362378120422e-02 -3.380260467529296875e-01
-2.985486388206481934e-01 4.628262296319007874e-02 -3.200430870056152344e-01
-2.989675104618072510e-01 6.690336763858795166e-02 -3.230807483196258545e-01
-3.028235137462615967e-01 6.349628418684005737e-02 -3.030331432819366455e-01
2.018948346376419067e-01 3.940751254558563232e-01 2.928128540515899658e-01
1.935553699731826782e-01 3.865192830562591553e-01 3.124809265136718750e-01
1.811058521270751953e-01 3.999283313751220703e-01 3.021593689918518066e-01
1.723549664020538330e-01 3.927845358848571777e-01 3.230041563510894775e-01
3.343893885612487793e-01 -3.697724938392639160e-01 1.388353258371353149e-01
3.294663131237030029e-01 -3.719262480735778809e-01 1.615288406610488892e-01
3.238359391689300537e-01 -3.547707200050354004e-01 1.522922217845916748e-01
3.193374574184417725e-01 -3.559028506278991699e-01 1.739068031311035156e-01
3.011277616024017334e-01 8.867172151803970337e-02 4.256108105182647705e-01
2.832733094692230225e-01 8.707720041275024414e-02 4.388469159603118896e-01
2.909601032733917236e-01 1.109763607382774353e-01 4.348202049732208252e-01
2.754808664321899414e-01 1.070437580347061157e-01 4.538154006004333496e-01
7.561699748039245605e-01 -2.926573157310485840e-01 3.224163502454757690e-02
7.445268630981445312e-01 -2.931165397167205811e-01 4.884793609380722046e-02
7.494692206382751465e-01 -2.811436355113983154e-01 4.620666429400444031e-02
7.374700903892517090e-01 -2.818322479724884033e-01 6.258384883403778076e-02
2.277830243110656738e-02 -1.747630685567855835e-01 4.472664892673492432e-01
6.636559497565031052e-03 -1.881511956453323364e-01 4.524424076080322266e-01
3.837903961539268494e-03 -1.512732207775115967e-01 4.475135505199432373e-01
-1.112147793173789978e-02 -1.673977673053741455e-01 4.497405886650085449e-01
-7.419232279062271118e-02 3.612415194511413574e-01 -2.353486418724060059e-01
-7.827103883028030396e-02 3.692042529582977295e-01 -2.160072624683380127e-01
-9.005465358495712280e-02 3.758121430873870850e-01 -1.989594846963882446e-01
-9.454932808876037598e-02 3.839012086391448975e-01 -1.795415580272674561e-01
3.276939988136291504e-01 -5.101572275161743164e-01 -3.725553750991821289e-01
3.163559436798095703e-01 -5.225450992584228516e-01 -3.577782213687896729e-01
3.026914894580841064e-01 -5.026280283927917480e-01 -3.714981377124786377e-01
2.937075197696685791e-01 -5.131928920745849609e-01 -3.564703762531280518e-01
1.130293160676956177e-01 4.791416823863983154e-01 -4.929846152663230896e-02
1.164576932787895203e-01 4.855511486530303955e-01 -3.126942366361618042e-02
1.008473187685012817e-01 4.907143712043762207e-01 -2.328250929713249207e-02
1.039733663201332092e-01 4.963901638984680176e-01 -4.873335361480712891e-03
-2.836288884282112122e-02 4.911529123783111572e-01 4.949254542589187622e-02
-1.989879086613655090e-02 4.908808767795562744e-01 7.508914172649383545e-02
-3.660372272133827209e-02 4.959479868412017822e-01 7.367995381355285645e-02
-2.927574329078197479e-02 4.957301020622253418e-01 1.006023362278938293e-01
4.197118580341339111e-01 2.533908486366271973e-01 -1.028472408652305603e-01
4.344637393951416016e-01 2.553926110267639160e-01 -9.183259308338165283e-02
4.097167551517486572e-01 2.748016417026519775e-01 -1.029567644000053406e-01
4.253235161304473877e-01 2.768172025680541992e-01 -9.304535388946533203e-02
-2.301687449216842651e-01 -1.886453181505203247e-01 4.877298474311828613e-01
-2.195193320512771606e-01 -1.785780340433120728e-01 5.045645236968994141e-01
-2.290353924036026001e-01 -1.691819727420806885e-01 5.025836825370788574e-01
-2.187216132879257202e-01 -1.582500040531158447e-01 5.189417600631713867e-01
3.869341313838958740e-01 -5.378599166870117188e-01 -3.483818471431732178e-01
3.770139515399932861e-01 -5.525098443031311035e-01 -3.307128250598907471e-01
3.646359145641326904e-01 -5.265269875526428223e-01 -3.566146492958068848e-01
3.535195589065551758e-01 -5.400060415267944336e-01 -3.419893085956573486e-01
6.438367366790771484e-01 -8.062732964754104614e-02 7.707080245018005371e-02
6.436125040054321289e-01 -8.563893288373947144e-02 9.732341766357421875e-02
6.300659179687500000e-01 -7.541779428720474243e-02 9.249135851860046387e-02
6.331034302711486816e-01 -7.892455905675888062e-02 1.127108782529830933e-01
5.799695849418640137e-03 -2.972459197044372559e-01 -3.037893176078796387e-01
1.171814836561679840e-02 -2.987047135829925537e-01 -2.856708467006683350e-01
-9.150424972176551819e-03 -2.941128313541412354e-01 -2.915357947349548340e-01
-4.673208575695753098e-03 -2.972109913825988770e-01 -2.724642455577850342e-01
1.057924404740333557e-01 8.430710434913635254e-01 -2.746574878692626953e-01
1.133086532354354858e-01 8.464249372482299805e-01 -2.529503405094146729e-01
8.741259574890136719e-02 8.586518764495849609e-01 -2.604246437549591064e-01
9.545648843050003052e-02 8.600369095802307129e-01 -2.382226288318634033e-01
-3.714464008808135986e-01 -5.973017960786819458e-02 -3.695361316204071045e-01
-3.550098538398742676e-01 -6.151045113801956177e-02 -3.562946319580078125e-01
-3.641060590744018555e-01 -4.256418719887733459e-02 -3.659346997737884521e-01
-3.499859571456909180e-01 -4.276467859745025635e-02 -3.548885583877563477e-01
8.013823628425598145e-01 -3.328689932823181152e-01 -3.211415931582450867e-02
7.950469255447387695e-01 -3.345512747764587402e-01 -1.593028753995895386e-02
7.933519482612609863e-01 -3.218641579151153564e-01 -1.443061511963605881e-02
7.866401672363281250e-01 -3.234103620052337646e-01 1.895116642117500305e-03
6.501337289810180664e-01 1.817998141050338745e-01 -2.515967190265655518e-01
6.514382958412170410e-01 1.808252185583114624e-01 -2.286822944879531860e-01
6.397280097007751465e-01 1.982432454824447632e-01 -2.334346920251846313e-01
6.399312019348144531e-01 1.984201818704605103e-01 -2.103704214096069336e-01
1.234710738062858582e-01 -1.916386187076568604e-01 5.166838169097900391e-01
1.091109216213226318e-01 -1.893238425254821777e-01 5.283411145210266113e-01
1.185008808970451355e-01 -1.749949306249618530e-01 5.341771245002746582e-01
1.023512035608291626e-01 -1.736268103122711182e-01 5.451576709747314453e-01
4.509218335151672363e-01 -5.419763922691345215e-01 -3.613747656345367432e-02
4.574528336524963379e-01 -5.340861082077026367e-01 -1.522520557045936584e-02
4.438461959362030029e-01 -5.295906662940979004e-01 -3.178234677761793137e-03
4.487319290637969971e-01 -5.206096172332763672e-01 1.737510785460472107e-02
-6.604421138763427734e-02 -4.926657378673553467e-01 -3.829581737518310547e-01
-7.716888934373855591e-02 -5.078475475311279297e-01 -3.716468214988708496e-01
-9.313240647315979004e-02 -4.857011139392852783e-01 -3.804610371589660645e-01
-1.036589294672012329e-01 -5.003116130828857422e-01 -3.684712946414947510e-01
2.816787660121917725e-01 -5.405853390693664551e-01 -3.483024537563323975e-01
2.755620181560516357e-01 -5.492734313011169434e-01 -3.331950008869171143e-01
2.606772482395172119e-01 -5.448763966560363770e-01 -3.419779539108276367e-01
2.541416287422180176e-01 -5.523101687431335449e-01 -3.268594145774841309e-01
2.386733889579772949e-01 -5.509663224220275879e-01 -5.042571574449539185e-02
2.491186857223510742e-01 -5.399291515350341797e-01 -3.264508023858070374e-02
2.355655133724212646e-01 -5.329055190086364746e-01 -4.054006934165954590e-02
2.475279718637466431e-01 -5.225624442100524902e-01 -2.307004481554031372e-02
3.182643651962280273e-01 -5.349294543266296387e-01 -3.381512686610221863e-02
3.256999850273132324e-01 -5.272495746612548828e-01 -1.682985760271549225e-02
3.118757605552673340e-01 -5.213665962219238281e-01 -1.348981820046901703e-02
3.200294375419616699e-01 -5.127921104431152344e-01 4.199185408651828766e-03
4.844602942466735840e-01 -5.660919547080993652e-01 -1.088736802339553833e-01
4.899758994579315186e-01 -5.637046694755554199e-01 -8.752660453319549561e-02
4.742666780948638916e-01 -5.581188797950744629e-01 -8.077625185251235962e-02
4.804058074951171875e-01 -5.545048117637634277e-01 -5.924064293503761292e-02
-3.358404636383056641e-01 -7.972384802997112274e-03 4.575424194335937500e-01
-3.194856047630310059e-01 -3.265625797212123871e-03 4.765273928642272949e-01
-3.459010422229766846e-01 1.763551123440265656e-02 4.539005756378173828e-01
-3.299168944358825684e-01 2.148622460663318634e-02 4.757933020591735840e-01
6.795758605003356934e-01 -2.837389409542083740e-01 1.172778680920600891e-01
6.671230792999267578e-01 -2.847623229026794434e-01 1.339392066001892090e-01
6.756368279457092285e-01 -2.614831626415252686e-01 1.333355605602264404e-01
6.616753339767456055e-01 -2.629474699497222900e-01 1.504962742328643799e-01
3.519468009471893311e-01 -3.793620169162750244e-01 2.419499680399894714e-02
3.470302224159240723e-01 -3.840127289295196533e-01 4.771170765161514282e-02
3.525330722332000732e-01 -3.677388429641723633e-01 4.144498705863952637e-02
3.455388545989990234e-01 -3.727197051048278809e-01 6.513297557830810547e-02
2.770041823387145996e-01 -4.940267205238342285e-01 -3.809210844337940216e-03
2.888751626014709473e-01 -4.885148108005523682e-01 1.295996084809303284e-02
2.819638550281524658e-01 -4.739097654819488525e-01 -1.215211581438779831e-03
2.944769263267517090e-01 -4.703924059867858887e-01 1.614145003259181976e-02
7.395686507225036621e-01 -1.701917946338653564e-01 -3.759837746620178223e-01
7.623884677886962891e-01 -1.688905209302902222e-01 -3.554801344871520996e-01
7.437535524368286133e-01 -1.433540433645248413e-01 -3.621894121170043945e-01
7.660248875617980957e-01 -1.400960385799407959e-01 -3.434149622917175293e-01
-2.211720049381256104e-01 -2.665163576602935791e-01 4.299600422382354736e-01
-2.145316302776336670e-01 -2.564564943313598633e-01 4.464532732963562012e-01
-2.394215017557144165e-01 -2.517480850219726562e-01 4.401625096797943115e-01
-2.311962842941284180e-01 -2.415449768304824829e-01 4.572044909000396729e-01
-4.931555092334747314e-01 -1.179064065217971802e-01 1.954959481954574585e-01
-4.845970869064331055e-01 -1.156412810087203979e-01 2.177614867687225342e-01
-5.063700079917907715e-01 -1.060343608260154724e-01 2.142432481050491333e-01
-4.967124164104461670e-01 -1.043222099542617798e-01 2.388353496789932251e-01
-1.932676136493682861e-01 -2.598219513893127441e-01 4.540122449398040771e-01
-1.853360086679458618e-01 -2.477458268404006958e-01 4.713443815708160400e-01
-2.022810727357864380e-01 -2.373656034469604492e-01 4.692722856998443604e-01
-1.938417404890060425e-01 -2.259329408407211304e-01 4.863873422145843506e-01
9.702765196561813354e-02 -3.969976007938385010e-01 -3.968184888362884521e-01
8.153856545686721802e-02 -4.090170860290527344e-01 -3.926300704479217529e-01
8.637259155511856079e-02 -3.796009719371795654e-01 -3.943199813365936279e-01
6.828851252794265747e-02 -3.903745412826538086e-01 -3.908565938472747803e-01
4.082368910312652588e-01 -2.566180005669593811e-02 3.270319700241088867e-01
4.072500467300415039e-01 -2.208134345710277557e-02 3.423410654067993164e-01
3.902647495269775391e-01 -1.459909975528717041e-02 3.397617936134338379e-01
3.926152586936950684e-01 -1.036744192242622375e-02 3.583084046840667725e-01
7.377983331680297852e-01 -3.090226650238037109e-01 -3.710142076015472412e-01
7.517300248146057129e-01 -3.145913779735565186e-01 -3.638042509555816650e-01
7.370744943618774414e-01 -2.806377410888671875e-01 -3.731050789356231689e-01
7.439740300178527832e-01 -2.924741804599761963e-01 -3.663570582866668701e-01
-2.425112277269363403e-01 -3.342685699462890625e-01 3.404442667961120605e-01
-2.375683188438415527e-01 -3.302319347858428955e-01 3.613520860671997070e-01
-2.455361038446426392e-01 -3.204228579998016357e-01 3.611407279968261719e-01
-2.404527217149734497e-01 -3.154812157154083252e-01 3.805423676967620850e-01
2.545155584812164307e-01 2.256924659013748169e-01 -3.728584647178649902e-01
2.430674582719802856e-01 2.180647552013397217e-01 -3.568947613239288330e-01
2.380329817533493042e-01 2.383801788091659546e-01 -3.674546182155609131e-01
2.283325344324111938e-01 2.300509959459304810e-01 -3.498667478561401367e-01
4.262487590312957764e-01 -5.942851901054382324e-01 -1.954946070909500122e-01
4.341597259044647217e-01 -5.920436382293701172e-01 -1.731536388397216797e-01
4.079767167568206787e-01 -5.924034118652343750e-01 -1.710729449987411499e-01
4.158872663974761963e-01 -5.899439454078674316e-01 -1.490062624216079712e-01
1.963301002979278564e-01 -6.064507365226745605e-01 -2.458300292491912842e-01
2.041281908750534058e-01 -6.059188842773437500e-01 -2.214450389146804810e-01
1.831021308898925781e-01 -6.052578687667846680e-01 -2.304631322622299194e-01
1.912964880466461182e-01 -6.034702658653259277e-01 -2.045792639255523682e-01
-4.179088771343231201e-02 -6.091052293777465820e-01 -1.611035764217376709e-01
-4.146521538496017456e-02 -6.078506112098693848e-01 -1.366356015205383301e-01
-6.051582098007202148e-02 -5.961061120033264160e-01 -1.413109600543975830e-01
-5.686865001916885376e-02 -5.929279923439025879e-01 -1.138471588492393494e-01
6.520624458789825439e-02 7.501475811004638672e-01 9.420506656169891357e-03
5.963942781090736389e-02 7.396430969238281250e-01 3.198585659265518188e-02
4.102807492017745972e-02 7.538802027702331543e-01 2.185909263789653778e-02
3.526674583554267883e-02 7.423656582832336426e-01 4.298848286271095276e-02
3.131189942359924316e-01 -3.010947108268737793e-01 -1.415631920099258423e-01
3.229749500751495361e-01 -3.086858391761779785e-01 -1.172381415963172913e-01
3.297242522239685059e-01 -2.854558229446411133e-01 -1.272109299898147583e-01
3.365418612957000732e-01 -2.929193675518035889e-01 -1.038809493184089661e-01
-1.608784645795822144e-01 -3.504049479961395264e-01 -1.943814903497695923e-01
-1.689817905426025391e-01 -3.579721748828887939e-01 -1.759523302316665649e-01
-1.796722859144210815e-01 -3.474717736244201660e-01 -1.828209310770034790e-01
-1.875537633895874023e-01 -3.547105491161346436e-01 -1.637248247861862183e-01
-2.442245185375213623e-01 4.203386604785919189e-02 5.281540751457214355e-01
-2.213668078184127808e-01 4.242892935872077942e-02 5.437715649604797363e-01
-2.464618831872940063e-01 6.706070899963378906e-02 5.226870775222778320e-01
-2.244593948125839233e-01 6.695736199617385864e-02 5.390719175338745117e-01
-2.459857985377311707e-02 6.403322815895080566e-01 1.533261388540267944e-01
-3.097900375723838806e-02 6.236324310302734375e-01 1.727415472269058228e-01
-4.896797239780426025e-02 6.379762291908264160e-01 1.569897681474685669e-01
-5.549031868577003479e-02 6.204762458801269531e-01 1.749222874641418457e-01
7.527346014976501465e-01 -2.335909605026245117e-01 4.802076518535614014e-02
7.424154281616210938e-01 -2.340904325246810913e-01 6.471362709999084473e-02
7.367600798606872559e-01 -2.200269401073455811e-01 6.188585981726646423e-02
7.265240550041198730e-01 -2.208891361951828003e-01 7.885681837797164917e-02
6.075476408004760742e-01 -5.213449001312255859e-01 -4.917601868510246277e-02
6.024696230888366699e-01 -5.152004361152648926e-01 -2.720082923769950867e-02
5.968855619430541992e-01 -5.057734847068786621e-01 -1.241040602326393127e-02
5.927742719650268555e-01 -4.991089701652526855e-01 8.378760889172554016e-03
5.997084975242614746e-01 -4.614833593368530273e-01 -3.696940541267395020e-01
5.910801291465759277e-01 -4.752593338489532471e-01 -3.620098829269409180e-01
5.826314687728881836e-01 -4.535803794860839844e-01 -3.721093535423278809e-01
5.737667679786682129e-01 -4.668717086315155029e-01 -3.647734224796295166e-01
-2.668952103704214096e-03 4.128533899784088135e-01 2.398403137922286987e-01
-7.356850430369377136e-03 4.032163023948669434e-01 2.569704353809356689e-01
-2.197425998747348785e-02 4.100610017776489258e-01 2.487031072378158569e-01
-2.639107964932918549e-02 4.001181125640869141e-01 2.666355967521667480e-01
-7.311561703681945801e-02 -3.287132382392883301e-01 -2.377365231513977051e-01
-7.437198609113693237e-02 -3.389008939266204834e-01 -2.155075818300247192e-01
-9.544508159160614014e-02 -3.268769383430480957e-01 -2.322458326816558838e-01
-9.674474596977233887e-02 -3.372716605663299561e-01 -2.097103595733642578e-01
-1.157703399658203125e-01 2.314078658819198608e-01 5.001330375671386719e-01
-1.230460628867149353e-01 2.167641222476959229e-01 5.162582397460937500e-01
-1.253917515277862549e-01 2.466174215078353882e-01 4.904970228672027588e-01
-1.300054639577865601e-01 2.328629046678543091e-01 5.063667893409729004e-01
-2.038596943020820618e-02 4.047935009002685547e-01 3.822298049926757812e-01
-2.720159478485584259e-02 3.919256627559661865e-01 3.967032730579376221e-01
-4.381538927555084229e-02 4.079810082912445068e-01 3.788666129112243652e-01
-4.813186451792716980e-02 3.933503627777099609e-01 3.944271802902221680e-01
-1.554843783378601074e-01 5.611310005187988281e-01 1.847502440214157104e-01
-1.563895046710968018e-01 5.492275953292846680e-01 1.999671608209609985e-01
-1.575932651758193970e-01 5.722606778144836426e-01 1.802556365728378296e-01
-1.583700627088546753e-01 5.600310564041137695e-01 1.954818964004516602e-01
4.354493692517280579e-02 -5.535218119621276855e-01 -3.426595926284790039e-01
3.791609406471252441e-02 -5.638449192047119141e-01 -3.257952034473419189e-01
2.333233878016471863e-02 -5.424269437789916992e-01 -3.402274549007415771e-01
1.678700372576713562e-02 -5.566289424896240234e-01 -3.261670768260955811e-01
-4.826052784919738770e-01 -3.691153824329376221e-01 2.019126862287521362e-01
-4.700554013252258301e-01 -3.646095991134643555e-01 2.275003045797348022e-01
-4.929063022136688232e-01 -3.548729121685028076e-01 2.234000563621520996e-01
-4.797983765602111816e-01 -3.503382802009582520e-01 2.495530545711517334e-01
-1.508611440658569336e-01 7.545790672302246094e-01 -3.289021551609039307e-01
-1.658027768135070801e-01 7.513269782066345215e-01 -3.095320165157318115e-01
-1.594584435224533081e-01 7.687423825263977051e-01 -3.063433766365051270e-01
-1.730033159255981445e-01 7.657189965248107910e-01 -2.861289381980895996e-01
1.094884648919105530e-01 4.711312353610992432e-01 2.898319363594055176e-01
1.036816537380218506e-01 4.630267024040222168e-01 3.113374710083007812e-01
9.580045193433761597e-02 4.871819913387298584e-01 2.966570854187011719e-01
8.904819190502166748e-02 4.782681763172149658e-01 3.170350193977355957e-01
1.685918420553207397e-01 6.642569899559020996e-01 3.766056895256042480e-02
1.658794730901718140e-01 6.559167504310607910e-01 6.351520866155624390e-02
1.520808786153793335e-01 6.706676483154296875e-01 5.668480321764945984e-02
1.488672792911529541e-01 6.623340845108032227e-01 8.233177661895751953e-02
3.812978863716125488e-01 -3.288595676422119141e-01 6.285430490970611572e-02
3.727907836437225342e-01 -3.347805142402648926e-01 8.759434521198272705e-02
3.790561556816101074e-01 -3.165656328201293945e-01 8.418956398963928223e-02
3.696341216564178467e-01 -3.221483826637268066e-01 1.089139655232429504e-01
5.456430315971374512e-01 -2.065903693437576294e-01 -4.010447263717651367e-01
5.329413414001464844e-01 -2.194501608610153198e-01 -3.984639644622802734e-01
5.347179174423217773e-01 -1.903406381607055664e-01 -3.974355161190032959e-01
5.214216113090515137e-01 -2.020654678344726562e-01 -3.947170674800872803e-01
-5.167489051818847656e-01 -1.328382939100265503e-01 3.056850135326385498e-01
-5.025392770767211914e-01 -1.301641762256622314e-01 3.326300084590911865e-01
-5.175508260726928711e-01 -1.059647798538208008e-01 3.135991096496582031e-01
-5.052957534790039062e-01 -1.044984236359596252e-01 3.385360538959503174e-01
4.287345707416534424e-02 1.210298091173171997e-01 4.465768337249755859e-01
2.924165502190589905e-02 1.025928184390068054e-01 4.542128145694732666e-01
2.134690061211585999e-02 1.415931135416030884e-01 4.411515295505523682e-01
8.280129171907901764e-03 1.227466836571693420e-01 4.504460692405700684e-01
3.301759958267211914e-01 -2.426435798406600952e-01 -3.768753409385681152e-01
3.152213692665100098e-01 -2.438709735870361328e-01 -3.688696324825286865e-01
3.226044178009033203e-01 -2.289523035287857056e-01 -3.698122501373291016e-01
3.086344897747039795e-01 -2.335662543773651123e-01 -3.576174378395080566e-01
-4.167732894420623779e-01 8.248332142829895020e-02 -1.575768291950225830e-01
-4.288967549800872803e-01 8.112127333879470825e-02 -1.410956084728240967e-01
-4.229149222373962402e-01 1.028699055314064026e-01 -1.460945457220077515e-01
-4.351750016212463379e-01 1.018054410815238953e-01 -1.297136098146438599e-01
-6.862840056419372559e-01 -5.468835234642028809e-01 -2.611640393733978271e-01
-6.875284910202026367e-01 -5.485353469848632812e-01 -2.334204167127609253e-01
-7.083112597465515137e-01 -5.402212738990783691e-01 -2.359393835067749023e-01
-7.097759842872619629e-01 -5.404857993125915527e-01 -2.068880349397659302e-01
5.923810601234436035e-01 2.717379033565521240e-01 -2.270193248987197876e-01
5.933843255043029785e-01 2.720394134521484375e-01 -2.035570889711380005e-01
5.845881700515747070e-01 2.841507196426391602e-01 -2.081534564495086670e-01
5.843387246131896973e-01 2.837054133415222168e-01 -1.836951375007629395e-01
2.367207258939743042e-01 5.131365656852722168e-01 -3.918755054473876953e-01
2.270715534687042236e-01 5.026228427886962891e-01 -3.909539878368377686e-01
2.251195907592773438e-01 5.273554921150207520e-01 -3.862289488315582275e-01
2.190641760826110840e-01 5.195903182029724121e-01 -3.846392035484313965e-01
-2.149300724267959595e-01 -4.507611095905303955e-01 -3.882603347301483154e-01
-2.263367325067520142e-01 -4.708841145038604736e-01 -3.819338083267211914e-01
-2.391777932643890381e-01 -4.326925277709960938e-01 -3.931165635585784912e-01
-2.512565851211547852e-01 -4.524488151073455811e-01 -3.866851329803466797e-01
-1.398603022098541260e-01 6.197980046272277832e-01 1.307042539119720459e-01
-1.431807428598403931e-01 6.063998937606811523e-01 1.482809185981750488e-01
-1.451520472764968872e-01 6.244289875030517578e-01 1.314299851655960083e-01
-1.481026560068130493e-01 6.110629439353942871e-01 1.496041417121887207e-01
-6.906735152006149292e-02 4.685971140861511230e-01 -5.678841844201087952e-02
-6.134783476591110229e-02 4.727222323417663574e-01 -3.652375191450119019e-02
-7.671013474464416504e-02 4.769130945205688477e-01 -3.373608738183975220e-02
-6.527321040630340576e-02 4.807597696781158447e-01 -1.380114816129207611e-02
5.048219561576843262e-01 -5.432237386703491211e-01 -4.900844022631645203e-02
5.079205632209777832e-01 -5.355489850044250488e-01 -2.700062096118927002e-02
4.986335039138793945e-01 -5.293556451797485352e-01 -1.846583746373653412e-02
5.007638335227966309e-01 -5.210552215576171875e-01 3.502347506582736969e-03
-1.517756432294845581e-01 3.443793356418609619e-01 -3.846233189105987549e-01
-1.618668437004089355e-01 3.239526748657226562e-01 -3.800346851348876953e-01
-1.673101037740707397e-01 3.605793118476867676e-01 -3.891555666923522949e-01
-1.782166659832000732e-01 3.411242067813873291e-01 -3.856537938117980957e-01
-4.197429418563842773e-01 -3.328520953655242920e-01 2.857749760150909424e-01
-4.078881144523620605e-01 -3.244346976280212402e-01 3.078311383724212646e-01
-4.269362390041351318e-01 -3.077698945999145508e-01 2.989205121994018555e-01
-4.146041274070739746e-01 -2.982680797576904297e-01 3.215990662574768066e-01
1.904922872781753540e-01 -4.699997007846832275e-01 -3.891523480415344238e-01
1.782475113868713379e-01 -4.814617335796356201e-01 -3.772523999214172363e-01
1.716956049203872681e-01 -4.584549069404602051e-01 -3.884508907794952393e-01
1.596900671720504761e-01 -4.695634841918945312e-01 -3.777527809143066406e-01
1.663773208856582642e-01 -5.127252936363220215e-01 -3.758091926574707031e-01
1.538030803203582764e-01 -5.233072638511657715e-01 -3.612353205680847168e-01
1.508283466100692749e-01 -4.999354481697082520e-01 -3.735069930553436279e-01
1.384601294994354248e-01 -5.097665786743164062e-01 -3.605562746524810791e-01
8.344828337430953979e-02 1.946646273136138916e-01 4.138217866420745850e-01
7.167376577854156494e-02 1.782923638820648193e-01 4.256576299667358398e-01
6.552565097808837891e-02 2.049299776554107666e-01 4.132480323314666748e-01
5.363564193248748779e-02 1.887257397174835205e-01 4.248565435409545898e-01
-6.398594379425048828e-01 -5.221984386444091797e-01 -7.716107368469238281e-02
-6.381173133850097656e-01 -5.184922814369201660e-01 -5.685629695653915405e-02
-6.531996130943298340e-01 -5.136961340904235840e-01 -6.006158888339996338e-02
-6.508486270904541016e-01 -5.088116526603698730e-01 -3.950558602809906006e-02
3.655621409416198730e-01 1.446003280580043793e-02 3.589657843112945557e-01
3.623465597629547119e-01 1.462094206362962723e-02 3.800709545612335205e-01
3.589074611663818359e-01 2.654031850397586823e-02 3.753619194030761719e-01
3.511838912963867188e-01 2.526821754872798920e-02 3.940518498420715332e-01
-6.188502907752990723e-01 -1.552610695362091064e-01 -3.889592289924621582e-01
-6.371499896049499512e-01 -1.614722311496734619e-01 -3.823321759700775146e-01
-6.325790882110595703e-01 -1.408463418483734131e-01 -3.840691447257995605e-01
-6.516467928886413574e-01 -1.440547406673431396e-01 -3.766192197799682617e-01
6.662091016769409180e-01 -7.376164197921752930e-02 4.073198884725570679e-02
6.627627611160278320e-01 -7.828382402658462524e-02 5.863750353455543518e-02
6.483060717582702637e-01 -6.949514150619506836e-02 5.007362365722656250e-02
6.448706388473510742e-01 -7.490023970603942871e-02 6.958600878715515137e-02
-4.327978193759918213e-01 -6.077025458216667175e-02 3.016013801097869873e-01
-4.237153530120849609e-01 -6.033558025956153870e-02 3.253872990608215332e-01
-4.341873228549957275e-01 -4.579177126288414001e-02 3.176453411579132080e-01
-4.256572127342224121e-01 -4.565857350826263428e-02 3.415520489215850830e-01
5.692198872566223145e-01 1.405336856842041016e-01 -7.813239097595214844e-02
5.615787506103515625e-01 1.209169477224349976e-01 -7.000119984149932861e-02
5.496176481246948242e-01 1.555509120225906372e-01 -7.720342278480529785e-02
5.427291393280029297e-01 1.391562223434448242e-01 -6.983391940593719482e-02
-1.503173857927322388e-01 -1.661089360713958740e-01 4.235156178474426270e-01
-1.355867832899093628e-01 -1.675992757081985474e-01 4.313463568687438965e-01
-1.585887819528579712e-01 -1.480591893196105957e-01 4.284782707691192627e-01
-1.459670066833496094e-01 -1.500999331474304199e-01 4.360886812210083008e-01
-1.627348065376281738e-01 -3.123654425144195557e-01 -2.314758300781250000e-01
-1.682509928941726685e-01 -3.207092285156250000e-01 -2.125612646341323853e-01
-1.791442334651947021e-01 -3.089758753776550293e-01 -2.192157953977584839e-01
-1.847327798604965210e-01 -3.172752559185028076e-01 -2.004114985466003418e-01
3.262984752655029297e-01 1.062718406319618225e-01 -2.826611101627349854e-01
3.332160413265228271e-01 1.080213040113449097e-01 -2.568064033985137939e-01
3.202432394027709961e-01 1.221792101860046387e-01 -2.650719881057739258e-01
3.288695216178894043e-01 1.247240602970123291e-01 -2.405451834201812744e-01
-4.228873848915100098e-01 -2.630644738674163818e-01 3.339278101921081543e-01
-4.133573770523071289e-01 -2.560560107231140137e-01 3.562462925910949707e-01
-4.279186725616455078e-01 -2.439625561237335205e-01 3.505799472332000732e-01
-4.185840189456939697e-01 -2.373867034912109375e-01 3.734870553016662598e-01
-7.704262137413024902e-01 -1.731333881616592407e-01 1.077537704259157181e-02
-7.608410120010375977e-01 -1.782885342836380005e-01 3.828127682209014893e-02
-7.641084194183349609e-01 -1.545567959547042847e-01 2.448218502104282379e-02
-7.544003725051879883e-01 -1.589937657117843628e-01 5.353400111198425293e-02
-1.430508941411972046e-01 -3.237925171852111816e-01 -3.868676126003265381e-01
-1.665237993001937866e-01 -3.292029201984405518e-01 -3.844591081142425537e-01
-1.578365564346313477e-01 -2.981012463569641113e-01 -3.788814544677734375e-01
-1.831903457641601562e-01 -3.016826808452606201e-01 -3.746878504753112793e-01
-2.871073484420776367e-01 -5.878673195838928223e-01 -2.929951250553131104e-01
-2.870656847953796387e-01 -5.941331982612609863e-01 -2.685053348541259766e-01
-3.132954239845275879e-01 -5.903207659721374512e-01 -2.799821197986602783e-01
-3.143887221813201904e-01 -5.970612764358520508e-01 -2.546530067920684814e-01
-3.661435544490814209e-01 -4.529451429843902588e-01 1.039662286639213562e-01
-3.680601418018341064e-01 -4.508056938648223877e-01 1.237791553139686584e-01
-3.761793076992034912e-01 -4.433579146862030029e-01 1.273265331983566284e-01
-3.747478723526000977e-01 -4.411566853523254395e-01 1.475322246551513672e-01
4.460225403308868408e-01 1.431523263454437256e-01 -1.231121718883514404e-01
4.605967998504638672e-01 1.528755128383636475e-01 -1.078907623887062073e-01
4.404450654983520508e-01 1.628627330064773560e-01 -1.192450597882270813e-01
4.533099830150604248e-01 1.738499104976654053e-01 -1.038924455642700195e-01
-4.769094884395599365e-01 -8.540321886539459229e-02 3.454755544662475586e-01
-4.678869545459747314e-01 -8.524657785892486572e-02 3.654001951217651367e-01
-4.754000008106231689e-01 -6.779412925243377686e-02 3.550627827644348145e-01
-4.666725099086761475e-01 -6.779021024703979492e-02 3.752442300319671631e-01
-5.872597098350524902e-01 -8.035644888877868652e-02 -3.891613483428955078e-01
-6.053660511970520020e-01 -8.332602679729461670e-02 -3.838361501693725586e-01
-5.920934677124023438e-01 -5.588388815522193909e-02 -3.805479705333709717e-01
-6.107891201972961426e-01 -5.908589810132980347e-02 -3.750410079956054688e-01
-2.431369721889495850e-01 -3.474571928381919861e-02 5.360198616981506348e-01
-2.177627533674240112e-01 -2.908716723322868347e-02 5.517438650131225586e-01
-2.468874305486679077e-01 -8.468766696751117706e-03 5.374327898025512695e-01
-2.221885770559310913e-01 -6.898180581629276276e-03 5.519374012947082520e-01
-3.074405789375305176e-01 -3.990775942802429199e-01 -3.999040424823760986e-01
-3.199062943458557129e-01 -4.148325026035308838e-01 -3.930870294570922852e-01
-3.273000121116638184e-01 -3.830035924911499023e-01 -3.989508152008056641e-01
-3.396675884723663330e-01 -3.987587392330169678e-01 -3.930458426475524902e-01
4.696696996688842773e-01 -5.750855207443237305e-01 -2.761298716068267822e-01
4.720302224159240723e-01 -5.821559429168701172e-01 -2.507188022136688232e-01
4.426850378513336182e-01 -5.822683572769165039e-01 -2.686406373977661133e-01
4.460778534412384033e-01 -5.878078937530517578e-01 -2.445435672998428345e-01
-3.906377851963043213e-01 -2.006338238716125488e-01 2.366391718387603760e-01
-3.810583949089050293e-01 -1.945379972457885742e-01 2.595193386077880859e-01
-3.921808600425720215e-01 -1.808239072561264038e-01 2.566790878772735596e-01
-3.831148445606231689e-01 -1.745598614215850830e-01 2.789094150066375732e-01
3.500558137893676758e-01 -5.283936262130737305e-01 -2.020906656980514526e-02
3.574340641498565674e-01 -5.203454494476318359e-01 -3.218369558453559875e-03
3.374740183353424072e-01 -5.154016017913818359e-01 1.674903091043233871e-03
3.447698652744293213e-01 -5.067924857139587402e-01 1.974680833518505096e-02
1.576136946678161621e-01 -3.068200349807739258e-01 4.022931158542633057e-01
1.646008491516113281e-01 -2.960893809795379639e-01 4.220587909221649170e-01
1.506381928920745850e-01 -2.860142588615417480e-01 4.282655417919158936e-01
1.577141582965850830e-01 -2.752464711666107178e-01 4.492198228836059570e-01
-6.643718481063842773e-01 -7.490669190883636475e-02 -3.646809756755828857e-01
-6.832686662673950195e-01 -7.361042499542236328e-02 -3.550594151020050049e-01
-6.668770313262939453e-01 -5.689454451203346252e-02 -3.534781038761138916e-01
-6.829135417938232422e-01 -5.629959329962730408e-02 -3.422434628009796143e-01
2.530297338962554932e-01 1.432135794311761856e-02 4.056248664855957031e-01
2.353332042694091797e-01 1.545458193868398666e-02 4.154484570026397705e-01
2.361650913953781128e-01 3.373010456562042236e-02 4.166544675827026367e-01
2.184183597564697266e-01 3.232261911034584045e-02 4.264512956142425537e-01
6.850259900093078613e-01 1.410008072853088379e-01 -2.328365296125411987e-01
6.866824030876159668e-01 1.393026113510131836e-01 -2.104046344757080078e-01
6.747083663940429688e-01 1.536795198917388916e-01 -2.166616618633270264e-01
6.755523681640625000e-01 1.520476639270782471e-01 -1.942417472600936890e-01
6.903544068336486816e-01 -2.517054677009582520e-01 -3.887786865234375000e-01
6.774459481239318848e-01 -2.780270278453826904e-01 -3.877066373825073242e-01
6.751096248626708984e-01 -2.318553924560546875e-01 -3.906602561473846436e-01
6.614939570426940918e-01 -2.572425901889801025e-01 -3.888374865055084229e-01
1.596691608428955078e-01 -2.175257056951522827e-01 4.899306297302246094e-01
1.459903419017791748e-01 -2.147605568170547485e-01 4.999814331531524658e-01
1.525891423225402832e-01 -1.998228430747985840e-01 5.082038044929504395e-01
1.390839964151382446e-01 -1.975433677434921265e-01 5.187398195266723633e-01
-5.389574170112609863e-01 2.227056473493576050e-01 -3.008023798465728760e-01
-5.469600558280944824e-01 2.215333580970764160e-01 -2.796907126903533936e-01
-5.457940697669982910e-01 2.365810871124267578e-01 -2.772974669933319092e-01
-5.542135834693908691e-01 2.348556220531463623e-01 -2.560317218303680420e-01
-3.126932978630065918e-01 -1.360771339386701584e-02 -3.149630725383758545e-01
-3.176367282867431641e-01 -1.672918349504470825e-02 -2.949759364128112793e-01
-3.176849484443664551e-01 8.073627250269055367e-04 -3.002202808856964111e-01
-3.254178762435913086e-01 -2.573894802480936050e-03 -2.796190083026885986e-01
3.330236077308654785e-01 -2.384423911571502686e-01 2.530179917812347412e-01
3.196808993816375732e-01 -2.364049255847930908e-01 2.718105912208557129e-01
3.334971964359283447e-01 -2.182240039110183716e-01 2.722222208976745605e-01
3.181274831295013428e-01 -2.164811044931411743e-01 2.903116941452026367e-01
6.268362998962402344e-01 -2.826910316944122314e-01 1.627562046051025391e-01
6.108749508857727051e-01 -2.849552929401397705e-01 1.809648275375366211e-01
6.182367205619812012e-01 -2.657279372215270996e-01 1.766778230667114258e-01
6.021165847778320312e-01 -2.675907611846923828e-01 1.945404112339019775e-01
-7.471294403076171875e-01 -9.077996015548706055e-02 -3.056131005287170410e-01
-7.563523650169372559e-01 -9.120476990938186646e-02 -2.884757518768310547e-01
-7.536577582359313965e-01 -7.791402935981750488e-02 -2.879587411880493164e-01
-7.624061703681945801e-01 -7.883226126432418823e-02 -2.702291011810302734e-01
1.294171810150146484e-01 6.269878745079040527e-01 -3.889188468456268311e-01
1.169187352061271667e-01 6.083643436431884766e-01 -3.887156546115875244e-01
1.170794144272804260e-01 6.465283632278442383e-01 -3.862309753894805908e-01
1.053843721747398376e-01 6.309582591056823730e-01 -3.856935799121856689e-01
-2.370670139789581299e-01 2.201056331396102905e-01 -2.691528797149658203e-01
-2.479376345872879028e-01 2.194790095090866089e-01 -2.467714995145797729e-01
-2.366522252559661865e-01 2.402000427246093750e-01 -2.561117708683013916e-01
-2.495713233947753906e-01 2.390562444925308228e-01 -2.342124730348587036e-01
4.726710319519042969e-01 4.351049661636352539e-01 -1.836369782686233521e-01
4.712547957897186279e-01 4.330623745918273926e-01 -1.559921056032180786e-01
4.594419002532958984e-01 4.452921450138092041e-01 -1.617324948310852051e-01
4.568191766738891602e-01 4.429816305637359619e-01 -1.333886831998825073e-01
-1.185701042413711548e-01 4.525991678237915039e-01 -3.942327499389648438e-01
-1.312430649995803833e-01 4.369506239891052246e-01 -3.925206065177917480e-01
-1.360497027635574341e-01 4.711985588073730469e-01 -3.939966261386871338e-01
-1.490005403757095337e-01 4.551637470722198486e-01 -3.924482762813568115e-01
-5.824380517005920410e-01 -8.064393699169158936e-02 1.249267905950546265e-01
-5.740675926208496094e-01 -8.569260686635971069e-02 1.476279646158218384e-01
-5.901176333427429199e-01 -7.013615965843200684e-02 1.418096572160720825e-01
-5.817029476165771484e-01 -7.800006866455078125e-02 1.631018966436386108e-01
-6.661614775657653809e-01 -3.004404306411743164e-01 -3.910956084728240967e-01
-6.791458129882812500e-01 -3.067656457424163818e-01 -3.806747794151306152e-01
-6.762123703956604004e-01 -2.878217995166778564e-01 -3.830657601356506348e-01
-6.897341012954711914e-01 -2.938210964202880859e-01 -3.713616132736206055e-01
-7.499415874481201172e-01 -4.847208559513092041e-01 -9.278295934200286865e-02
-7.424024939537048340e-01 -4.792132079601287842e-01 -6.637933105230331421e-02
-7.568490505218505859e-01 -4.668577313423156738e-01 -7.322735339403152466e-02
-7.493038177490234375e-01 -4.599702358245849609e-01 -4.813451319932937622e-02
-4.017155468463897705e-01 2.110932320356369019e-01 -3.937917351722717285e-01
-4.223555624485015869e-01 2.105098962783813477e-01 -3.799363970756530762e-01
-4.183894097805023193e-01 2.265476882457733154e-01 -3.822949826717376709e-01
-4.370152652263641357e-01 2.249977737665176392e-01 -3.663753867149353027e-01
1.139861047267913818e-01 5.578204393386840820e-01 2.018207609653472900e-01
1.093460544943809509e-01 5.477097034454345703e-01 2.252016663551330566e-01
9.037090092897415161e-02 5.661206841468811035e-01 2.142194509506225586e-01
8.510926365852355957e-02 5.548434257507324219e-01 2.372304648160934448e-01
6.582561731338500977e-01 -5.365824699401855469e-01 -2.990722954273223877e-01
6.606696248054504395e-01 -5.441452264785766602e-01 -2.792162001132965088e-01
6.413576006889343262e-01 -5.408540368080139160e-01 -2.788863182067871094e-01
6.476268172264099121e-01 -5.440467000007629395e-01 -2.571172118186950684e-01
-4.223684668540954590e-01 -3.004529476165771484e-01 -3.939592838287353516e-01
-4.338883161544799805e-01 -3.166848719120025635e-01 -3.929575383663177490e-01
-4.363240599632263184e-01 -2.872613966464996338e-01 -3.895155191421508789e-01
-4.481307268142700195e-01 -3.038651943206787109e-01 -3.889230787754058838e-01
-2.343711256980895996e-01 5.842076539993286133e-01 1.717258244752883911e-02
-2.279582172632217407e-01 5.793731212615966797e-01 3.950486332178115845e-02
-2.256854027509689331e-01 5.970911979675292969e-01 3.073031455278396606e-02
-2.194235622882843018e-01 5.919078588485717773e-01 5.311269313097000122e-02
-5.682869553565979004e-01 -7.199409604072570801e-02 2.168070375919342041e-01
-5.579636096954345703e-01 -7.604788988828659058e-02 2.428231537342071533e-01
-5.747853517532348633e-01 -5.803800374269485474e-02 2.359583973884582520e-01
-5.638173222541809082e-01 -6.171550601720809937e-02 2.625270485877990723e-01
-5.636940598487854004e-01 -5.704343914985656738e-01 -1.431630849838256836e-01
-5.618876218795776367e-01 -5.691819787025451660e-01 -1.215158551931381226e-01
-5.753753185272216797e-01 -5.648590326309204102e-01 -1.207761690020561218e-01
-5.735117793083190918e-01 -5.629018545150756836e-01 -9.884539246559143066e-02
-4.874472916126251221e-01 4.292540252208709717e-03 -3.959267735481262207e-01
-5.072958469390869141e-01 -4.812730476260185242e-03 -3.928923010826110840e-01
-5.079769492149353027e-01 1.965112797915935516e-02 -3.899355232715606689e-01
-5.284910798072814941e-01 1.145231910049915314e-02 -3.862381875514984131e-01
-3.071304410696029663e-03 -2.927804291248321533e-01 -3.432360291481018066e-01
6.077621597796678543e-03 -2.889391779899597168e-01 -3.258219957351684570e-01
-1.251088455319404602e-02 -2.873224318027496338e-01 -3.264438807964324951e-01
-5.244753323495388031e-03 -2.851330935955047607e-01 -3.080784380435943604e-01
1.931256502866744995e-01 -2.056760042905807495e-01 4.905244410037994385e-01
1.789387166500091553e-01 -2.037669420242309570e-01 5.009019374847412109e-01
1.846011579036712646e-01 -1.878388822078704834e-01 5.088540911674499512e-01
1.699870228767395020e-01 -1.866883337497711182e-01 5.194888114929199219e-01
-5.450674891471862793e-01 -5.768973752856254578e-02 -3.928623497486114502e-01
-5.614924430847167969e-01 -6.675006449222564697e-02 -3.908772170543670654e-01
-5.501725673675537109e-01 -3.890110552310943604e-02 -3.868828117847442627e-01
-5.688544511795043945e-01 -4.613461345434188843e-02 -3.834369778633117676e-01
-3.208356797695159912e-01 -3.626160025596618652e-01 2.879339158535003662e-01
-3.169348537921905518e-01 -3.700984716415405273e-01 3.114695250988006592e-01
-3.163874745368957520e-01 -3.486467897891998291e-01 3.039034307003021240e-01
-3.118171095848083496e-01 -3.531123101711273193e-01 3.264139890670776367e-01
3.119459375739097595e-02 -1.305530220270156860e-01 4.562556743621826172e-01
1.407512184232473373e-02 -1.373391896486282349e-01 4.605514407157897949e-01
1.949585415422916412e-02 -1.090958863496780396e-01 4.608751237392425537e-01
2.994781825691461563e-03 -1.174183413386344910e-01 4.646957814693450928e-01
-1.574284434318542480e-01 3.601904511451721191e-01 3.608938753604888916e-01
-1.605848371982574463e-01 3.476052880287170410e-01 3.799289762973785400e-01
-1.806967705488204956e-01 3.722383081912994385e-01 3.650145232677459717e-01
-1.835531890392303467e-01 3.604274392127990723e-01 3.867735862731933594e-01
2.836941182613372803e-01 -6.044279932975769043e-01 -1.855723261833190918e-01
2.941895723342895508e-01 -6.015095710754394531e-01 -1.607783883810043335e-01
2.724535465240478516e-01 -5.976141691207885742e-01 -1.623355001211166382e-01
2.839109897613525391e-01 -5.935584306716918945e-01 -1.385370194911956787e-01
-3.056092858314514160e-01 -2.953990101814270020e-01 -3.852011859416961670e-01
-3.106499314308166504e-01 -2.982117533683776855e-01 -3.783496618270874023e-01
-3.225518465042114258e-01 -2.811475396156311035e-01 -3.790318369865417480e-01
-3.173517286777496338e-01 -2.788713872432708740e-01 -3.682050406932830811e-01
6.652258634567260742e-01 1.385740786790847778e-01 -2.865152657032012939e-01
6.684590578079223633e-01 1.373105794191360474e-01 -2.640764713287353516e-01
6.576192975044250488e-01 1.530393958091735840e-01 -2.646895945072174072e-01
6.593372821807861328e-01 1.522297412157058716e-01 -2.422160357236862183e-01
8.241117000579833984e-02 1.354392617940902710e-01 5.712652802467346191e-01
6.983849406242370605e-02 1.169718354940414429e-01 5.823518037796020508e-01
6.050631403923034668e-02 1.543740034103393555e-01 5.667431354522705078e-01
5.017532408237457275e-02 1.355023831129074097e-01 5.776411890983581543e-01
-7.518564164638519287e-02 4.916132092475891113e-01 1.646403037011623383e-02
-6.425610929727554321e-02 4.930545389652252197e-01 3.853764012455940247e-02
-7.819312810897827148e-02 4.942448139190673828e-01 4.142363369464874268e-02
-6.920053809881210327e-02 4.957126677036285400e-01 6.562117487192153931e-02
9.386825561523437500e-02 -5.353727936744689941e-01 -7.394052296876907349e-02
9.415725618600845337e-02 -5.400006771087646484e-01 -6.315945088863372803e-02
7.594624906778335571e-02 -5.226381421089172363e-01 -7.238996773958206177e-02
7.316765189170837402e-02 -5.316708087921142578e-01 -6.267475336790084839e-02
-7.438037395477294922e-01 -2.716851234436035156e-01 6.915478408336639404e-02
-7.289995551109313965e-01 -2.699459493160247803e-01 8.926185965538024902e-02
-7.449576854705810547e-01 -2.522937059402465820e-01 7.740679383277893066e-02
-7.299782633781433105e-01 -2.515796422958374023e-01 9.793388843536376953e-02
4.725091159343719482e-01 1.050872951745986938e-01 -3.955716490745544434e-01
4.595639109611511230e-01 8.786057680845260620e-02 -3.919838964939117432e-01
4.545204043388366699e-01 1.294896602630615234e-01 -3.949879705905914307e-01
4.377506077289581299e-01 1.099920347332954407e-01 -3.922823369503021240e-01
4.604850709438323975e-01 -5.860035419464111328e-01 -1.570174545049667358e-01
4.675074219703674316e-01 -5.831078886985778809e-01 -1.360380351543426514e-01
4.498574435710906982e-01 -5.808998346328735352e-01 -1.273710578680038452e-01
4.571000039577484131e-01 -5.775114297866821289e-01 -1.055205985903739929e-01
-5.196242332458496094e-01 -5.474765300750732422e-01 -5.231161415576934814e-02
-5.123329758644104004e-01 -5.424225330352783203e-01 -3.080375492572784424e-02
-5.252610445022583008e-01 -5.347989797592163086e-01 -2.714590728282928467e-02
-5.181374549865722656e-01 -5.290498733520507812e-01 -6.530745886266231537e-03
9.123434871435165405e-02 4.853363335132598877e-01 -3.722682222723960876e-02
9.481252729892730713e-02 4.912039041519165039e-01 -1.896106265485286713e-02
8.152950555086135864e-02 4.970034956932067871e-01 -1.161723490804433823e-02
8.488166332244873047e-02 5.015873312950134277e-01 8.055632933974266052e-03
-2.055736780166625977e-01 3.885741829872131348e-01 -1.269170194864273071e-01
