-1.086450000000000055e-01 -3.579140000000000099e-01 7.044420000000000126e-01
1.333100000000000084e-02 2.115009999999999946e-01 5.721519999999999939e-01
-9.371500000000000663e-02 2.741179999999999728e-01 -4.319540000000000046e-01
1.899389999999999967e-01 -6.072039999999999660e-01 4.705719999999999903e-01
-1.123159999999999992e-01 -4.362800000000000011e-01 -2.652849999999999930e-01
2.176039999999999919e-01 -2.685460000000000069e-01 4.487119999999999997e-01
-1.101519999999999999e-01 3.326620000000000132e-01 -5.806050000000000377e-01
-1.746880000000000099e-01 2.113999999999999994e-03 1.091799999999999993e-01
4.590999999999999942e-02 6.393200000000000272e-02 5.452660000000000284e-01
-1.630699999999999858e-02 3.007270000000000221e-01 4.334339999999999860e-01
-1.651420000000000110e-01 5.059540000000000148e-01 -5.386630000000000029e-01
1.244350000000000039e-01 2.390879999999999950e-01 -4.088899999999999757e-01
1.241880000000000067e-01 2.314199999999999868e-01 -4.134220000000000117e-01
1.308999999999999886e-01 3.119040000000000146e-01 3.861459999999999892e-01
1.726290000000000047e-01 -7.090200000000000669e-02 -4.264699999999999741e-02
-1.467249999999999943e-01 -1.192010000000000014e-01 5.665029999999999788e-01
2.360540000000000138e-01 -4.921809999999999796e-01 5.292390000000000150e-01
2.863299999999999873e-02 -1.562550000000000050e-01 5.277699999999999753e-02
8.092900000000000094e-02 -1.603789999999999938e-01 -2.202260000000000051e-01
-2.794039999999999857e-01 4.380229999999999957e-01 -7.648139999999999938e-01
1.643310000000000048e-01 -1.427730000000000110e-01 4.182270000000000154e-01
-1.344680000000000042e-01 2.782199999999999951e-02 3.053540000000000143e-01
1.138500000000000068e-01 -1.548410000000000064e-01 -1.247110000000000024e-01
-1.169909999999999978e-01 -9.806900000000000339e-02 5.603699999999999654e-02
1.404479999999999895e-01 2.241980000000000084e-01 -1.244370000000000059e-01
3.146100000000000285e-02 2.556379999999999764e-01 5.367469999999999741e-01
1.706409999999999871e-01 2.447660000000000113e-01 1.487610000000000043e-01
-9.485200000000000575e-02 -4.079430000000000001e-01 6.597589999999999844e-01
5.932099999999999873e-02 -2.607900000000000149e-02 3.163850000000000273e-01
-1.229459999999999997e-01 -5.895650000000000057e-01 6.525360000000000049e-01
2.163760000000000128e-01 -2.012760000000000105e-01 4.088820000000000232e-01
-8.480400000000000438e-02 -4.946169999999999733e-01 6.710869999999999891e-01
-8.183699999999999308e-02 4.081800000000000012e-02 -4.123140000000000138e-01
2.096689999999999943e-01 2.718809999999999838e-01 4.353369999999999740e-01
-6.214599999999999985e-02 -1.716290000000000038e-01 5.460249999999999826e-01
1.590399999999999869e-01 -1.317659999999999942e-01 -1.766189999999999982e-01
-7.694700000000000151e-02 -2.293910000000000116e-01 6.809589999999999810e-01
2.231049999999999978e-01 -7.610999999999999710e-02 4.661660000000000248e-01
1.265890000000000071e-01 -8.299000000000000821e-03 5.030299999999999772e-01
5.985800000000000148e-02 4.343429999999999791e-01 -4.796719999999999873e-01
-6.283999999999999309e-02 -1.298739999999999895e-01 -5.324399999999999966e-02
1.975999999999999979e-01 2.222000000000000017e-02 -1.038960000000000022e-01
2.078010000000000135e-01 -5.406760000000000455e-01 -1.307389999999999941e-01
-3.247840000000000171e-01 3.750789999999999957e-01 -6.561179999999999790e-01
-1.059289999999999954e-01 2.435769999999999880e-01 -2.350279999999999869e-01
1.576490000000000113e-01 -8.006599999999999828e-02 -1.712279999999999913e-01
1.797060000000000046e-01 -5.720239999999999769e-01 5.399140000000000050e-01
-1.736280000000000046e-01 1.459999999999999981e-04 1.219559999999999950e-01
-7.200900000000000356e-02 3.330899999999999833e-02 -4.121750000000000136e-01
2.114979999999999916e-01 -5.473350000000000160e-01 5.659129999999999994e-01
-1.261200000000000099e-01 -3.216049999999999742e-01 6.756560000000000343e-01
4.003999999999999747e-03 -9.554999999999999605e-02 2.299249999999999905e-01
-8.898499999999999466e-02 3.497279999999999833e-01 -5.976249999999999618e-01
2.180499999999999938e-01 3.169999999999999901e-02 -2.272389999999999965e-01
2.041739999999999944e-01 1.183820000000000011e-01 -8.834799999999999598e-02
2.307609999999999939e-01 -2.787109999999999865e-01 4.863859999999999850e-01
-7.766000000000000680e-02 2.276269999999999960e-01 -4.343969999999999776e-01
-8.828199999999999936e-02 -2.185080000000000078e-01 5.617349999999999843e-01
3.792999999999999931e-03 -1.591849999999999932e-01 1.610699999999999979e-02
-1.208950000000000025e-01 -1.164150000000000046e-01 -3.345230000000000148e-01
7.787299999999999778e-02 2.752609999999999779e-01 1.624529999999999863e-01
-1.483019999999999894e-01 1.863269999999999926e-01 4.808660000000000156e-01
-1.332029999999999881e-01 -5.885599999999999721e-01 -3.489789999999999837e-01
-7.043599999999999861e-02 -3.022000000000000033e-02 -3.896060000000000079e-01
-1.308040000000000036e-01 -2.707120000000000082e-01 6.255819999999999714e-01
-1.737080000000000013e-01 -3.005299999999999985e-02 -2.876480000000000148e-01
1.873450000000000115e-01 -6.348489999999999966e-01 -1.223410000000000053e-01
2.414669999999999872e-01 2.452120000000000133e-01 2.806239999999999846e-01
6.048100000000000004e-02 -1.061180000000000040e-01 2.033089999999999897e-01
1.825610000000000011e-01 -6.339259999999999895e-01 5.021079999999999988e-01
1.765349999999999975e-01 -3.513839999999999741e-01 4.996630000000000238e-01
-2.596550000000000247e-01 4.651449999999999751e-01 -7.670559999999999601e-01
-1.485110000000000041e-01 -6.363250000000000295e-01 -3.719600000000000128e-01
-9.650300000000000544e-02 -3.552330000000000210e-01 6.422200000000000131e-01
1.823720000000000063e-01 -3.975850000000000217e-01 5.438450000000000228e-01
-1.631099999999999911e-02 1.214400000000000028e-02 -3.993970000000000020e-01
-9.520000000000000684e-03 3.724230000000000040e-01 -2.500800000000000245e-01
-2.721799999999999775e-01 3.307889999999999997e-01 -6.974110000000000031e-01
2.339720000000000133e-01 -4.840999999999999817e-03 2.782020000000000048e-01
5.281500000000000083e-02 -1.529979999999999951e-01 -1.816230000000000067e-01
-1.237380000000000008e-01 -6.596799999999999886e-02 1.725270000000000137e-01
1.330890000000000128e-01 -4.335800000000000071e-02 4.334580000000000100e-01
2.382319999999999993e-01 -5.750880000000000436e-01 5.262430000000000163e-01
-1.503299999999999914e-01 -5.328000000000000271e-03 5.406029999999999447e-01
-6.761499999999999455e-02 -8.228299999999999503e-02 -1.686739999999999906e-01
1.550860000000000016e-01 -4.321499999999999786e-01 -1.227960000000000024e-01
-1.214849999999999958e-01 -3.659220000000000250e-01 -2.544710000000000027e-01
-4.105000000000000142e-03 -1.439120000000000121e-01 -2.479639999999999900e-01
-1.333689999999999876e-01 3.751360000000000250e-01 -5.536520000000000330e-01
7.219699999999999729e-02 3.137759999999999994e-01 3.934349999999999792e-01
1.177760000000000057e-01 -5.494899999999999785e-02 -3.688210000000000099e-01
7.251100000000000600e-02 -2.716299999999999965e-02 3.782869999999999844e-01
-9.104700000000000293e-02 2.338429999999999953e-01 -4.116589999999999971e-01
-1.106339999999999962e-01 -3.047429999999999861e-01 -3.120200000000000196e-01
-1.237449999999999939e-01 -1.268579999999999985e-01 5.900279999999999969e-01
-6.367000000000000437e-02 -2.892970000000000264e-01 6.756419999999999648e-01
-1.238110000000000044e-01 3.795229999999999992e-01 -5.471500000000000252e-01
-1.632820000000000105e-01 1.900600000000000067e-01 4.069039999999999879e-01
3.692899999999999655e-02 5.008409999999999807e-01 -4.115380000000000149e-01
-6.621100000000000596e-02 -4.827339999999999964e-01 7.265679999999999916e-01
-6.005200000000000121e-02 -5.352300000000000113e-02 -3.791359999999999730e-01
1.813999999999999987e-02 3.861499999999999655e-02 5.475740000000000052e-01
-7.706799999999999762e-02 -1.991199999999999914e-02 5.958419999999999828e-01
1.439829999999999999e-01 2.127719999999999889e-01 -9.847899999999999709e-02
-2.019110000000000071e-01 5.373930000000000096e-01 -7.478559999999999652e-01
-7.477200000000000513e-02 -1.515730000000000133e-01 5.142360000000000264e-01
7.729999999999999372e-02 3.908940000000000192e-01 -4.071110000000000007e-01
2.946800000000000114e-02 4.549150000000000138e-01 -5.505349999999999966e-01
-1.401489999999999958e-01 1.159800000000000067e-02 -7.618900000000000672e-02
2.622309999999999919e-01 -2.680000000000000090e-04 4.379239999999999799e-01
-9.936499999999999500e-02 -3.056050000000000155e-01 6.964630000000000543e-01
-1.992199999999999874e-02 3.915759999999999796e-01 -5.748050000000000104e-01
2.765830000000000233e-01 7.713100000000000511e-02 4.303830000000000156e-01
-1.590900000000000092e-01 8.053799999999999848e-02 -3.549760000000000137e-01
2.025289999999999868e-01 1.075460000000000027e-01 5.637330000000000396e-01
2.069489999999999941e-01 -4.464699999999999919e-02 2.869349999999999956e-01
3.125399999999999706e-02 -1.294460000000000055e-01 -2.985220000000000096e-01
2.400480000000000114e-01 3.284000000000000027e-03 1.572890000000000121e-01
-1.734040000000000026e-01 1.347740000000000049e-01 4.069269999999999832e-01
1.459529999999999994e-01 -5.219129999999999603e-01 -1.353360000000000118e-01
2.726060000000000150e-01 1.799600000000000088e-01 4.157939999999999969e-01
1.496659999999999935e-01 -7.238799999999999402e-02 -8.358999999999999764e-02
-8.750199999999999645e-02 -1.939730000000000065e-01 -3.225120000000000209e-01
-1.148369999999999946e-01 5.179679999999999840e-01 -7.019499999999999629e-01
1.872089999999999865e-01 -4.912199999999999900e-02 1.839339999999999864e-01
1.475299999999999945e-01 -4.490100000000000202e-01 -1.382049999999999945e-01
-1.321799999999999919e-01 -3.261310000000000042e-01 -2.724170000000000202e-01
-1.241740000000000066e-01 2.018989999999999951e-01 -3.442410000000000192e-01
8.081199999999999495e-02 3.157429999999999959e-01 2.980329999999999924e-01
-1.043049999999999949e-01 3.600180000000000047e-01 -5.251360000000000472e-01
2.148019999999999929e-01 -2.243000000000000202e-03 2.040349999999999941e-01
2.739699999999999913e-01 6.459199999999999664e-02 3.269299999999999984e-01
1.104669999999999958e-01 -2.602079999999999949e-01 -1.853269999999999917e-01
1.738369999999999915e-01 1.858019999999999949e-01 -5.776300000000000184e-02
2.153170000000000084e-01 4.430499999999999716e-02 5.362820000000000364e-01
2.453150000000000053e-01 -6.237499999999999989e-02 3.869580000000000242e-01
1.204719999999999958e-01 4.446699999999999958e-02 -4.163149999999999906e-01
-6.834500000000000297e-02 -1.659349999999999992e-01 -2.179250000000000076e-01
2.104600000000000082e-01 1.167340000000000044e-01 -2.396619999999999862e-01
-9.681499999999999828e-02 -1.834590000000000110e-01 -2.148289999999999922e-01
-1.746320000000000094e-01 -1.651299999999999990e-02 4.421289999999999942e-01
1.910360000000000114e-01 1.742420000000000080e-01 -2.094890000000000085e-01
-1.305459999999999954e-01 1.776099999999999901e-01 2.384290000000000020e-01
-7.402799999999999658e-02 -3.868489999999999984e-01 6.972570000000000157e-01
-1.226789999999999964e-01 -5.241970000000000240e-01 7.198529999999999651e-01
-1.806400000000000020e-02 5.615200000000000191e-01 -5.557050000000000045e-01
1.348810000000000009e-01 -1.549280000000000102e-01 -2.879729999999999790e-01
2.638840000000000074e-01 2.071949999999999903e-01 4.214339999999999753e-01
1.621190000000000131e-01 2.375899999999999956e-01 -3.026469999999999994e-01
2.121770000000000045e-01 -2.487620000000000109e-01 5.230700000000000349e-01
-5.462999999999999801e-02 -1.541569999999999885e-01 -2.930159999999999987e-01
-1.065789999999999932e-01 -3.526349999999999763e-01 -2.357410000000000061e-01
2.620660000000000212e-01 2.208120000000000083e-01 3.681650000000000200e-01
2.130140000000000089e-01 -2.983099999999999988e-02 -2.967489999999999850e-01
1.396739999999999926e-01 4.921000000000000027e-03 -3.927990000000000093e-01
-1.144730000000000053e-01 -1.119700000000000036e-02 -1.608660000000000090e-01
2.494389999999999941e-01 -1.100000000000000006e-01 4.175949999999999940e-01
-9.909999999999999365e-02 4.989439999999999986e-01 -6.805050000000000265e-01
-1.472719999999999863e-01 1.177639999999999937e-01 2.455610000000000015e-01
2.778360000000000274e-01 7.500099999999999822e-02 3.737869999999999804e-01
-1.352540000000000131e-01 -6.782900000000000040e-02 5.614820000000000366e-01
-1.380649999999999933e-01 -4.173700000000000326e-02 5.623059999999999725e-01
-8.836099999999999510e-02 -1.326189999999999869e-01 4.834419999999999829e-01
9.325999999999999221e-03 -2.367999999999999966e-02 3.492890000000000161e-01
5.489800000000000235e-02 3.646280000000000077e-01 -2.377319999999999989e-01
-2.422519999999999951e-01 3.985179999999999834e-01 -7.696739999999999693e-01
1.696599999999999844e-02 3.615889999999999938e-01 -2.204879999999999896e-01
1.098780000000000034e-01 -2.189669999999999950e-01 -1.789320000000000077e-01
1.077980000000000049e-01 -2.262879999999999892e-01 -1.842060000000000086e-01
1.488130000000000008e-01 -4.635299999999999837e-02 3.040729999999999822e-01
-1.674769999999999870e-01 7.626800000000000246e-02 -2.724989999999999912e-01
-8.756200000000000094e-02 -1.262900000000000134e-01 6.101199999999999957e-01
-1.841669999999999974e-01 3.011099999999999888e-02 3.798320000000000030e-01
-1.185100000000000042e-01 5.809109999999999552e-01 -7.189309999999999867e-01
1.586399999999999963e-02 5.380620000000000402e-01 -4.828370000000000162e-01
1.061140000000000000e-01 1.940860000000000085e-01 5.737870000000000470e-01
-9.697600000000000664e-02 1.931340000000000001e-01 1.234500000000000007e-02
-7.636000000000000426e-03 9.260000000000000175e-02 -4.250079999999999969e-01
1.819719999999999949e-01 -4.210789999999999811e-01 -1.237619999999999970e-01
2.020639999999999936e-01 -5.705649999999999888e-01 4.898640000000000216e-01
1.390260000000000107e-01 -3.741570000000000173e-01 -1.938209999999999933e-01
-4.248899999999999899e-02 -1.319780000000000120e-01 -1.561639999999999973e-01
3.651000000000000165e-03 2.149999999999999947e-04 5.048259999999999970e-01
7.457099999999999840e-02 -2.294300000000000159e-02 3.347269999999999968e-01
-2.100300000000000084e-02 5.969300000000000300e-02 6.012870000000000159e-01
-1.444890000000000063e-01 4.467999999999999750e-03 -6.085600000000000037e-02
-1.440800000000000136e-01 2.221470000000000111e-01 4.086949999999999750e-01
7.879999999999999505e-02 3.179299999999999904e-01 3.274440000000000128e-01
2.266289999999999971e-01 -2.328399999999999914e-02 1.464409999999999878e-01
1.293259999999999965e-01 2.412140000000000117e-01 5.425740000000000007e-01
-2.339590000000000003e-01 5.020759999999999668e-01 -5.892979999999999885e-01
1.338489999999999958e-01 -9.094399999999999706e-02 1.872560000000000058e-01
1.483300000000000070e-02 -2.321799999999999906e-02 3.480849999999999778e-01
8.751200000000000645e-02 3.376359999999999917e-01 -4.697560000000000069e-01
-1.896199999999999969e-02 -1.020399999999999953e-02 5.774890000000000301e-01
-7.911999999999999589e-02 -5.879700000000000204e-02 4.221030000000000060e-01
-7.210500000000000242e-02 3.629290000000000016e-01 -5.981440000000000090e-01
-1.514830000000000065e-01 -9.816000000000000072e-03 2.020069999999999921e-01
3.099800000000000125e-02 2.767649999999999832e-01 1.754149999999999876e-01
1.918660000000000088e-01 2.647680000000000033e-01 2.171960000000000002e-01
1.749330000000000052e-01 -2.608289999999999775e-01 -1.785869999999999957e-01
-1.130150000000000043e-01 2.265620000000000134e-01 -2.173910000000000009e-01
1.988759999999999972e-01 -3.529199999999999698e-02 1.846959999999999991e-01
-1.229780000000000040e-01 1.810209999999999875e-01 -3.673239999999999839e-01
2.151419999999999999e-01 -5.028500000000000331e-02 -2.560259999999999758e-01
1.694400000000000073e-01 2.722859999999999725e-01 4.821309999999999762e-01
-1.914000000000000076e-02 5.682080000000000464e-01 -5.394790000000000418e-01
5.159999999999999656e-03 3.135800000000000254e-01 -1.563380000000000047e-01
-1.071669999999999984e-01 3.803770000000000207e-01 -6.686680000000000401e-01
-6.124700000000000283e-02 -2.245880000000000098e-01 6.725520000000000387e-01
1.518839999999999912e-01 2.396260000000000057e-01 -3.467310000000000114e-01
-1.757789999999999908e-01 6.498700000000000310e-02 3.525920000000000165e-01
-1.629390000000000005e-01 1.101960000000000023e-01 -3.275270000000000126e-01
2.500089999999999812e-01 2.350549999999999862e-01 2.944069999999999743e-01
1.916029999999999955e-01 -3.995170000000000110e-01 -1.634859999999999924e-01
1.334110000000000018e-01 2.889269999999999894e-01 2.133819999999999883e-01
-1.009179999999999938e-01 -4.940860000000000252e-01 -2.701680000000000192e-01
-8.000400000000000567e-02 -8.846199999999999897e-02 -8.566400000000000403e-02
-7.012300000000000477e-02 -5.454459999999999864e-01 -3.382870000000000044e-01
-1.807970000000000133e-01 5.804829999999999712e-01 -7.171300000000000452e-01
2.088750000000000051e-01 -4.867980000000000085e-01 -1.196160000000000001e-01
-1.325310000000000099e-01 6.064000000000000501e-01 -7.143950000000000022e-01
-1.359980000000000078e-01 -2.959499999999999978e-02 -3.475289999999999768e-01
-1.370419999999999972e-01 1.699759999999999882e-01 1.987530000000000130e-01
-2.749999999999999840e-03 -1.589109999999999967e-01 -2.811400000000000010e-02
-5.420099999999999918e-02 1.773009999999999864e-01 -4.481749999999999901e-01
1.183099999999999950e-02 -1.586639999999999995e-01 -5.997299999999999853e-02
-8.707800000000000262e-02 -4.729450000000000043e-01 -3.319529999999999981e-01
-3.328899999999999915e-02 3.854339999999999988e-01 -5.809640000000000359e-01
-1.039989999999999942e-01 3.658640000000000225e-01 -5.227039999999999464e-01
-6.684900000000000564e-02 -4.702810000000000046e-01 7.209799999999999542e-01
-6.772100000000000342e-02 -9.743799999999999684e-02 5.892709999999999892e-01
1.107319999999999971e-01 -4.780299999999999827e-02 -3.757300000000000084e-01
-9.438000000000000556e-02 2.022539999999999893e-01 5.780199999999999921e-02
-6.771299999999999542e-02 -6.074089999999999767e-01 -3.357990000000000141e-01
-1.250350000000000072e-01 1.421840000000000048e-01 -9.693200000000000427e-02
1.163150000000000017e-01 2.321429999999999882e-01 -7.095600000000000518e-02
8.640999999999999376e-03 3.138589999999999991e-01 3.389170000000000238e-01
-1.094669999999999949e-01 2.133259999999999879e-01 5.167479999999999851e-01
1.867000000000000048e-01 -6.344290000000000207e-01 5.278169999999999806e-01
1.990939999999999932e-01 1.453569999999999862e-01 -3.321430000000000216e-01
-6.389899999999999747e-02 -2.742249999999999965e-01 -2.435980000000000090e-01
-1.184629999999999989e-01 4.098399999999999821e-01 -5.166969999999999619e-01
2.223539999999999961e-01 -4.240639999999999965e-01 5.165680000000000271e-01
-7.795900000000000052e-02 3.447799999999999754e-01 -5.859870000000000356e-01
-9.786699999999999566e-02 -3.083859999999999935e-01 -2.278280000000000027e-01
-4.982000000000000317e-02 -1.676499999999999865e-02 -3.931370000000000142e-01
-1.593179999999999874e-01 1.099669999999999953e-01 -4.046000000000000117e-03
1.393409999999999926e-01 -4.058060000000000000e-01 -1.649220000000000130e-01
-1.203960000000000030e-01 2.489220000000000044e-01 2.792060000000000097e-01
1.711169999999999913e-01 -1.664839999999999931e-01 5.026969999999999494e-01
-1.072479999999999961e-01 2.974500000000000061e-02 5.645329999999999515e-01
1.063650000000000012e-01 6.738399999999999945e-02 -4.237949999999999773e-01
-2.774119999999999919e-01 3.547080000000000233e-01 -7.665290000000000159e-01
2.475590000000000013e-01 4.252999999999999836e-03 6.132699999999999957e-02
1.816170000000000007e-01 -6.104000000000000051e-03 -1.183389999999999997e-01
1.784020000000000050e-01 6.133199999999999763e-02 5.602030000000000065e-01
1.677269999999999872e-01 -5.074790000000000134e-01 5.603050000000000530e-01
-7.607099999999999973e-02 -8.672199999999999354e-02 4.766810000000000214e-01
1.820539999999999936e-01 -4.417929999999999913e-01 5.575409999999999533e-01
8.980100000000000582e-02 2.607510000000000105e-01 -4.648530000000000162e-01
-3.600099999999999967e-01 3.177699999999999969e-01 -8.031800000000000050e-01
1.926800000000000040e-02 4.443099999999999827e-01 -5.636149999999999771e-01
2.227780000000000038e-01 -3.311209999999999987e-01 5.146159999999999624e-01
-1.525249999999999939e-01 -1.179790000000000005e-01 -2.942370000000000263e-01
-1.258100000000000052e-01 -8.725000000000000117e-03 -1.692800000000000138e-01
-5.460099999999999676e-02 -1.865809999999999969e-01 -2.379880000000000051e-01
6.140999999999999757e-03 -1.558889999999999998e-01 6.944899999999999685e-02
1.062799999999999995e-01 -2.032390000000000030e-01 -1.799630000000000118e-01
2.318939999999999890e-01 2.657200000000000117e-01 3.933200000000000029e-01
-1.283239999999999936e-01 -3.678400000000000003e-01 -2.850409999999999888e-01
-6.258600000000000274e-02 2.752729999999999899e-01 4.704539999999999833e-01
2.393939999999999957e-01 -1.977299999999999891e-02 1.090480000000000060e-01
2.455360000000000043e-01 1.016510000000000052e-01 2.164679999999999938e-01
-1.397690000000000043e-01 1.622139999999999971e-01 5.939599999999999741e-02
1.557429999999999926e-01 -1.427249999999999908e-01 -2.960679999999999978e-01
-1.305709999999999926e-01 2.152489999999999959e-01 -2.757060000000000066e-01
1.706120000000000136e-01 -5.029700000000000143e-02 -8.104600000000000692e-02
1.529639999999999889e-01 -1.952089999999999936e-01 4.517079999999999984e-01
2.559310000000000196e-01 2.194760000000000044e-01 4.370910000000000073e-01
-5.128900000000000126e-02 -3.161519999999999886e-01 -2.719300000000000050e-01
-1.661050000000000026e-01 8.286399999999999322e-02 2.026330000000000076e-01
1.484689999999999899e-01 -1.159659999999999996e-01 6.784800000000000553e-02
3.980899999999999717e-02 2.473140000000000061e-01 5.466229999999999700e-01
2.127960000000000129e-01 -6.114260000000000250e-01 5.549849999999999506e-01
-2.247199999999999892e-02 -6.255600000000000049e-02 -3.702219999999999955e-01
-4.235360000000000236e-01 3.350270000000000192e-01 -7.540409999999999613e-01
-7.699000000000000288e-02 -2.897879999999999900e-01 -2.317639999999999978e-01
-5.969900000000000206e-02 -3.608379999999999921e-01 -2.828700000000000103e-01
-1.154260000000000008e-01 3.992850000000000010e-01 -5.243309999999999915e-01
-1.333820000000000006e-01 1.566019999999999912e-01 -1.762730000000000130e-01
-1.574700000000000058e-02 -1.212899999999999916e-02 4.955269999999999953e-01
1.863450000000000106e-01 -3.055019999999999958e-01 -2.241809999999999914e-01
2.281430000000000125e-01 3.985600000000000254e-02 2.532389999999999919e-01
-2.626959999999999851e-01 5.499939999999999829e-01 -6.587929999999999620e-01
-1.842799999999999994e-02 2.817009999999999792e-01 4.871210000000000262e-01
1.052939999999999987e-01 2.879610000000000225e-01 -4.402719999999999967e-01
-2.284299999999999872e-02 3.548379999999999868e-01 -2.505240000000000244e-01
-5.283600000000000102e-02 -2.648699999999999943e-01 6.280390000000000139e-01
1.736700000000000049e-02 2.939030000000000253e-01 -5.227039999999999464e-01
-1.625280000000000058e-01 1.171500000000000041e-01 2.604800000000000171e-02
-1.268849999999999978e-01 -2.293270000000000031e-01 5.931300000000000461e-01
7.824899999999999911e-02 2.655649999999999955e-01 -9.962699999999999334e-02
-5.942499999999999866e-02 2.941289999999999738e-01 4.041420000000000012e-01
-1.992000000000000021e-02 2.694869999999999766e-01 -5.218519999999999825e-01
2.040300000000000100e-02 2.512980000000000214e-01 -5.006690000000000307e-01
1.736999999999999933e-01 1.499419999999999920e-01 -3.966439999999999966e-01
1.400879999999999903e-01 2.870300000000000074e-01 4.714019999999999877e-01
1.606239999999999890e-01 5.727999999999999585e-03 -3.830319999999999836e-01
2.738450000000000051e-01 1.106769999999999976e-01 4.568119999999999958e-01
4.722999999999999768e-03 2.904950000000000032e-01 4.738689999999999847e-01
1.937029999999999863e-01 -6.340430000000000232e-01 4.975550000000000250e-01
1.152939999999999937e-01 -1.144450000000000051e-01 -3.310089999999999977e-01
2.058530000000000082e-01 -2.462400000000000005e-02 -4.412200000000000150e-02
-1.264520000000000088e-01 -7.792000000000000315e-02 5.739870000000000250e-01
-1.359619999999999995e-01 -1.655310000000000115e-01 -2.823499999999999899e-01
4.680000000000000132e-03 2.993100000000000205e-01 4.474330000000000251e-01
-2.600399999999999934e-02 1.415659999999999974e-01 -4.482189999999999785e-01
-2.775020000000000264e-01 3.302160000000000095e-01 -6.969710000000000072e-01
-1.128269999999999967e-01 -5.639079999999999648e-01 -3.106039999999999912e-01
-1.931300000000000031e-02 -1.465019999999999933e-01 1.040110000000000062e-01
1.591229999999999867e-01 -1.761629999999999863e-01 4.249229999999999952e-01
-1.766780000000000017e-01 1.975999999999999892e-03 3.803929999999999811e-01
3.399699999999999944e-02 2.917009999999999881e-01 -5.145509999999999806e-01
1.785849999999999937e-01 2.350800000000000112e-02 5.394809999999999883e-01
5.606699999999999878e-02 -1.192239999999999966e-01 -3.177039999999999864e-01
9.498399999999999899e-02 -1.418119999999999936e-01 -8.281399999999999872e-02
2.171260000000000134e-01 1.696900000000000144e-02 2.442670000000000119e-01
-9.553999999999999992e-03 3.077429999999999888e-01 -1.533569999999999933e-01
-3.236729999999999885e-01 4.626870000000000149e-01 -7.312999999999999501e-01
6.001399999999999790e-02 -1.507830000000000004e-01 -2.277270000000000127e-01
-1.490209999999999868e-01 -3.270699999999999996e-02 -3.332990000000000119e-01
-7.112000000000000266e-02 -2.282700000000000007e-02 3.420880000000000032e-01
1.718709999999999960e-01 -5.194309999999999761e-01 5.672549999999999537e-01
-7.093399999999999705e-02 3.897899999999999976e-02 6.004639999999999977e-01
-1.188319999999999932e-01 1.371709999999999874e-01 5.537339999999999485e-01
2.477310000000000068e-01 1.551039999999999919e-01 2.533920000000000061e-01
1.839860000000000106e-01 -3.840600000000000264e-02 -7.307900000000000507e-02
-8.818900000000000350e-02 -2.331620000000000081e-01 6.831169999999999742e-01
-2.047760000000000136e-01 4.087180000000000257e-01 -5.613240000000000451e-01
-1.122340000000000004e-01 -1.805430000000000090e-01 5.127880000000000216e-01
1.088599999999999984e-01 -8.659999999999999643e-02 2.162000000000000033e-01
-1.300830000000000042e-01 4.353870000000000240e-01 -5.271360000000000490e-01
1.359980000000000078e-01 -7.863599999999999757e-02 -1.124750000000000055e-01
-1.274899999999999922e-01 1.321740000000000137e-01 -1.362250000000000127e-01
5.570499999999999757e-02 2.823160000000000114e-01 -4.994489999999999763e-01
-8.362500000000000488e-02 -4.594949999999999868e-01 6.709289999999999976e-01
-8.303900000000000170e-02 -1.640199999999999991e-02 3.308679999999999954e-01
-6.434399999999999842e-02 -2.743970000000000020e-01 6.756820000000000048e-01
1.432869999999999977e-01 2.394789999999999974e-01 5.763700000000000073e-02
2.527440000000000242e-01 6.364100000000000312e-02 4.092200000000000004e-02
-1.140420000000000045e-01 6.068099999999999605e-01 -6.115089999999999693e-01
-8.209800000000000431e-02 -7.719800000000000273e-02 -3.671510000000000051e-01
-2.262959999999999972e-01 3.423189999999999844e-01 -6.044410000000000061e-01
2.609009999999999940e-01 9.161700000000000399e-02 2.962620000000000253e-01
2.443199999999999886e-02 5.144959999999999534e-01 -5.190860000000000474e-01
-1.241249999999999992e-01 2.364279999999999993e-01 4.521740000000000204e-01
4.102599999999999997e-02 1.028879999999999934e-01 5.720939999999999914e-01
1.373540000000000039e-01 -3.264279999999999959e-01 -2.256980000000000097e-01
9.959000000000000838e-03 5.448680000000000190e-01 -4.567910000000000026e-01
-6.163500000000000228e-02 -1.242230000000000001e-01 6.004920000000000258e-01
-1.280320000000000069e-01 -5.789400000000000102e-02 -1.870060000000000056e-01
9.423000000000000820e-03 9.295699999999999796e-02 5.930819999999999981e-01
1.968219999999999970e-01 5.910000000000000323e-03 -1.768790000000000084e-01
2.279200000000000115e-01 2.723010000000000153e-01 3.649760000000000226e-01
1.181480000000000030e-01 2.538290000000000268e-01 -4.173330000000000095e-01
-1.232449999999999934e-01 -3.544570000000000221e-01 6.749979999999999869e-01
-4.157399999999999984e-02 5.861769999999999481e-01 -5.332980000000000498e-01
1.922969999999999957e-01 -8.061400000000000510e-02 6.944699999999999485e-02
-5.761399999999999855e-02 -3.383849999999999913e-01 -2.653059999999999863e-01
-4.060420000000000140e-01 3.497770000000000046e-01 -7.972089999999999455e-01
-6.874800000000000355e-02 7.278400000000000147e-02 -4.212080000000000268e-01
2.407539999999999958e-01 -2.397900000000000031e-02 3.075740000000000141e-01
1.829030000000000100e-01 -5.532219999999999915e-01 5.121820000000000261e-01
-2.096520000000000050e-01 5.956449999999999800e-01 -6.675240000000000062e-01
5.450499999999999790e-02 -4.320800000000000335e-02 -3.848880000000000079e-01
-7.849999999999999990e-04 5.512299999999999839e-02 -4.122399999999999953e-01
-6.718399999999999372e-02 -3.009390000000000120e-01 6.262090000000000156e-01
2.116099999999999925e-01 -9.870999999999999566e-03 1.993399999999999894e-01
-1.375790000000000068e-01 9.309499999999999720e-02 -1.687170000000000059e-01
1.320679999999999910e-01 1.140179999999999944e-01 -4.268649999999999944e-01
1.682629999999999959e-01 -5.624449999999999728e-01 -1.677639999999999965e-01
-1.054400000000000059e-01 -5.535139999999999505e-01 -3.588029999999999831e-01
-1.684080000000000021e-01 3.582300000000000068e-02 5.199540000000000273e-01
-1.170800000000000035e-01 -3.370179999999999843e-01 -3.093670000000000031e-01
-8.269200000000000161e-02 -5.720490000000000297e-01 -3.621249999999999747e-01
1.557459999999999956e-01 -1.860829999999999984e-01 4.331289999999999862e-01
-2.748269999999999880e-01 3.348949999999999982e-01 -6.676290000000000280e-01
-2.585399999999999851e-02 4.071049999999999947e-01 -3.075700000000000101e-01
6.894100000000000228e-02 -1.510090000000000043e-01 -2.758100000000000135e-02
2.177229999999999999e-01 -2.600799999999999987e-02 5.041989999999999528e-01
-1.885900000000000076e-02 1.521099999999999952e-01 -4.535460000000000047e-01
1.821000000000000119e-01 1.359269999999999923e-01 -3.902340000000000253e-01
-2.667619999999999991e-01 3.920690000000000008e-01 -5.948689999999999811e-01
1.142999999999999988e-01 2.763809999999999878e-01 1.715319999999999900e-01
-1.606940000000000035e-01 1.182669999999999971e-01 1.879499999999999921e-02
-3.364719999999999933e-01 4.545520000000000116e-01 -6.962580000000000435e-01
-1.179579999999999934e-01 -9.417799999999999783e-02 4.478949999999999876e-01
1.623880000000000046e-01 -2.376959999999999906e-01 5.118920000000000137e-01
-7.517100000000000171e-02 -2.490249999999999964e-01 -2.297279999999999878e-01
1.805229999999999890e-01 4.898999999999999709e-03 -1.366590000000000027e-01
-1.124399999999999983e-01 -6.431550000000000322e-01 7.141359999999999930e-01
1.649140000000000050e-01 -1.676870000000000027e-01 -1.943779999999999952e-01
-1.262240000000000029e-01 -1.599999999999999928e-05 -3.805140000000000189e-01
3.026099999999999970e-02 -1.583529999999999938e-01 -3.088700000000000126e-02
2.004710000000000103e-01 2.767560000000000020e-01 4.368630000000000013e-01
1.950620000000000132e-01 -5.510400000000000020e-02 -3.158130000000000104e-01
-6.450899999999999690e-02 -5.278230000000000421e-01 -3.309449999999999892e-01
1.138679999999999970e-01 -1.267959999999999920e-01 -4.232199999999999851e-02
-1.284029999999999894e-01 -6.144150000000000444e-01 -3.914409999999999834e-01
1.036259999999999959e-01 2.522510000000000030e-01 -1.094679999999999959e-01
1.291720000000000090e-01 2.880840000000000067e-01 2.092620000000000036e-01
-6.235099999999999670e-02 -1.810539999999999927e-01 5.546879999999999589e-01
1.429840000000000000e-01 2.867060000000000164e-01 4.708180000000000143e-01
-2.465330000000000021e-01 5.458290000000000086e-01 -7.014479999999999604e-01
2.102980000000000127e-01 -9.519500000000000184e-02 4.700889999999999791e-01
-1.043830000000000036e-01 1.990400000000000155e-02 -4.024900000000000144e-01
2.616740000000000177e-01 6.750699999999999756e-02 1.257079999999999864e-01
1.352389999999999981e-01 -7.918600000000000638e-02 -1.145280000000000048e-01
1.648880000000000068e-01 -5.308600000000000124e-02 2.184349999999999903e-01
1.636499999999999899e-01 -1.364559999999999940e-01 -2.985200000000000076e-01
-1.419900000000000051e-01 -6.014220000000000121e-01 -3.575320000000000165e-01
2.473909999999999998e-01 -4.193800000000000305e-02 3.578210000000000002e-01
6.991200000000000192e-02 -1.518789999999999862e-01 2.122100000000000028e-02
1.257709999999999939e-01 -1.540340000000000042e-01 -1.350840000000000096e-01
-7.181200000000000083e-02 6.693599999999999550e-02 5.988759999999999639e-01
2.139860000000000095e-01 1.523599999999999954e-02 5.263849999999999918e-01
2.694400000000000128e-01 1.142650000000000055e-01 4.713189999999999880e-01
-1.995300000000000129e-01 5.711340000000000305e-01 -7.185610000000000053e-01
-1.085490000000000066e-01 -4.889240000000000252e-01 7.448380000000000001e-01
-1.288249999999999951e-01 2.060899999999999954e-01 -2.300979999999999970e-01
3.687999999999999872e-03 -1.181029999999999996e-01 1.915209999999999968e-01
9.542100000000000581e-02 1.666020000000000001e-01 5.773129999999999651e-01
-1.805319999999999980e-01 5.816980000000000484e-01 -7.159510000000000041e-01
1.403089999999999893e-01 -6.026399999999999813e-02 2.808010000000000228e-01
2.238999999999999879e-01 -3.072869999999999768e-01 5.084020000000000206e-01
-3.172420000000000240e-01 3.138329999999999731e-01 -7.364770000000000483e-01
-1.454429999999999890e-01 2.184989999999999988e-01 3.013739999999999752e-01
2.383129999999999971e-01 2.547019999999999840e-01 2.944229999999999903e-01
1.902810000000000057e-01 1.512580000000000036e-01 -9.207500000000000406e-02
-3.191200000000000286e-02 -9.945900000000000574e-02 -3.456759999999999833e-01
-8.821600000000000275e-02 -5.521629999999999594e-01 -3.565840000000000121e-01
-3.679799999999999738e-02 -1.481250000000000067e-01 -6.530600000000000294e-02
1.033629999999999965e-01 -6.796099999999999364e-02 -3.752130000000000187e-01
-2.827520000000000033e-01 4.863290000000000113e-01 -7.442239999999999966e-01
2.633599999999999830e-01 1.101889999999999953e-01 3.037079999999999780e-01
-5.141600000000000337e-02 -1.459719999999999906e-01 1.518999999999999951e-03
-1.345030000000000114e-01 3.658489999999999798e-01 -5.579410000000000203e-01
-8.829700000000000049e-02 1.201559999999999989e-01 5.797219999999999596e-01
-4.400899999999999951e-02 2.339070000000000038e-01 7.936400000000000399e-02
-1.365719999999999990e-01 1.697680000000000022e-01 8.387400000000000411e-02
1.151230000000000031e-01 2.979430000000000134e-01 4.541839999999999766e-01
-1.384430000000000105e-01 2.014749999999999874e-01 4.841659999999999853e-01
-1.567439999999999944e-01 5.957099999999999895e-02 3.177019999999999844e-01
-5.323200000000000154e-02 -2.564330000000000220e-01 -2.615649999999999920e-01
-6.791400000000000214e-02 4.118379999999999819e-01 -6.265429999999999611e-01
2.291439999999999866e-01 -1.980699999999999961e-01 4.722089999999999899e-01
-1.404009999999999980e-01 8.395400000000000085e-02 -1.768790000000000084e-01
-1.289609999999999923e-01 -4.647379999999999844e-01 6.954059999999999686e-01
5.462299999999999794e-02 3.039299999999999780e-01 4.419609999999999927e-01
2.132759999999999934e-01 -5.781020000000000048e-01 -1.603580000000000005e-01
-1.174680000000000030e-01 -2.929499999999999882e-01 -2.478090000000000015e-01
2.105000000000000100e-03 -4.657300000000000328e-02 2.862469999999999737e-01
-1.140049999999999952e-01 -2.033330000000000137e-01 -2.491980000000000028e-01
1.929909999999999959e-01 -4.271480000000000277e-01 -1.628620000000000068e-01
1.544030000000000125e-01 -1.419209999999999916e-01 -2.966920000000000113e-01
2.118120000000000003e-01 8.727300000000000335e-02 -3.225299999999999834e-01
-1.593420000000000114e-01 -2.627600000000000074e-02 2.909700000000000134e-02
1.980989999999999973e-01 -3.459799999999999681e-02 -4.898199999999999776e-02
-9.311899999999999344e-02 3.215589999999999837e-01 -5.359730000000000327e-01
2.755329999999999724e-01 1.278019999999999989e-01 4.486950000000000105e-01
2.124560000000000060e-01 -5.008700000000000374e-01 5.140529999999999822e-01
1.206850000000000006e-01 -2.897399999999999975e-02 3.356819999999999804e-01
-1.171900000000000025e-01 5.447119999999999740e-01 -4.994799999999999796e-01
2.576640000000000041e-01 3.319699999999999734e-02 9.792199999999999516e-02
-9.767000000000000681e-02 -4.359069999999999889e-01 -2.588300000000000045e-01
-6.292499999999999483e-02 -2.110239999999999894e-01 5.769609999999999461e-01
-7.944299999999999973e-02 -1.292369999999999908e-01 1.947000000000000119e-02
-5.932500000000000273e-02 -2.973629999999999884e-01 -2.529080000000000217e-01
1.965010000000000090e-01 -5.273800000000000016e-02 -3.133119999999999794e-01
1.550739999999999896e-01 -3.821209999999999885e-01 -1.323979999999999879e-01
1.845060000000000033e-01 -5.126110000000000388e-01 -1.681130000000000124e-01
2.559179999999999788e-01 8.278800000000000048e-02 6.000899999999999984e-02
-3.118999999999999811e-03 2.552119999999999944e-01 1.185210000000000014e-01
-1.325590000000000102e-01 1.387599999999999945e-01 -6.631700000000000095e-02
7.824799999999999811e-02 2.224250000000000116e-01 5.630009999999999737e-01
-1.836830000000000129e-01 3.628000000000000114e-01 -7.377179999999999849e-01
-2.474399999999999863e-02 -1.547870000000000079e-01 3.218499999999999833e-02
1.541099999999999935e-02 2.564029999999999920e-01 -5.049120000000000275e-01
-1.784449999999999925e-01 8.935800000000000687e-02 4.255099999999999993e-01
2.285089999999999899e-01 1.114010000000000000e-01 -1.633499999999999883e-02
1.333060000000000078e-01 6.327000000000000159e-03 -3.959599999999999786e-01
1.927750000000000019e-01 1.574570000000000136e-01 -1.744020000000000015e-01
-1.766709999999999947e-01 5.130360000000000475e-01 -5.550310000000000521e-01
1.453699999999999957e-02 -1.482660000000000089e-01 -2.202429999999999943e-01
-6.394700000000000384e-02 5.579680000000000195e-01 -6.347159999999999469e-01
-1.406749999999999945e-01 1.698419999999999930e-01 1.556059999999999943e-01
1.912010000000000098e-01 -4.351399999999999713e-02 2.646259999999999724e-01
1.332450000000000023e-01 2.727439999999999864e-01 5.009860000000000424e-01
1.576160000000000061e-01 2.143750000000000100e-01 -1.173399999999999964e-02
1.417980000000000074e-01 -3.941580000000000084e-01 -1.488460000000000061e-01
-8.613300000000000123e-02 2.500290000000000012e-01 -3.668819999999999859e-01
1.471300000000000108e-01 -7.600800000000000611e-02 -3.383900000000000241e-01
-1.339549999999999907e-01 1.913169999999999871e-01 -3.391839999999999855e-01
-3.144330000000000180e-01 4.692310000000000092e-01 -7.330980000000000274e-01
9.344999999999999141e-03 2.729019999999999779e-01 1.724950000000000094e-01
-7.418500000000000094e-02 -2.129250000000000032e-01 -3.124549999999999828e-01
-1.333590000000000053e-01 1.268910000000000038e-01 -8.520800000000000596e-02
1.308630000000000071e-01 2.837410000000000210e-01 4.820130000000000248e-01
2.364749999999999908e-01 -4.798740000000000228e-01 5.612960000000000171e-01
-2.563730000000000175e-01 4.655199999999999894e-01 -7.677100000000000035e-01
2.553610000000000047e-01 1.488970000000000016e-01 2.715049999999999963e-01
2.438730000000000064e-01 1.613789999999999947e-01 1.919430000000000025e-01
1.573380000000000056e-01 -1.763909999999999922e-01 4.541009999999999769e-01
-7.168599999999999972e-02 -3.739739999999999731e-01 6.893080000000000318e-01
2.265700000000000006e-02 1.833799999999999875e-01 -4.648990000000000067e-01
-1.803099999999999981e-01 5.880999999999999943e-03 3.917800000000000171e-01
-1.660649999999999904e-01 9.846499999999999697e-02 -2.783959999999999768e-01
-2.251329999999999998e-01 5.338709999999999845e-01 -7.439719999999999667e-01
-1.405369999999999953e-01 -1.295070000000000110e-01 -3.161030000000000229e-01
-5.110599999999999865e-02 -1.192539999999999989e-01 5.753479999999999706e-01
8.159700000000000286e-02 1.954329999999999956e-01 -4.547749999999999848e-01
2.450600000000000001e-01 -8.586799999999999988e-02 4.194089999999999763e-01
-1.120170000000000055e-01 -4.489679999999999782e-01 -3.187030000000000141e-01
-6.065799999999999664e-02 -3.173070000000000057e-01 -3.143310000000000271e-01
-1.684300000000000033e-02 -5.058800000000000102e-02 -3.756320000000000214e-01
-1.066840000000000011e-01 9.030499999999999639e-02 5.637560000000000349e-01
7.796300000000000452e-02 -2.618499999999999994e-02 3.707679999999999865e-01
1.469370000000000120e-01 -1.134909999999999947e-01 9.975699999999999845e-02
-7.068299999999999583e-02 -5.617839999999999501e-01 -3.402220000000000244e-01
8.603600000000000136e-02 -4.870399999999999729e-02 -3.856069999999999776e-01
-1.840549999999999964e-01 2.402899999999999828e-02 4.624179999999999957e-01
1.078709999999999947e-01 6.579699999999999438e-02 -4.233720000000000261e-01
-2.032239999999999880e-01 3.309219999999999939e-01 -6.448209999999999775e-01
1.958270000000000011e-01 -4.967719999999999914e-01 -1.628789999999999960e-01
-3.788699999999999707e-02 5.842850000000000543e-01 -5.181019999999999515e-01
-5.751099999999999962e-02 2.631249999999999978e-01 -1.460629999999999984e-01
-3.420399999999999829e-02 5.333630000000000315e-01 -6.180489999999999595e-01
-6.954799999999999871e-02 -5.848839999999999595e-01 -3.562440000000000051e-01
-1.681970000000000132e-01 -9.993999999999999412e-03 5.086600000000000149e-02
2.622450000000000059e-01 -1.447099999999999949e-02 3.959469999999999934e-01
2.196579999999999921e-01 2.735500000000000154e-01 2.891090000000000049e-01
2.589529999999999887e-01 5.460299999999999876e-02 4.762250000000000094e-01
6.210000000000000242e-04 5.526929999999999898e-01 -4.613539999999999863e-01
-1.197830000000000006e-01 2.276420000000000110e-01 -3.121700000000000030e-01
2.409050000000000080e-01 1.869079999999999908e-01 2.372690000000000077e-01
1.844240000000000046e-01 1.781119999999999925e-01 -4.497899999999999815e-02
-7.525500000000000245e-02 -4.293489999999999807e-01 -2.732930000000000081e-01
7.784399999999999653e-02 3.760560000000000014e-01 -3.369219999999999993e-01
7.104900000000000104e-02 -3.308300000000000129e-02 4.337619999999999809e-01
-1.062560000000000032e-01 -6.474269999999999747e-01 -3.980060000000000264e-01
-1.308699999999999863e-01 1.597500000000000031e-01 -1.508000000000000009e-03
-1.571329999999999949e-01 1.448499999999999961e-02 5.353400000000000380e-01
2.739809999999999746e-01 1.608620000000000050e-01 3.869509999999999894e-01
1.839260000000000062e-01 -3.197360000000000202e-01 -2.222439999999999971e-01
-4.668000000000000274e-03 9.350400000000000378e-02 5.990140000000000464e-01
-1.057400000000000007e-01 -4.650730000000000142e-01 6.649920000000000275e-01
1.033519999999999994e-01 -3.607099999999999890e-02 4.356880000000000197e-01
2.702609999999999735e-01 1.908779999999999921e-01 4.042169999999999930e-01
-1.643499999999999961e-01 6.224969999999999670e-01 -7.177120000000000166e-01
-1.106950000000000017e-01 1.782320000000000015e-01 -9.638000000000000733e-03
-1.146439999999999959e-01 -5.175549999999999873e-01 6.699770000000000447e-01
-4.290999999999999676e-03 9.143600000000000338e-02 5.986629999999999452e-01
-2.932500000000000037e-02 -1.353669999999999873e-01 1.330270000000000064e-01
1.784040000000000070e-01 -5.309420000000000250e-01 5.718720000000000470e-01
-1.363820000000000032e-01 4.726330000000000253e-01 -7.278799999999999715e-01
-8.763100000000000056e-02 -6.353180000000000494e-01 -3.255299999999999860e-01
-2.299799999999999900e-01 5.822500000000000453e-01 -6.339660000000000295e-01
1.996330000000000049e-01 2.919149999999999801e-01 3.023779999999999801e-01
-3.647349999999999759e-01 3.161599999999999966e-01 -7.072540000000000493e-01
-8.671500000000000041e-02 -1.238630000000000009e-01 2.301699999999999927e-02
-1.647119999999999973e-01 9.478300000000000614e-02 1.639999999999999965e-03
-1.626160000000000105e-01 5.288999999999999951e-02 -2.329399999999999873e-02
-1.313070000000000070e-01 -5.082020000000000426e-01 7.083690000000000264e-01
1.840499999999999914e-01 -5.926999999999999977e-03 -1.109040000000000026e-01
-1.386899999999999938e-02 -1.369219999999999882e-01 1.392029999999999934e-01
1.699849999999999972e-01 -8.291999999999999371e-02 1.462279999999999969e-01
-1.504199999999999982e-01 1.267899999999999930e-02 -3.518549999999999733e-01
-1.292089999999999905e-01 1.520970000000000100e-01 -3.961699999999999944e-02
1.070880000000000026e-01 3.049439999999999928e-01 -3.266160000000000174e-01
-3.499570000000000181e-01 3.763580000000000259e-01 -7.879789999999999850e-01
2.181710000000000038e-01 -5.117700000000000027e-02 5.069099999999999995e-02
2.591649999999999787e-01 1.461089999999999889e-01 4.885619999999999963e-01
-7.005999999999999728e-02 -6.194770000000000554e-01 -3.800609999999999822e-01
-1.511709999999999998e-01 -6.876000000000000167e-02 4.960649999999999782e-01
4.043999999999999852e-03 2.899519999999999875e-01 4.750210000000000266e-01
1.689319999999999988e-01 -5.554000000000000048e-01 -1.656690000000000107e-01
-1.150990000000000069e-01 -2.269490000000000118e-01 -2.446810000000000096e-01
-1.624639999999999973e-01 5.385999999999999815e-02 2.128089999999999982e-01
-6.886399999999999466e-02 -4.788780000000000259e-01 6.847790000000000266e-01
-7.683199999999999752e-02 -2.171160000000000034e-01 -2.243509999999999949e-01
-1.016439999999999982e-01 1.911579999999999946e-01 2.376800000000000093e-02
-1.503110000000000002e-01 6.163499999999999535e-01 -7.107660000000000089e-01
2.443359999999999976e-01 1.101250000000000007e-01 2.787399999999999947e-02
-1.294829999999999870e-01 -7.716099999999999348e-02 1.257820000000000049e-01
-1.130189999999999945e-01 -4.448759999999999937e-01 7.152789999999999981e-01
1.100899999999999969e-02 2.648880000000000123e-01 1.469759999999999955e-01
8.961099999999999621e-02 2.697300000000000253e-01 -1.231199999999999933e-01
1.099009999999999987e-01 -2.449610000000000121e-01 -2.324330000000000007e-01
-4.042999999999999719e-03 -2.693600000000000161e-02 4.729760000000000075e-01
-8.928999999999999437e-02 1.730420000000000014e-01 -4.083769999999999900e-01
1.555370000000000086e-01 -1.585300000000000042e-01 -1.714370000000000061e-01
-8.383500000000000674e-02 2.475920000000000065e-01 -4.375049999999999772e-01
-7.127000000000000002e-02 2.419240000000000002e-01 -4.651620000000000199e-01
-1.512310000000000043e-01 9.456000000000000863e-03 -4.611200000000000021e-02
2.025700000000000070e-02 2.901239999999999930e-01 -1.167549999999999977e-01
-1.126179999999999959e-01 3.517549999999999844e-01 -6.182299999999999462e-01
1.967210000000000070e-01 1.450579999999999925e-01 -7.821400000000000574e-02
-1.839449999999999974e-01 5.442199999999999815e-02 4.347690000000000166e-01
-1.517050000000000065e-01 -1.564359999999999917e-01 5.346899999999999986e-01
-1.224279999999999952e-01 -4.042060000000000097e-01 -2.928689999999999904e-01
-1.658850000000000047e-01 8.640000000000000457e-02 -1.170999999999999949e-03
2.676990000000000203e-01 9.974999999999999492e-03 3.929819999999999980e-01
2.095210000000000128e-01 2.572160000000000002e-01 4.685500000000000220e-01
1.308539999999999981e-01 -8.801599999999999702e-02 -1.160780000000000006e-01
5.021000000000000289e-03 3.133250000000000202e-01 3.538100000000000134e-01
-3.517499999999999793e-02 -6.577000000000000381e-03 5.464299999999999713e-01
-1.775780000000000136e-01 3.293499999999999761e-01 -6.341660000000000075e-01
-1.012450000000000017e-01 -4.324479999999999991e-01 6.626429999999999820e-01
-1.693820000000000048e-01 -5.603600000000000247e-02 -2.844510000000000094e-01
-1.127829999999999944e-01 -4.392240000000000033e-01 -2.675400000000000000e-01
1.774860000000000049e-01 -2.861940000000000039e-01 5.319430000000000547e-01
-6.340300000000000102e-02 -3.917799999999999755e-02 3.912080000000000002e-01
-8.926299999999999513e-02 -1.108449999999999991e-01 -2.468300000000000008e-02
2.391139999999999932e-01 1.759989999999999888e-01 1.504890000000000116e-01
-1.027139999999999997e-01 2.542969999999999953e-01 -3.006019999999999803e-01
7.551499999999999879e-02 -2.529899999999999857e-02 3.661110000000000197e-01
