1.395627707242965698e-01 2.488161027431488037e-01 -1.786459237337112427e-01
1.417919695377349854e-01 2.442794740200042725e-01 -1.622352600097656250e-01
1.329889148473739624e-01 2.559142112731933594e-01 -1.658231467008590698e-01
1.345793157815933228e-01 2.519595921039581299e-01 -1.500966846942901611e-01
-3.995557427406311035e-01 3.387107551097869873e-01 -7.189893126487731934e-01
-3.902235031127929688e-01 3.413028717041015625e-01 -7.108505964279174805e-01
-3.968905508518218994e-01 3.507447540760040283e-01 -7.167367339134216309e-01
-3.876855671405792236e-01 3.528386354446411133e-01 -7.090847492218017578e-01
-1.560017764568328857e-01 -4.196426272392272949e-02 8.964714407920837402e-02
-1.571631133556365967e-01 -4.118590801954269409e-02 1.048974469304084778e-01
-1.623153388500213623e-01 -3.354793414473533630e-02 1.003271490335464478e-01
-1.637632250785827637e-01 -3.256924077868461609e-02 1.158754974603652954e-01
5.211519449949264526e-02 2.864718735218048096e-01 1.922790855169296265e-01
5.595219135284423828e-02 2.888239920139312744e-01 2.062732726335525513e-01
4.029955342411994934e-02 2.906853854656219482e-01 2.085979729890823364e-01
4.488173127174377441e-02 2.934179604053497314e-01 2.226348668336868286e-01
-8.015609532594680786e-02 2.856743931770324707e-01 -4.961810410022735596e-01
-8.170656114816665649e-02 2.835768163204193115e-01 -4.832837581634521484e-01
-8.635722100734710693e-02 2.948761284351348877e-01 -4.840447604656219482e-01
-8.791901171207427979e-02 2.932567298412322998e-01 -4.694984853267669678e-01
2.781010419130325317e-02 3.510787487030029297e-01 -2.087848186492919922e-01
2.978638373315334320e-02 3.445539474487304688e-01 -1.966467946767807007e-01
3.199975937604904175e-02 3.506076335906982422e-01 -1.975923627614974976e-01
3.258135914802551270e-02 3.440530896186828613e-01 -1.857505738735198975e-01
5.210247635841369629e-02 4.657594263553619385e-01 -4.868501126766204834e-01
5.222272500395774841e-02 4.639057815074920654e-01 -4.731538593769073486e-01
4.886237159371376038e-02 4.742598533630371094e-01 -4.763474464416503906e-01
4.894298687577247620e-02 4.724828004837036133e-01 -4.622924625873565674e-01
-1.128031536936759949e-01 5.606856346130371094e-01 -7.173978686332702637e-01
-1.062532961368560791e-01 5.606082677841186523e-01 -7.021182775497436523e-01
-1.137245520949363708e-01 5.715880990028381348e-01 -7.090214490890502930e-01
-1.079131737351417542e-01 5.717262625694274902e-01 -6.941087841987609863e-01
-1.737782359123229980e-01 -2.050647139549255371e-02 4.947421550750732422e-01
-1.719092577695846558e-01 -2.060623839497566223e-02 5.060563683509826660e-01
-1.737443953752517700e-01 -1.219475921243429184e-02 5.028610229492187500e-01
-1.716265976428985596e-01 -1.216633338481187820e-02 5.139752030372619629e-01
-1.088096648454666138e-01 -6.026694774627685547e-01 6.377068758010864258e-01
-1.144283562898635864e-01 -6.026996970176696777e-01 6.444164514541625977e-01
-1.156431213021278381e-01 -5.962550044059753418e-01 6.441513895988464355e-01
-1.178737953305244446e-01 -5.941581130027770996e-01 6.534495949745178223e-01
2.049834430217742920e-01 -3.308977186679840088e-02 1.713102310895919800e-01
2.010162472724914551e-01 -3.476971760392189026e-02 1.829959899187088013e-01
2.060088217258453369e-01 -2.594998851418495178e-02 1.827691346406936646e-01
2.016207277774810791e-01 -2.765765041112899780e-02 1.941060125827789307e-01
2.162062078714370728e-01 -2.877948880195617676e-01 5.273828506469726562e-01
2.093361318111419678e-01 -2.900083363056182861e-01 5.384203791618347168e-01
2.075438797473907471e-01 -2.801923155784606934e-01 5.335882902145385742e-01
2.003970742225646973e-01 -2.827653586864471436e-01 5.437652468681335449e-01
-1.723659783601760864e-01 2.304060198366641998e-02 1.550713032484054565e-01
-1.726592630147933960e-01 2.281714603304862976e-02 1.720999926328659058e-01
-1.773062348365783691e-01 3.548707067966461182e-02 1.647780537605285645e-01
-1.767828166484832764e-01 3.493971750140190125e-02 1.806898266077041626e-01
6.645464152097702026e-02 -5.515327304601669312e-02 -3.808656036853790283e-01
5.931104347109794617e-02 -6.174750253558158875e-02 -3.749237358570098877e-01
5.496851727366447449e-02 -5.257092788815498352e-02 -3.801954388618469238e-01
4.752070456743240356e-02 -5.824697390198707581e-02 -3.741678297519683838e-01
-1.887671202421188354e-01 6.011714339256286621e-01 -6.638662815093994141e-01
-1.833982020616531372e-01 6.013815402984619141e-01 -6.476765871047973633e-01
-1.933615207672119141e-01 6.077030897140502930e-01 -6.508698463439941406e-01
-1.879312992095947266e-01 6.081044077873229980e-01 -6.343465447425842285e-01
8.479112386703491211e-02 3.695130944252014160e-01 -4.070784747600555420e-01
8.301488310098648071e-02 3.686302006244659424e-01 -3.905908167362213135e-01
7.766541838645935059e-02 3.793444037437438965e-01 -3.970911204814910889e-01
7.629608362913131714e-02 3.779666423797607422e-01 -3.803865313529968262e-01
1.693578511476516724e-01 -4.789331257343292236e-01 -1.840807646512985229e-01
1.699133068323135376e-01 -4.832641482353210449e-01 -1.713647246360778809e-01
1.625652164220809937e-01 -4.678215384483337402e-01 -1.777201890945434570e-01
1.646597087383270264e-01 -4.719951152801513672e-01 -1.641479879617691040e-01
2.010242268443107605e-02 4.982294142246246338e-01 -5.571586489677429199e-01
2.517176046967506409e-02 4.974374771118164062e-01 -5.427542924880981445e-01
1.921912096440792084e-02 5.071864724159240723e-01 -5.455232858657836914e-01
2.324105799198150635e-02 5.056766271591186523e-01 -5.310944914817810059e-01
-1.159954592585563660e-01 -3.833272159099578857e-01 -3.133467137813568115e-01
-1.177708953619003296e-01 -3.856831192970275879e-01 -3.030571341514587402e-01
-1.183499395847320557e-01 -3.782420754432678223e-01 -3.039142191410064697e-01
-1.208390295505523682e-01 -3.801100254058837891e-01 -2.935467958450317383e-01
-6.638910621404647827e-02 -2.655754089355468750e-01 -3.241896331310272217e-01
-7.221091538667678833e-02 -2.689716219902038574e-01 -3.141572475433349609e-01
-7.198216766119003296e-02 -2.531167864799499512e-01 -3.189242780208587646e-01
-8.139164745807647705e-02 -2.590088844299316406e-01 -3.081567883491516113e-01
7.466485723853111267e-03 2.392267286777496338e-01 -4.986024796962738037e-01
2.522170543670654297e-04 2.264863252639770508e-01 -4.917321503162384033e-01
-7.238629274070262909e-03 2.464538812637329102e-01 -5.035722255706787109e-01
-1.432287506759166718e-02 2.338401824235916138e-01 -4.968482553958892822e-01
-1.249718740582466125e-01 2.225787565112113953e-02 -1.255240887403488159e-01
-1.259159892797470093e-01 2.207612432539463043e-02 -1.081398576498031616e-01
-1.299926042556762695e-01 3.461257368326187134e-02 -1.203198730945587158e-01
-1.309488862752914429e-01 3.422746807336807251e-02 -1.031866446137428284e-01
1.264674365520477295e-01 2.835363745689392090e-01 -3.216615617275238037e-01
1.275081336498260498e-01 2.813986837863922119e-01 -3.051273226737976074e-01
1.162662878632545471e-01 2.911487519741058350e-01 -3.073693513870239258e-01
1.174709349870681763e-01 2.887950837612152100e-01 -2.910661995410919189e-01
2.133353948593139648e-01 -2.314640879631042480e-01 4.965681731700897217e-01
2.113379240036010742e-01 -2.364484965801239014e-01 5.113277435302734375e-01
2.053851187229156494e-01 -2.234253734350204468e-01 5.030937194824218750e-01
2.034704089164733887e-01 -2.289036661386489868e-01 5.170146226882934570e-01
6.036985665559768677e-02 -1.480022370815277100e-01 -2.516010403633117676e-01
6.459758430719375610e-02 -1.494614928960800171e-01 -2.392993122339248657e-01
5.166829004883766174e-02 -1.449016034603118896e-01 -2.437948733568191528e-01
5.614363774657249451e-02 -1.461292803287506104e-01 -2.314606010913848877e-01
-1.087930500507354736e-01 3.857556581497192383e-01 -5.099540352821350098e-01
-1.097069010138511658e-01 3.836635053157806396e-01 -4.930400252342224121e-01
-1.131642758846282959e-01 3.944575488567352295e-01 -4.975043535232543945e-01
-1.142988502979278564e-01 3.927600085735321045e-01 -4.803328514099121094e-01
-5.253931134939193726e-02 -1.638928800821304321e-01 -2.919135391712188721e-01
-4.658322036266326904e-02 -1.677242368459701538e-01 -2.792619764804840088e-01
-4.852370172739028931e-02 -1.550835669040679932e-01 -2.866381406784057617e-01
-4.220914095640182495e-02 -1.584237813949584961e-01 -2.750475406646728516e-01
-5.477608367800712585e-02 -2.183186709880828857e-01 5.903347730636596680e-01
-5.164881050586700439e-02 -2.188591361045837402e-01 6.061345338821411133e-01
-5.000214278697967529e-02 -2.105879336595535278e-01 6.022781729698181152e-01
-4.835424199700355530e-02 -2.114252150058746338e-01 6.184908151626586914e-01
-8.828092366456985474e-02 -1.338199228048324585e-01 -2.031369656324386597e-01
-8.048247545957565308e-02 -1.297060847282409668e-01 -1.917652338743209839e-01
-9.426857531070709229e-02 -1.258368343114852905e-01 -1.950327157974243164e-01
-8.679829537868499756e-02 -1.213811784982681274e-01 -1.836391836404800415e-01
-6.223134696483612061e-02 -3.411839604377746582e-01 -2.654258608818054199e-01
-6.721083074808120728e-02 -3.424220979213714600e-01 -2.513033449649810791e-01
-6.659696996212005615e-02 -3.319455683231353760e-01 -2.559888064861297607e-01
-7.199294865131378174e-02 -3.330070376396179199e-01 -2.415147721767425537e-01
-1.694384217262268066e-01 6.234510242938995361e-02 -2.825394868850708008e-01
-1.706408411264419556e-01 5.974687635898590088e-02 -2.672491073608398438e-01
-1.679021418094635010e-01 7.164010405540466309e-02 -2.659546136856079102e-01
-1.697806119918823242e-01 6.950154900550842285e-02 -2.499775439500808716e-01
-1.281550079584121704e-01 2.500756680965423584e-01 3.039656579494476318e-01
-1.322651207447052002e-01 2.462794035673141479e-01 3.191268742084503174e-01
-1.239620149135589600e-01 2.559799253940582275e-01 3.239371478557586670e-01
-1.299930214881896973e-01 2.513270080089569092e-01 3.392987549304962158e-01
-1.495028436183929443e-01 -4.067195951938629150e-02 9.224357083439826965e-03
-1.497130841016769409e-01 -4.208930954337120056e-02 2.253394946455955505e-02
-1.546875536441802979e-01 -3.272028639912605286e-02 2.249241620302200317e-02
-1.550647467374801636e-01 -3.392238542437553406e-02 3.594722226262092590e-02
1.169639304280281067e-01 1.338540464639663696e-01 5.750144720077514648e-01
1.054382771253585815e-01 1.251467019319534302e-01 5.753533244132995605e-01
1.103087738156318665e-01 1.477343291044235229e-01 5.785805583000183105e-01
1.000205799937248230e-01 1.384767889976501465e-01 5.796278119087219238e-01
1.071205884218215942e-01 3.023853898048400879e-01 2.418527752161026001e-01
1.120197474956512451e-01 3.049785792827606201e-01 2.551951408386230469e-01
1.024468764662742615e-01 3.075083494186401367e-01 2.512477338314056396e-01
1.071058660745620728e-01 3.099204301834106445e-01 2.641868889331817627e-01
-3.270477652549743652e-01 3.053744137287139893e-01 -7.603483796119689941e-01
-3.197208344936370850e-01 3.047605454921722412e-01 -7.447341084480285645e-01
-3.336707949638366699e-01 3.066006004810333252e-01 -7.477371096611022949e-01
-3.264259397983551025e-01 3.089161813259124756e-01 -7.325097322463989258e-01
-1.417312622070312500e-01 7.889650762081146240e-02 5.391018390655517578e-01
-1.324698925018310547e-01 7.874949276447296143e-02 5.491399765014648438e-01
-1.389903277158737183e-01 8.952369540929794312e-02 5.446466803550720215e-01
-1.292448788881301880e-01 8.915130048990249634e-02 5.546580553054809570e-01
1.837112307548522949e-01 -1.789165288209915161e-01 3.822559714317321777e-01
1.821084767580032349e-01 -1.886134147644042969e-01 3.930696845054626465e-01
1.779534816741943359e-01 -1.683494597673416138e-01 3.780934214591979980e-01
1.769321709871292114e-01 -1.762080192565917969e-01 3.904016017913818359e-01
1.185014396905899048e-01 -3.648439049720764160e-02 3.961317241191864014e-01
1.200588494539260864e-01 -3.752454370260238647e-02 4.108703136444091797e-01
1.132051050662994385e-01 -3.003975003957748413e-02 4.099651575088500977e-01
1.155822128057479858e-01 -3.061751462519168854e-02 4.249089658260345459e-01
6.068822741508483887e-02 3.769304752349853516e-01 -2.754360139369964600e-01
5.962624028325080872e-02 3.741151392459869385e-01 -2.595325112342834473e-01
5.301953107118606567e-02 3.843305110931396484e-01 -2.678026854991912842e-01
5.214495211839675903e-02 3.805673420429229736e-01 -2.523283064365386963e-01
2.141444683074951172e-01 -5.367391705513000488e-01 -1.476128548383712769e-01
2.096344232559204102e-01 -5.402852892875671387e-01 -1.334279924631118774e-01
2.100572437047958374e-01 -5.235892534255981445e-01 -1.376096159219741821e-01
2.053652554750442505e-01 -5.261896848678588867e-01 -1.245646551251411438e-01
-1.244660764932632446e-01 -2.247496992349624634e-01 5.532848834991455078e-01
-1.260223835706710815e-01 -2.282303422689437866e-01 5.698230266571044922e-01
-1.308994293212890625e-01 -2.162328660488128662e-01 5.611999034881591797e-01
-1.321920752525329590e-01 -2.196906954050064087e-01 5.780997872352600098e-01
4.015168920159339905e-02 3.132471442222595215e-01 3.765470385551452637e-01
4.764680191874504089e-02 3.119511902332305908e-01 3.908488154411315918e-01
3.506815433502197266e-02 3.156811892986297607e-01 3.889465630054473877e-01
4.183287918567657471e-02 3.138092458248138428e-01 4.032250940799713135e-01
-9.429876226931810379e-04 -8.449740707874298096e-02 2.395549118518829346e-01
4.350419156253337860e-03 -7.837542891502380371e-02 2.530255913734436035e-01
-9.814046323299407959e-03 -7.301998883485794067e-02 2.545653283596038818e-01
-4.469119943678379059e-03 -6.713681668043136597e-02 2.678675651550292969e-01
-4.866337776184082031e-02 -2.898364961147308350e-01 -2.991340160369873047e-01
-4.724810272455215454e-02 -2.905814945697784424e-01 -2.864264249801635742e-01
-5.274079367518424988e-02 -2.804124355316162109e-01 -2.903832197189331055e-01
-5.458133295178413391e-02 -2.814892232418060303e-01 -2.757391333580017090e-01
-9.408427029848098755e-02 -4.578464329242706299e-01 6.595095396041870117e-01
-9.245838969945907593e-02 -4.606931805610656738e-01 6.700278520584106445e-01
-9.671717137098312378e-02 -4.451481103897094727e-01 6.638316512107849121e-01
-9.586321562528610229e-02 -4.489724934101104736e-01 6.751347780227661133e-01
-1.186956018209457397e-01 -4.021060168743133545e-01 -3.097694516181945801e-01
-1.204971745610237122e-01 -4.050138592720031738e-01 -2.983095347881317139e-01
-1.208967417478561401e-01 -3.945000767707824707e-01 -3.020544648170471191e-01
-1.232889592647552490e-01 -3.967947363853454590e-01 -2.908696532249450684e-01
-3.764084279537200928e-01 3.491892814636230469e-01 -7.077265977859497070e-01
-3.674589693546295166e-01 3.523607552051544189e-01 -7.003753781318664551e-01
-3.762262165546417236e-01 3.591782152652740479e-01 -7.045114636421203613e-01
-3.676750063896179199e-01 3.622801899909973145e-01 -6.972482800483703613e-01
-5.734561756253242493e-02 2.288183718919754028e-01 -4.907658994197845459e-01
-5.911859124898910522e-02 2.255358844995498657e-01 -4.798518717288970947e-01
-6.175774708390235901e-02 2.347377240657806396e-01 -4.804573059082031250e-01
-6.239274144172668457e-02 2.321477234363555908e-01 -4.695679545402526855e-01
-5.671384185552597046e-02 -2.226492613554000854e-01 -3.063678741455078125e-01
-6.499958783388137817e-02 -2.310747802257537842e-01 -2.963069081306457520e-01
-6.091738119721412659e-02 -2.092482894659042358e-01 -2.977820336818695068e-01
-6.491300463676452637e-02 -2.175752520561218262e-01 -2.857649028301239014e-01
2.729420959949493408e-01 1.239691749215126038e-01 4.472275972366333008e-01
2.694735229015350342e-01 1.215228885412216187e-01 4.639624059200286865e-01
2.704007923603057861e-01 1.354128569364547729e-01 4.640265703201293945e-01
2.662729322910308838e-01 1.332558691501617432e-01 4.797788858413696289e-01
1.050823405385017395e-01 5.398026853799819946e-02 -4.199899435043334961e-01
9.825892001390457153e-02 4.206957295536994934e-02 -4.162674248218536377e-01
9.581045061349868774e-02 6.255896389484405518e-02 -4.237400889396667480e-01
8.898004889488220215e-02 5.087843537330627441e-02 -4.200466275215148926e-01
1.589993834495544434e-01 2.401836216449737549e-01 -2.790281772613525391e-01
1.584140211343765259e-01 2.395366132259368896e-01 -2.611563205718994141e-01
1.529056578874588013e-01 2.469610720872879028e-01 -2.678379714488983154e-01
1.523120552301406860e-01 2.461985945701599121e-01 -2.499461323022842407e-01
-8.309192955493927002e-02 -6.443197727203369141e-01 7.025139331817626953e-01
-8.297467231750488281e-02 -6.430845856666564941e-01 7.185534834861755371e-01
-8.716432005167007446e-02 -6.331920623779296875e-01 7.182420492172241211e-01
-8.833362162113189697e-02 -6.317942738533020020e-01 7.328372597694396973e-01
2.015175670385360718e-01 2.834154367446899414e-01 4.067408442497253418e-01
2.031943798065185547e-01 2.813380360603332520e-01 4.193795323371887207e-01
1.934378296136856079e-01 2.848791182041168213e-01 4.157033860683441162e-01
1.948348283767700195e-01 2.822577655315399170e-01 4.284716248512268066e-01
-2.420604601502418518e-02 5.546066164970397949e-02 -4.146443307399749756e-01
-3.063092753291130066e-02 4.623969644308090210e-02 -4.110072851181030273e-01
-3.520760312676429749e-02 6.254107505083084106e-02 -4.162898063659667969e-01
-4.239679872989654541e-02 5.360925942659378052e-02 -4.129365086555480957e-01
1.337376534938812256e-01 2.725113034248352051e-01 -2.690135538578033447e-01
1.341140419244766235e-01 2.709404528141021729e-01 -2.503436207771301270e-01
1.250890195369720459e-01 2.787213921546936035e-01 -2.574877440929412842e-01
1.254348605871200562e-01 2.768945693969726562e-01 -2.395605444908142090e-01
4.931477084755897522e-02 -1.242483854293823242e-01 -3.164702355861663818e-01
4.842738062143325806e-02 -1.284611672163009644e-01 -3.025826811790466309e-01
3.604708984494209290e-02 -1.240439116954803467e-01 -3.092318475246429443e-01
3.692032396793365479e-02 -1.276144683361053467e-01 -2.952303290367126465e-01
-1.671661436557769775e-02 -5.035409331321716309e-02 4.171890914440155029e-01
-1.220661401748657227e-02 -5.233624950051307678e-02 4.336615204811096191e-01
-2.680350467562675476e-02 -4.490636289119720459e-02 4.282400310039520264e-01
-2.429290488362312317e-02 -4.787994548678398132e-02 4.441631138324737549e-01
-9.062217921018600464e-02 4.574145376682281494e-01 -6.712483763694763184e-01
-8.147999644279479980e-02 4.559564888477325439e-01 -6.582029461860656738e-01
-8.262120932340621948e-02 4.697237312793731689e-01 -6.633108258247375488e-01
-7.326653599739074707e-02 4.695309400558471680e-01 -6.508000493049621582e-01
-8.718903362751007080e-02 2.775596380233764648e-01 -4.022063016891479492e-01
-8.791959285736083984e-02 2.749948501586914062e-01 -3.871007263660430908e-01
-8.318762481212615967e-02 2.901001870632171631e-01 -3.900918364524841309e-01
-8.355408161878585815e-02 2.856168746948242188e-01 -3.744406700134277344e-01
-2.051218748092651367e-01 5.226445794105529785e-01 -5.813664793968200684e-01
-1.938242465257644653e-01 5.239624977111816406e-01 -5.737211704254150391e-01
-2.008650302886962891e-01 5.367947816848754883e-01 -5.790969133377075195e-01
-1.901144534349441528e-01 5.382550358772277832e-01 -5.710101723670959473e-01
-3.735612332820892334e-01 2.722362279891967773e-01 -7.512792348861694336e-01
-3.674084544181823730e-01 2.766251266002655029e-01 -7.377526760101318359e-01
-3.822885751724243164e-01 2.798697054386138916e-01 -7.403010129928588867e-01
-3.760337531566619873e-01 2.844484448432922363e-01 -7.268034219741821289e-01
5.338098108768463135e-02 3.827881217002868652e-01 -5.183590650558471680e-01
6.124939396977424622e-02 3.814716041088104248e-01 -5.018647909164428711e-01
5.615847185254096985e-02 3.949404060840606689e-01 -5.061981081962585449e-01
6.099269539117813110e-02 3.932930529117584229e-01 -4.892911612987518311e-01
-7.713186740875244141e-02 -6.196898967027664185e-02 2.288629263639450073e-01
-7.212191820144653320e-02 -5.775473266839981079e-02 2.428318709135055542e-01
-8.406296372413635254e-02 -5.211214721202850342e-02 2.387327700853347778e-01
-7.884921878576278687e-02 -4.855267703533172607e-02 2.519749701023101807e-01
-1.158117949962615967e-01 3.713456094264984131e-01 -6.680976748466491699e-01
-1.202648654580116272e-01 3.623000085353851318e-01 -6.509082913398742676e-01
-1.093084961175918579e-01 3.789912164211273193e-01 -6.539728641510009766e-01
-1.115470826625823975e-01 3.703791201114654541e-01 -6.387302279472351074e-01
-2.114691287279129028e-01 4.816620647907257080e-01 -5.804714560508728027e-01
-1.981022655963897705e-01 4.843795895576477051e-01 -5.715863108634948730e-01
-2.137706875801086426e-01 4.958438277244567871e-01 -5.816258788108825684e-01
-2.012465000152587891e-01 4.978093802928924561e-01 -5.734102129936218262e-01
-1.352966874837875366e-01 5.925039052963256836e-01 -7.386102080345153809e-01
-1.428104192018508911e-01 5.875965952873229980e-01 -7.269056439399719238e-01
-1.455211937427520752e-01 5.994692444801330566e-01 -7.330268025398254395e-01
-1.524996906518936157e-01 5.948569178581237793e-01 -7.214183211326599121e-01
2.119004167616367340e-02 5.257003307342529297e-01 -4.280065596103668213e-01
2.154936641454696655e-02 5.232416391372680664e-01 -4.123457074165344238e-01
8.494112640619277954e-03 5.310553908348083496e-01 -4.201485812664031982e-01
9.363063611090183258e-03 5.275107026100158691e-01 -4.038565158843994141e-01
1.934797465801239014e-01 1.771203428506851196e-02 -1.279128193855285645e-01
1.929122507572174072e-01 1.609761640429496765e-02 -1.160873472690582275e-01
1.952373236417770386e-01 2.546374313533306122e-02 -1.176858618855476379e-01
1.947657465934753418e-01 2.374629490077495575e-02 -1.054200828075408936e-01
-9.268843382596969604e-02 5.173442959785461426e-01 -6.805153489112854004e-01
-8.324542641639709473e-02 5.196539163589477539e-01 -6.700169444084167480e-01
-9.569336473941802979e-02 5.269702076911926270e-01 -6.758972406387329102e-01
-8.651194721460342407e-02 5.295489430427551270e-01 -6.655112504959106445e-01
-1.197797581553459167e-01 -5.004019141197204590e-01 -3.105960488319396973e-01
-1.158733889460563660e-01 -4.973696172237396240e-01 -2.987795174121856689e-01
-1.240927502512931824e-01 -4.876812100410461426e-01 -3.038425147533416748e-01
-1.217574328184127808e-01 -4.860099554061889648e-01 -2.928338050842285156e-01
-1.703326702117919922e-01 4.720137119293212891e-01 -7.573820948600769043e-01
-1.607299298048019409e-01 4.731728732585906982e-01 -7.480366230010986328e-01
-1.765271127223968506e-01 4.827789366245269775e-01 -7.563299536705017090e-01
-1.670431494712829590e-01 4.843592047691345215e-01 -7.469613552093505859e-01
1.971559375524520874e-01 -3.147754818201065063e-02 2.457391470670700073e-01
1.931036114692687988e-01 -3.587637469172477722e-02 2.570989727973937988e-01
2.023946046829223633e-01 -2.745930664241313934e-02 2.575619220733642578e-01
1.980114430189132690e-01 -3.335158154368400574e-02 2.680829763412475586e-01
1.763149946928024292e-01 6.517960876226425171e-02 -4.011849164962768555e-01
1.826446503400802612e-01 5.935807153582572937e-02 -3.915919363498687744e-01
1.790819913148880005e-01 7.709547877311706543e-02 -3.972200155258178711e-01
1.877830326557159424e-01 7.435787469148635864e-02 -3.843795359134674072e-01
-1.959301531314849854e-01 5.295910835266113281e-01 -7.629358172416687012e-01
-2.104216516017913818e-01 5.263893008232116699e-01 -7.557186484336853027e-01
-1.998488157987594604e-01 5.368923544883728027e-01 -7.553805708885192871e-01
-2.140193879604339600e-01 5.360034108161926270e-01 -7.454227805137634277e-01
1.212270185351371765e-01 -4.539094492793083191e-02 2.914640307426452637e-01
1.269061863422393799e-01 -4.447311908006668091e-02 3.043856620788574219e-01
1.169045940041542053e-01 -4.175400733947753906e-02 3.017282485961914062e-01
1.223256215453147888e-01 -4.109422862529754639e-02 3.149203956127166748e-01
1.554176211357116699e-01 -6.418310999870300293e-01 -1.441329270601272583e-01
1.584714204072952271e-01 -6.396419405937194824e-01 -1.309749037027359009e-01
1.530700474977493286e-01 -6.323590278625488281e-01 -1.341294199228286743e-01
1.563316583633422852e-01 -6.293943524360656738e-01 -1.213611289858818054e-01
-2.022075466811656952e-02 5.478562712669372559e-01 -5.907802581787109375e-01
-1.533773355185985565e-02 5.489286780357360840e-01 -5.766625404357910156e-01
-2.838056534528732300e-02 5.588588714599609375e-01 -5.825910568237304688e-01
-2.367512881755828857e-02 5.594432353973388672e-01 -5.676175951957702637e-01
-5.655449256300926208e-02 -1.105219498276710510e-01 4.745075702667236328e-01
-6.102831289172172546e-02 -1.149583458900451660e-01 4.883329570293426514e-01
-6.480861455202102661e-02 -1.034649014472961426e-01 4.812180399894714355e-01
-6.861367821693420410e-02 -1.069188714027404785e-01 4.955807030200958252e-01
2.386939674615859985e-01 -2.514421641826629639e-01 4.707177281379699707e-01
2.380382865667343140e-01 -2.561593055725097656e-01 4.870879054069519043e-01
2.350271344184875488e-01 -2.411801517009735107e-01 4.802108108997344971e-01
2.343953847885131836e-01 -2.466693669557571411e-01 4.967440068721771240e-01
2.173788286745548248e-02 -9.720179438591003418e-02 -3.520826399326324463e-01
1.660057529807090759e-02 -1.034399196505546570e-01 -3.428670167922973633e-01
1.288491021841764450e-02 -9.141733497381210327e-02 -3.516450822353363037e-01
6.222506053745746613e-03 -9.849181026220321655e-02 -3.439118862152099609e-01
2.899621240794658661e-02 2.442703247070312500e-01 1.249351724982261658e-02
3.549637272953987122e-02 2.447082549333572388e-01 2.773793786764144897e-02
2.443148009479045868e-02 2.457241266965866089e-01 3.222617134451866150e-02
3.136432543396949768e-02 2.463289797306060791e-01 4.830480739474296570e-02
2.026820480823516846e-01 -4.404562115669250488e-01 5.633265376091003418e-01
1.996231973171234131e-01 -4.501058459281921387e-01 5.770453214645385742e-01
1.941040456295013428e-01 -4.298618435859680176e-01 5.656773447990417480e-01
1.911140382289886475e-01 -4.386014640331268311e-01 5.799043774604797363e-01
2.483505383133888245e-02 2.420067489147186279e-01 5.478566884994506836e-01
1.974781602621078491e-02 2.342587858438491821e-01 5.572047233581542969e-01
1.091072242707014084e-02 2.422468811273574829e-01 5.491537451744079590e-01
6.149695720523595810e-03 2.337715625762939453e-01 5.602367520332336426e-01
-9.341932088136672974e-02 -1.525068730115890503e-01 6.166369915008544922e-01
-9.770859777927398682e-02 -1.623223572969436646e-01 6.242306828498840332e-01
-1.015006303787231445e-01 -1.450839489698410034e-01 6.147181391716003418e-01
-1.039944738149642944e-01 -1.544248908758163452e-01 6.211472153663635254e-01
-4.979839082807302475e-03 -2.857529185712337494e-02 3.407363295555114746e-01
-1.047363621182739735e-04 -3.004949539899826050e-02 3.546074032783508301e-01
-1.320447027683258057e-02 -2.224647067487239838e-02 3.537242412567138672e-01
-8.293717168271541595e-03 -2.373139001429080963e-02 3.676137924194335938e-01
-6.562638282775878906e-02 -4.519689083099365234e-01 7.153870463371276855e-01
-7.111995667219161987e-02 -4.558107256889343262e-01 7.258458137512207031e-01
-7.070294767618179321e-02 -4.429101645946502686e-01 7.191981673240661621e-01
-7.656262814998626709e-02 -4.475899338722229004e-01 7.281879782676696777e-01
-1.829064823687076569e-02 3.512292504310607910e-01 -5.671386718750000000e-01
-2.372055128216743469e-02 3.402607440948486328e-01 -5.596719980239868164e-01
-3.082173131406307220e-02 3.544564247131347656e-01 -5.709236264228820801e-01
-3.214032575488090515e-02 3.468260169029235840e-01 -5.623169541358947754e-01
-5.976152420043945312e-02 2.635578811168670654e-01 2.057776451110839844e-01
-6.471823155879974365e-02 2.646007537841796875e-01 2.195358276367187500e-01
-6.719547510147094727e-02 2.703435420989990234e-01 2.303247898817062378e-01
-7.137341797351837158e-02 2.713650763034820557e-01 2.450345605611801147e-01
-1.501620858907699585e-01 -5.631836876273155212e-02 4.582695066928863525e-01
-1.501449197530746460e-01 -5.833789706230163574e-02 4.719197154045104980e-01
-1.580649316310882568e-01 -4.507970809936523438e-02 4.632804393768310547e-01
-1.579981595277786255e-01 -4.719176888465881348e-02 4.772768914699554443e-01
-1.973777078092098236e-02 4.120813906192779541e-01 -5.846527814865112305e-01
-1.088860072195529938e-02 4.122300744056701660e-01 -5.762388706207275391e-01
-1.764741539955139160e-02 4.242115914821624756e-01 -5.855175256729125977e-01
-7.711818907409906387e-03 4.238794744014739990e-01 -5.759934186935424805e-01
-8.114847540855407715e-02 -5.042031407356262207e-02 5.854395031929016113e-01
-8.343666046857833862e-02 -5.945002660155296326e-02 5.919033288955688477e-01
-8.855731785297393799e-02 -3.519539162516593933e-02 5.852633714675903320e-01
-9.186597168445587158e-02 -4.474799335002899170e-02 5.912606716156005859e-01
-1.060407459735870361e-01 -4.825604557991027832e-01 6.598107814788818359e-01
-1.041472405195236206e-01 -4.866872131824493408e-01 6.702229380607604980e-01
-1.098536998033523560e-01 -4.703750014305114746e-01 6.648201942443847656e-01
-1.101183295249938965e-01 -4.745853543281555176e-01 6.756796836853027344e-01
-6.137935817241668701e-02 -3.618354797363281250e-01 -2.830619513988494873e-01
-6.510215252637863159e-02 -3.632025718688964844e-01 -2.711726129055023193e-01
-6.266132742166519165e-02 -3.540637195110321045e-01 -2.739405632019042969e-01
-6.710936129093170166e-02 -3.553195297718048096e-01 -2.619394063949584961e-01
1.406284868717193604e-01 2.517651617527008057e-01 -3.524434268474578857e-01
1.411535739898681641e-01 2.519861161708831787e-01 -3.334581255912780762e-01
1.353538334369659424e-01 2.635948359966278076e-01 -3.423282206058502197e-01
1.354503035545349121e-01 2.631209492683410645e-01 -3.234718143939971924e-01
2.937678061425685883e-02 3.069374859333038330e-01 -1.457586586475372314e-01
2.949300780892372131e-02 3.005341291427612305e-01 -1.298924535512924194e-01
2.113278582692146301e-02 3.080481290817260742e-01 -1.372986435890197754e-01
2.164136618375778198e-02 3.017909526824951172e-01 -1.216632276773452759e-01
2.525957524776458740e-01 -1.512385308742523193e-01 4.232994318008422852e-01
2.502109706401824951e-01 -1.554173976182937622e-01 4.390770196914672852e-01
2.519738376140594482e-01 -1.398940086364746094e-01 4.319074153900146484e-01
2.467062473297119141e-01 -1.433057337999343872e-01 4.480807185173034668e-01
-8.670344203710556030e-02 -2.851634919643402100e-01 6.774119734764099121e-01
-9.251169115304946899e-02 -2.883489131927490234e-01 6.912961602210998535e-01
-9.200260043144226074e-02 -2.702466249465942383e-01 6.842073798179626465e-01
-9.768624603748321533e-02 -2.744818329811096191e-01 6.982125043869018555e-01
2.231134474277496338e-01 -8.169523440301418304e-03 -5.831768736243247986e-03
2.259376794099807739e-01 -1.271792221814393997e-02 1.041376590728759766e-02
2.280734926462173462e-01 1.119587570428848267e-03 5.302558653056621552e-03
2.310456335544586182e-01 -3.476993646472692490e-03 2.069522440433502197e-02
1.732194274663925171e-01 -6.344221234321594238e-01 5.269979238510131836e-01
1.754018813371658325e-01 -6.338695287704467773e-01 5.398110151290893555e-01
1.670447438955307007e-01 -6.262717247009277344e-01 5.355198979377746582e-01
1.697867512702941895e-01 -6.252632737159729004e-01 5.477355718612670898e-01
-4.897835850715637207e-02 -1.718665510416030884e-01 6.129639744758605957e-01
-5.389576777815818787e-02 -1.741621047258377075e-01 6.287084221839904785e-01
-5.716928839683532715e-02 -1.619989722967147827e-01 6.196656823158264160e-01
-6.443440914154052734e-02 -1.666349917650222778e-01 6.330060362815856934e-01
-1.141059957444667816e-02 7.099907100200653076e-02 -4.206200540065765381e-01
-1.790272444486618042e-02 6.174463778734207153e-02 -4.167283773422241211e-01
-2.286829985678195953e-02 7.710300385951995850e-02 -4.209548830986022949e-01
-3.029186464846134186e-02 6.828745454549789429e-02 -4.167073965072631836e-01
-1.943150758743286133e-01 5.952678918838500977e-01 -6.003591418266296387e-01
-1.908672153949737549e-01 5.914413928985595703e-01 -5.863091945648193359e-01
-2.031838446855545044e-01 5.979939103126525879e-01 -5.982416272163391113e-01
-1.994903832674026489e-01 5.945255160331726074e-01 -5.837098956108093262e-01
1.454606801271438599e-01 -6.373338103294372559e-01 -1.466029435396194458e-01
1.480811536312103271e-01 -6.359299421310424805e-01 -1.331651061773300171e-01
1.424775868654251099e-01 -6.270076632499694824e-01 -1.374916881322860718e-01
1.452350616455078125e-01 -6.258765459060668945e-01 -1.235002130270004272e-01
-1.124693378806114197e-01 -2.153459787368774414e-01 -2.690420448780059814e-01
-1.105510592460632324e-01 -2.167115658521652222e-01 -2.512465417385101318e-01
-1.156638115644454956e-01 -2.060158997774124146e-01 -2.584634721279144287e-01
-1.126566380262374878e-01 -2.067199945449829102e-01 -2.397610098123550415e-01
1.589199602603912354e-01 -2.524334490299224854e-01 4.714097082614898682e-01
1.587610542774200439e-01 -2.549115121364593506e-01 4.872156381607055664e-01
1.512896567583084106e-01 -2.428291589021682739e-01 4.811474978923797607e-01
1.534401625394821167e-01 -2.454780936241149902e-01 4.964081943035125732e-01
-6.357276439666748047e-02 -8.918313682079315186e-02 5.219678878784179688e-01
-5.903201177716255188e-02 -8.968713134527206421e-02 5.373789072036743164e-01
-6.114297732710838318e-02 -8.128113299608230591e-02 5.328203439712524414e-01
-5.782961472868919373e-02 -8.232861012220382690e-02 5.483033657073974609e-01
-2.979051172733306885e-01 4.618858993053436279e-01 -6.149566173553466797e-01
-2.880914807319641113e-01 4.576314687728881836e-01 -6.025312542915344238e-01
-2.912424802780151367e-01 4.748205244541168213e-01 -6.065211296081542969e-01
-2.812332808971405029e-01 4.697779119014739990e-01 -5.950720906257629395e-01
1.788698881864547729e-01 -6.019237637519836426e-01 5.412044525146484375e-01
1.840570569038391113e-01 -5.982517600059509277e-01 5.518235564231872559e-01
1.733559221029281616e-01 -5.912947058677673340e-01 5.466008782386779785e-01
1.781086623668670654e-01 -5.879718661308288574e-01 5.569522380828857422e-01
2.130809128284454346e-01 -4.423905909061431885e-02 2.863702476024627686e-01
2.109998762607574463e-01 -5.063676089048385620e-02 2.957412302494049072e-01
2.124346345663070679e-01 -4.344244673848152161e-02 2.965178191661834717e-01
2.108968198299407959e-01 -4.944434762001037598e-02 3.060001730918884277e-01
-1.406056731939315796e-01 -6.082182005047798157e-02 4.474897086620330811e-01
-1.422206014394760132e-01 -6.389445066452026367e-02 4.609925150871276855e-01
-1.490091085433959961e-01 -5.315100401639938354e-02 4.536598324775695801e-01
-1.491445451974868774e-01 -5.552139133214950562e-02 4.677037298679351807e-01
2.126892954111099243e-01 -1.728951185941696167e-02 2.552983462810516357e-01
2.110026627779006958e-01 -2.294172346591949463e-02 2.669440507888793945e-01
2.181165218353271484e-01 -1.232823729515075684e-02 2.656094133853912354e-01
2.181048840284347534e-01 -1.817622035741806030e-02 2.775356471538543701e-01
2.057071775197982788e-01 -3.227984532713890076e-03 2.240062803030014038e-01
2.042455524206161499e-01 -7.732575293630361557e-03 2.372583001852035522e-01
2.078529596328735352e-01 5.888032261282205582e-03 2.335246205329895020e-01
2.072589546442031860e-01 7.771834498271346092e-04 2.471361458301544189e-01
-7.896582037210464478e-02 -2.915180660784244537e-02 2.680948972702026367e-01
-7.472208887338638306e-02 -2.437997609376907349e-02 2.809953391551971436e-01
-8.270139247179031372e-02 -2.087273076176643372e-02 2.822544574737548828e-01
-7.879137992858886719e-02 -1.586999185383319855e-02 2.957620620727539062e-01
8.874459564685821533e-02 2.470047324895858765e-01 -8.270019292831420898e-02
8.939563482999801636e-02 2.437782436609268188e-01 -6.919597089290618896e-02
8.012846112251281738e-02 2.506101429462432861e-01 -7.439057528972625732e-02
8.079572767019271851e-02 2.473581433296203613e-01 -6.110547482967376709e-02
1.332125514745712280e-01 -8.552172034978866577e-02 -3.527691960334777832e-01
1.383371204137802124e-01 -9.367260336875915527e-02 -3.393803238868713379e-01
1.221975535154342651e-01 -7.444835454225540161e-02 -3.613376915454864502e-01
1.216333881020545959e-01 -8.517844974994659424e-02 -3.514307439327239990e-01
-7.257513701915740967e-02 -4.732723236083984375e-01 -2.861684262752532959e-01
-8.047749102115631104e-02 -4.765635430812835693e-01 -2.743789851665496826e-01
-7.535269856452941895e-02 -4.603614211082458496e-01 -2.779340147972106934e-01
-8.338177949190139771e-02 -4.642336070537567139e-01 -2.656034529209136963e-01
1.747849434614181519e-01 -2.457317560911178589e-01 -1.919596940279006958e-01
1.714446991682052612e-01 -2.485205084085464478e-01 -1.771067380905151367e-01
1.708140224218368530e-01 -2.361444085836410522e-01 -1.803399622440338135e-01
1.652318537235260010e-01 -2.395374923944473267e-01 -1.675910800695419312e-01
2.129741162061691284e-01 -6.573167443275451660e-02 -2.746287286281585693e-01
2.104154080152511597e-01 -6.933882832527160645e-02 -2.572010457515716553e-01
2.092394232749938965e-01 -5.779834464192390442e-02 -2.610436975955963135e-01
2.061218023300170898e-01 -6.128667667508125305e-02 -2.433422952890396118e-01
-2.335204482078552246e-01 4.580045044422149658e-01 -7.705869674682617188e-01
-2.425839155912399292e-01 4.531564414501190186e-01 -7.686088085174560547e-01
-2.387380748987197876e-01 4.672054946422576904e-01 -7.691262364387512207e-01
-2.481604963541030884e-01 4.635200500488281250e-01 -7.665511369705200195e-01
2.714261412620544434e-01 1.860986649990081787e-01 4.219975471496582031e-01
2.697750329971313477e-01 1.847391724586486816e-01 4.395616948604583740e-01
2.664619386196136475e-01 2.033904641866683960e-01 4.327168166637420654e-01
2.646079361438751221e-01 2.013500928878784180e-01 4.504533410072326660e-01
-1.118625625967979431e-01 -4.526724815368652344e-01 6.603012084960937500e-01
-1.125168204307556152e-01 -4.566498696804046631e-01 6.715804338455200195e-01
-1.136484146118164062e-01 -4.421308636665344238e-01 6.652614474296569824e-01
-1.138827577233314514e-01 -4.468951821327209473e-01 6.774083971977233887e-01
-7.616163045167922974e-02 -5.493257045745849609e-01 -2.997597754001617432e-01
-7.635946571826934814e-02 -5.478979945182800293e-01 -2.869519889354705811e-01
-8.050031214952468872e-02 -5.353736281394958496e-01 -2.905189692974090576e-01
-7.998809218406677246e-02 -5.331859588623046875e-01 -2.789515256881713867e-01
-9.436484426259994507e-02 -1.159481331706047058e-01 4.624182879924774170e-01
-9.465184807777404785e-02 -1.218383088707923889e-01 4.764705300331115723e-01
-1.098113730549812317e-01 -1.075702831149101257e-01 4.651174247264862061e-01
-1.113143861293792725e-01 -1.131121814250946045e-01 4.795621037483215332e-01
-1.382631212472915649e-01 -1.012665219604969025e-02 -1.919250488281250000e-01
-1.327018886804580688e-01 -1.045280043035745621e-02 -1.791047751903533936e-01
-1.385581940412521362e-01 5.616907146759331226e-04 -1.813988387584686279e-01
-1.333642303943634033e-01 1.610373146831989288e-04 -1.689140498638153076e-01
2.229333221912384033e-01 -2.442605197429656982e-01 4.854220449924468994e-01
2.220570147037506104e-01 -2.484711557626724243e-01 5.004377365112304688e-01
2.193646728992462158e-01 -2.361951470375061035e-01 4.958822429180145264e-01
2.176046073436737061e-01 -2.406260669231414795e-01 5.104067921638488770e-01
1.694631427526473999e-01 2.393753230571746826e-01 1.259487867355346680e-01
1.713650077581405640e-01 2.400182038545608521e-01 1.387994140386581421e-01
1.626046597957611084e-01 2.462089210748672485e-01 1.355439722537994385e-01
1.648836433887481689e-01 2.472071498632431030e-01 1.488610953092575073e-01
1.614328473806381226e-01 -1.076352521777153015e-01 6.747137755155563354e-02
1.554904580116271973e-01 -1.110241934657096863e-01 8.140780031681060791e-02
1.610384881496429443e-01 -1.020864769816398621e-01 8.241127431392669678e-02
1.553008407354354858e-01 -1.057796776294708252e-01 9.653440862894058228e-02
2.968999557197093964e-02 -1.431535333395004272e-01 1.196158677339553833e-01
3.320927545428276062e-02 -1.410703510046005249e-01 1.327163279056549072e-01
2.337961643934249878e-02 -1.385859102010726929e-01 1.378230452537536621e-01
2.625728584825992584e-02 -1.363262087106704712e-01 1.498578488826751709e-01
1.999203860759735107e-02 2.672134637832641602e-01 5.191739797592163086e-01
1.789386756718158722e-02 2.592250406742095947e-01 5.304011702537536621e-01
5.571953020989894867e-03 2.645852565765380859e-01 5.231878161430358887e-01
3.823977196589112282e-03 2.560864388942718506e-01 5.358206033706665039e-01
1.280539631843566895e-01 2.182153612375259399e-01 5.591740608215332031e-01
1.205961406230926514e-01 2.090343385934829712e-01 5.662822723388671875e-01
1.177754551172256470e-01 2.264065146446228027e-01 5.580427646636962891e-01
1.103184446692466736e-01 2.180160284042358398e-01 5.653485059738159180e-01
2.172560691833496094e-01 -8.817287161946296692e-03 -4.630083590745925903e-02
2.179194390773773193e-01 -1.421817019581794739e-02 -3.021228685975074768e-02
2.246864587068557739e-01 -1.552534289658069611e-03 -3.229153901338577271e-02
2.262699007987976074e-01 -5.823597311973571777e-03 -1.577015221118927002e-02
-1.471817642450332642e-01 5.957440286874771118e-02 -7.753235101699829102e-02
-1.491503119468688965e-01 5.571653693914413452e-02 -6.342462450265884399e-02
-1.523422002792358398e-01 6.347659230232238770e-02 -6.305785477161407471e-02
-1.546705663204193115e-01 6.053925305604934692e-02 -4.918244481086730957e-02
-7.127226889133453369e-02 -1.343690603971481323e-01 7.311496138572692871e-02
-7.008443772792816162e-02 -1.334383934736251831e-01 9.017679095268249512e-02
-7.875269651412963867e-02 -1.262226402759552002e-01 8.654502034187316895e-02
-7.759864628314971924e-02 -1.251301765441894531e-01 1.037988066673278809e-01
1.670689582824707031e-01 -5.853675603866577148e-01 -1.818199604749679565e-01
1.569439321756362915e-01 -5.867836475372314453e-01 -1.708747297525405884e-01
1.640933305025100708e-01 -5.735101699829101562e-01 -1.744378954172134399e-01
1.522315740585327148e-01 -5.745131969451904297e-01 -1.650518178939819336e-01
-1.453507840633392334e-01 -3.970833495259284973e-02 1.627112179994583130e-01
-1.431063711643218994e-01 -3.853994607925415039e-02 1.789070814847946167e-01
-1.530436873435974121e-01 -2.718743309378623962e-02 1.725215762853622437e-01
-1.495236009359359741e-01 -2.600066363811492920e-02 1.890913248062133789e-01
4.529459029436111450e-02 -3.388068452477455139e-02 3.952187597751617432e-01
4.994037374854087830e-02 -3.254543989896774292e-02 4.089134633541107178e-01
3.982825204730033875e-02 -3.145395219326019287e-02 4.089764952659606934e-01
4.466333612799644470e-02 -3.021213226020336151e-02 4.232188463211059570e-01
-5.558129772543907166e-02 3.537397086620330811e-01 -5.892050266265869141e-01
-5.539878457784652710e-02 3.474746048450469971e-01 -5.794742703437805176e-01
-5.405449122190475464e-02 3.614110350608825684e-01 -5.876892805099487305e-01
-5.067856237292289734e-02 3.566540777683258057e-01 -5.771870017051696777e-01
6.289702653884887695e-02 2.429157346487045288e-01 1.718435203656554222e-03
6.704310327768325806e-02 2.430076748132705688e-01 1.611030101776123047e-02
5.415537953376770020e-02 2.447707206010818481e-01 1.602491922676563263e-02
5.861555784940719604e-02 2.446921914815902710e-01 3.127698600292205811e-02
6.176790222525596619e-02 2.924375534057617188e-01 4.647955298423767090e-01
6.481075286865234375e-02 2.887421846389770508e-01 4.789149463176727295e-01
4.974058642983436584e-02 2.911903560161590576e-01 4.729699194431304932e-01
5.256418138742446899e-02 2.876245975494384766e-01 4.859768748283386230e-01
-5.204904358834028244e-03 3.060779571533203125e-01 4.080373048782348633e-01
-4.824264906346797943e-04 3.059816360473632812e-01 4.197671711444854736e-01
-1.258775033056735992e-02 3.038873076438903809e-01 4.192104637622833252e-01
-7.767955306917428970e-03 3.037800490856170654e-01 4.309747517108917236e-01
-1.153470799326896667e-01 -2.478123307228088379e-01 -2.564333975315093994e-01
-1.123976036906242371e-01 -2.482852637767791748e-01 -2.396519184112548828e-01
-1.165488362312316895e-01 -2.359114736318588257e-01 -2.462382763624191284e-01
-1.138315051794052124e-01 -2.365454733371734619e-01 -2.293193489313125610e-01
-9.013135731220245361e-02 2.893099784851074219e-01 -4.219647645950317383e-01
-9.126774221658706665e-02 2.883828878402709961e-01 -4.063777625560760498e-01
-9.274109452962875366e-02 2.988399863243103027e-01 -4.108896851539611816e-01
-9.311131387948989868e-02 2.974913716316223145e-01 -3.955322206020355225e-01
1.097703073173761368e-02 1.251889765262603760e-01 -4.396781623363494873e-01
4.389644600450992584e-03 1.166922375559806824e-01 -4.350235462188720703e-01
9.648068808019161224e-04 1.303277909755706787e-01 -4.396696984767913818e-01
-5.859770346432924271e-03 1.228254958987236023e-01 -4.346876144409179688e-01
-6.672979146242141724e-02 -2.433991432189941406e-01 6.714729666709899902e-01
-7.282694429159164429e-02 -2.470558434724807739e-01 6.834733486175537109e-01
-7.418604940176010132e-02 -2.331137359142303467e-01 6.785489916801452637e-01
-8.066598325967788696e-02 -2.394368946552276611e-01 6.887443065643310547e-01
-1.325797438621520996e-01 9.462586604058742523e-05 -3.717167675495147705e-01
-1.393921226263046265e-01 -1.842818805016577244e-03 -3.588599264621734619e-01
-1.424581259489059448e-01 8.978331461548805237e-03 -3.623756170272827148e-01
-1.490020900964736938e-01 7.695485837757587433e-03 -3.483216166496276855e-01
-3.743946552276611328e-01 3.769275248050689697e-01 -7.900760769844055176e-01
-3.865422904491424561e-01 3.775445520877838135e-01 -7.799772024154663086e-01
-3.772042989730834961e-01 3.907631039619445801e-01 -7.767445445060729980e-01
-3.867869675159454346e-01 3.909591734409332275e-01 -7.651600837707519531e-01
-1.144915893673896790e-01 1.936850324273109436e-02 5.610503554344177246e-01
-1.100688800215721130e-01 1.929578743875026703e-02 5.700264573097229004e-01
-1.113597601652145386e-01 2.897021919488906860e-02 5.638842582702636719e-01
-1.070034727454185486e-01 2.902157045900821686e-02 5.726107954978942871e-01
-9.046537429094314575e-02 2.651362717151641846e-01 -4.452894330024719238e-01
-9.201432019472122192e-02 2.638524174690246582e-01 -4.314624965190887451e-01
-9.507136791944503784e-02 2.701409757137298584e-01 -4.360656142234802246e-01
-9.676560759544372559e-02 2.692313492298126221e-01 -4.217610359191894531e-01
-2.025266923010349274e-02 -1.238559335470199585e-01 1.683159917593002319e-01
-1.918115280568599701e-02 -1.199518963694572449e-01 1.815425753593444824e-01
-2.609276585280895233e-02 -1.175246685743331909e-01 1.808131784200668335e-01
-2.508549019694328308e-02 -1.137487664818763733e-01 1.938149183988571167e-01
1.690964251756668091e-01 2.889010608196258545e-01 4.400742650032043457e-01
1.704855412244796753e-01 2.850751578807830811e-01 4.514457881450653076e-01
1.595445424318313599e-01 2.919799387454986572e-01 4.458544850349426270e-01
1.611009091138839722e-01 2.879046201705932617e-01 4.567795395851135254e-01
1.466174870729446411e-01 -6.013056635856628418e-02 2.265615463256835938e-01
1.448041647672653198e-01 -6.152058765292167664e-02 2.394283115863800049e-01
1.415353417396545410e-01 -5.727751925587654114e-02 2.435975521802902222e-01
1.432948708534240723e-01 -5.747980624437332153e-02 2.557629048824310303e-01
1.024371385574340820e-01 -2.422529645264148712e-02 4.772485792636871338e-01
1.092034578323364258e-01 -1.918173953890800476e-02 4.897697567939758301e-01
1.007463335990905762e-01 -1.370149478316307068e-02 4.908277988433837891e-01
1.073652207851409912e-01 -7.577958982437849045e-03 5.034636259078979492e-01
5.468436330556869507e-02 -2.108331769704818726e-03 4.808789789676666260e-01
6.064012274146080017e-02 2.435328206047415733e-03 4.939128756523132324e-01
4.835947602987289429e-02 8.530605584383010864e-03 4.914029240608215332e-01
5.284814536571502686e-02 1.260262448340654373e-02 5.038836002349853516e-01
-1.498630195856094360e-01 3.302060365676879883e-01 -6.321322321891784668e-01
-1.473210006952285767e-01 3.314995467662811279e-01 -6.196341514587402344e-01
-1.568989157676696777e-01 3.324026763439178467e-01 -6.185267567634582520e-01
-1.544996351003646851e-01 3.336429893970489502e-01 -6.066663265228271484e-01
5.986739322543144226e-02 3.131675720214843750e-01 3.506862223148345947e-01
6.696964800357818604e-02 3.125525712966918945e-01 3.670855462551116943e-01
