-7.501170000000000337e-01 -2.632099999999999995e-01 -3.347339999999999760e-01
-6.466049999999999853e-01 5.341989999999999794e-01 1.716119999999999868e-01
6.907630000000000159e-01 -2.239839999999999887e-01 -4.616370000000000196e-01
-1.822169999999999901e-01 5.747269999999999879e-01 6.194429999999999659e-01
5.140799999999999814e-01 2.157060000000000088e-01 6.465999999999999526e-01
-7.363960000000000505e-01 -2.991329999999999822e-01 -8.125300000000000578e-02
5.871269999999999545e-01 -6.899170000000000025e-01 7.746699999999999420e-02
-5.166799999999999865e-02 -5.714679999999999760e-01 -7.309130000000000349e-01
6.179710000000000480e-01 2.257780000000000065e-01 5.326389999999999736e-01
-1.637000000000000122e-01 -4.051569999999999894e-01 -7.881230000000000180e-01
-6.520510000000000472e-01 -3.540539999999999798e-01 3.702779999999999960e-01
-7.413490000000000357e-01 4.540199999999999791e-02 5.674810000000000132e-01
-2.156780000000000086e-01 7.546659999999999480e-01 2.513029999999999986e-01
-8.474199999999999788e-02 -8.336740000000000261e-01 -4.445199999999999846e-02
2.254009999999999903e-01 4.768919999999999826e-01 -6.740920000000000245e-01
-8.000939999999999719e-01 1.323689999999999867e-01 -2.490620000000000056e-01
6.600799999999999723e-02 -7.504859999999999864e-01 2.622419999999999751e-01
5.649680000000000257e-01 6.471099999999999630e-01 1.643129999999999868e-01
-5.386170000000000124e-01 4.039730000000000265e-01 -4.337949999999999862e-01
5.045770000000000532e-01 3.102969999999999895e-01 -5.615099999999999536e-01
3.547540000000000138e-01 3.317109999999999781e-01 6.899170000000000025e-01
-7.465009999999999701e-01 2.726770000000000027e-01 3.387199999999999933e-02
4.399089999999999945e-01 4.505390000000000228e-01 4.859359999999999791e-01
-5.651899999999999702e-01 7.128560000000000452e-01 -9.833999999999999686e-02
1.938060000000000060e-01 6.746790000000000287e-01 4.607109999999999816e-01
6.588310000000000555e-01 -1.865269999999999984e-01 5.310289999999999733e-01
1.166070000000000023e-01 8.470159999999999911e-01 9.514999999999999153e-03
-7.963740000000000263e-01 4.148099999999999704e-02 5.385309999999999819e-01
6.866330000000000489e-01 -4.294129999999999892e-01 -8.566999999999999962e-03
8.183059999999999778e-01 -8.467800000000000327e-02 -2.652010000000000201e-01
8.853700000000000458e-02 7.104190000000000227e-01 3.671320000000000139e-01
4.379790000000000072e-01 -2.544420000000000015e-01 6.833620000000000250e-01
-9.589999999999999566e-03 7.961850000000000316e-01 -1.426000000000000045e-01
-3.370890000000000275e-01 6.829330000000000123e-01 3.563589999999999813e-01
4.503139999999999921e-01 2.766499999999999862e-02 6.786510000000000042e-01
8.498329999999999496e-01 -2.139999999999999975e-03 -4.630000000000000088e-02
6.428540000000000365e-01 8.991300000000000681e-02 6.051060000000000327e-01
-4.912889999999999757e-01 -2.987770000000000148e-01 -5.863180000000000058e-01
-7.455880000000000285e-01 -2.750679999999999792e-01 -2.454919999999999880e-01
-2.469449999999999978e-01 8.323209999999999775e-01 4.799400000000000194e-02
-4.143299999999999761e-02 -5.030130000000000434e-01 -8.319389999999999841e-01
-2.841110000000000024e-01 4.903359999999999941e-01 -6.019379999999999731e-01
-3.743690000000000073e-01 7.054810000000000247e-01 -2.965349999999999930e-01
-1.937099999999999933e-02 -8.347959999999999825e-01 -4.151400000000000229e-02
2.726999999999999980e-01 -8.193310000000000315e-01 -8.199499999999999844e-02
5.985249999999999737e-01 3.704959999999999920e-01 4.073660000000000059e-01
-8.027399999999999813e-02 -4.045920000000000072e-01 8.199880000000000502e-01
5.895909999999999762e-01 -6.162039999999999740e-01 1.705939999999999956e-01
1.618739999999999901e-01 -6.265060000000000073e-01 -5.868290000000000450e-01
5.205929999999999724e-01 2.991409999999999902e-01 -5.566499999999999782e-01
-5.105730000000000546e-01 1.473379999999999967e-01 6.556319999999999926e-01
7.814100000000000490e-01 -1.812789999999999957e-01 -1.758299999999999863e-01
-6.674280000000000213e-01 4.796900000000000053e-01 -1.023600000000000031e-02
6.915019999999999500e-01 4.166650000000000076e-01 2.132390000000000119e-01
4.925399999999999778e-01 2.603960000000000163e-01 -6.234490000000000309e-01
-4.754680000000000017e-01 -2.112640000000000073e-01 6.690409999999999968e-01
-6.728180000000000271e-01 4.135659999999999892e-01 -2.900019999999999820e-01
6.448190000000000310e-01 5.365069999999999562e-01 1.950570000000000082e-01
-4.102379999999999916e-01 -6.078519999999999479e-01 3.582960000000000034e-01
-8.054639999999999578e-01 -1.183079999999999965e-01 -4.071609999999999951e-01
2.684130000000000127e-01 -6.993930000000000424e-01 -3.960020000000000207e-01
-1.459030000000000049e-01 -4.869370000000000087e-01 -7.435420000000000362e-01
8.331380000000000452e-01 4.585399999999999893e-02 1.049670000000000047e-01
-5.363459999999999894e-01 -7.739979999999999638e-01 -6.604000000000000148e-02
3.436649999999999983e-01 -7.960920000000000218e-01 -1.428419999999999968e-01
-2.285310000000000119e-01 1.745539999999999869e-01 -7.633649999999999602e-01
3.383599999999999941e-01 7.338660000000000183e-01 -3.041610000000000147e-01
5.690939999999999888e-01 7.371280000000000054e-01 -2.555100000000000079e-02
9.033499999999999863e-02 -2.464770000000000016e-01 -8.161460000000000381e-01
-2.701399999999999912e-01 -6.124239999999999684e-01 -4.938210000000000099e-01
-6.888090000000000046e-01 -4.237150000000000083e-01 2.591699999999999907e-02
4.061210000000000098e-01 -4.585350000000000259e-01 -5.117289999999999894e-01
-2.913310000000000066e-01 5.343869999999999454e-01 -5.506640000000000423e-01
7.604370000000000296e-01 -2.361979999999999913e-01 -2.548699999999999855e-01
4.685909999999999798e-01 -7.822189999999999976e-01 -1.255759999999999932e-01
-7.809760000000000035e-01 1.824149999999999938e-01 -2.829479999999999773e-01
6.400850000000000151e-01 3.884369999999999767e-01 -3.478620000000000045e-01
2.291050000000000031e-01 -2.387950000000000073e-01 -7.631459999999999910e-01
1.449809999999999988e-01 -2.026080000000000103e-01 7.952749999999999542e-01
-6.377629999999999688e-01 -6.387600000000000222e-02 -6.070499999999999785e-01
8.481990000000000363e-01 6.419000000000000226e-03 1.566110000000000002e-01
4.203120000000000189e-01 6.217209999999999681e-01 -3.343510000000000093e-01
-2.421389999999999931e-01 8.297930000000000028e-01 5.461300000000000182e-02
-5.087450000000000028e-01 -5.969170000000000309e-01 2.707240000000000202e-01
8.043609999999999927e-01 8.041900000000000437e-02 -4.916030000000000122e-01
-2.672039999999999971e-01 -1.540469999999999895e-01 -7.485910000000000064e-01
-6.723780000000000312e-01 7.894700000000000328e-02 -5.938290000000000513e-01
-7.506369999999999987e-01 -1.292300000000000115e-01 4.965160000000000129e-01
-7.913670000000000426e-01 -1.552080000000000126e-01 -1.842860000000000054e-01
4.649829999999999797e-01 2.743189999999999795e-01 -6.370829999999999549e-01
-5.449450000000000127e-01 -7.072859999999999703e-01 1.241529999999999995e-01
-7.344119999999999537e-01 -3.043270000000000142e-01 -6.118300000000000127e-02
-5.135960000000000525e-01 -5.855690000000000062e-01 -2.772189999999999932e-01
-5.103379999999999583e-01 -1.144639999999999963e-01 -6.557220000000000271e-01
5.271590000000000442e-01 -3.494450000000000056e-01 -4.997829999999999773e-01
-5.501160000000000494e-01 -2.739989999999999926e-01 -5.522679999999999811e-01
4.346690000000000276e-01 5.825970000000000315e-01 3.591199999999999948e-01
-1.296779999999999877e-01 -7.378120000000000234e-01 -2.954280000000000239e-01
-1.909369999999999956e-01 -8.172700000000000520e-01 8.739099999999999646e-02
1.123780000000000057e-01 5.694820000000000437e-01 -6.945249999999999480e-01
7.367200000000000137e-02 -1.728359999999999896e-01 8.225109999999999921e-01
5.876270000000000104e-01 5.498499999999999915e-02 -6.262020000000000364e-01
-4.097129999999999939e-01 -6.732390000000000319e-01 -2.934320000000000261e-01
7.948700000000000210e-02 3.604600000000000165e-02 -8.202890000000000459e-01
1.357480000000000075e-01 7.405559999999999921e-01 -2.882440000000000002e-01
6.689439999999999831e-01 2.752310000000000034e-01 -4.322079999999999811e-01
2.974040000000000017e-01 -7.489440000000000541e-01 -2.662789999999999879e-01
-8.476479999999999571e-01 -7.860000000000000667e-03 4.576549999999999785e-01
-2.169669999999999932e-01 4.218160000000000243e-01 7.376049999999999551e-01
6.268590000000000551e-01 3.589289999999999980e-01 -3.905959999999999988e-01
-2.213549999999999962e-01 -2.193799999999999917e-01 -7.661059999999999537e-01
-3.333579999999999877e-01 -1.198160000000000058e-01 -7.233209999999999917e-01
-6.713770000000000016e-01 4.693519999999999914e-01 1.664110000000000034e-01
-3.297979999999999801e-01 8.276360000000000383e-01 -6.025699999999999806e-02
-2.815440000000000165e-01 2.783530000000000171e-01 7.431140000000000523e-01
-6.104730000000000434e-01 6.177089999999999526e-01 -1.482100000000000084e-01
7.915790000000000326e-01 -1.546530000000000127e-01 9.436899999999999455e-02
5.639530000000000376e-01 2.449719999999999953e-01 5.674639999999999684e-01
3.009620000000000073e-01 -6.523729999999999807e-01 4.230530000000000124e-01
-4.545899999999999941e-02 -6.011889999999999734e-01 6.531109999999999971e-01
-4.206200000000000216e-02 -6.277199999999999447e-01 5.836500000000000021e-01
-3.678560000000000163e-01 3.722530000000000006e-01 -6.362750000000000350e-01
-1.246219999999999967e-01 -4.089309999999999889e-01 -8.030530000000000168e-01
2.216730000000000089e-01 1.608360000000000067e-01 -7.659839999999999982e-01
-5.588419999999999499e-01 -6.464750000000000218e-01 -1.710740000000000038e-01
3.178590000000000027e-01 -2.337869999999999948e-01 -7.292410000000000281e-01
8.012129999999999530e-01 1.294399999999999995e-01 4.335410000000000097e-01
-6.531289999999999596e-01 3.507830000000000115e-01 -3.724700000000000233e-01
3.396500000000000213e-02 -5.657900000000000151e-01 -7.457730000000000192e-01
-1.222519999999999996e-01 6.506699999999999706e-01 5.235589999999999966e-01
-7.693999999999999728e-01 -2.127280000000000004e-01 3.728360000000000007e-01
-8.152589999999999559e-01 -9.265800000000000425e-02 -2.038190000000000002e-01
4.240789999999999837e-01 3.969960000000000155e-01 5.553109999999999991e-01
-1.749920000000000087e-01 5.224940000000000140e-01 -6.789009999999999767e-01
-9.321899999999999631e-02 -1.209419999999999940e-01 8.150450000000000195e-01
6.345079999999999609e-01 5.470279999999999587e-01 -1.948489999999999944e-01
4.997659999999999880e-01 4.277639999999999776e-01 -4.488539999999999752e-01
7.789270000000000360e-01 -1.877810000000000035e-01 -7.051799999999999735e-02
7.009940000000000060e-01 1.991279999999999994e-01 4.762660000000000227e-01
-5.446499999999999952e-02 -6.884190000000000031e-01 4.247369999999999757e-01
-4.943139999999999756e-01 -7.001300000000000578e-02 -6.618420000000000414e-01
-3.405110000000000081e-01 -7.514079999999999648e-01 -2.598289999999999766e-01
8.290199999999999791e-01 5.663699999999999984e-02 -2.529800000000000104e-02
1.780789999999999873e-01 5.669199999999999795e-01 6.313900000000000068e-01
3.569039999999999990e-01 1.555479999999999918e-01 -7.143270000000000453e-01
3.099669999999999925e-01 3.667179999999999884e-01 6.996989999999999599e-01
-1.644990000000000063e-01 -6.944829999999999615e-01 -4.088589999999999725e-01
-1.714729999999999865e-01 6.683909999999999574e-01 4.771659999999999791e-01
-4.595650000000000013e-01 6.297160000000000535e-01 2.871040000000000258e-01
-5.940999999999999615e-01 4.429199999999999804e-01 -3.393639999999999990e-01
-3.654890000000000083e-01 -6.851369999999999960e-01 3.257590000000000208e-01
7.142309999999999492e-01 -2.434800000000000020e-01 4.186739999999999906e-01
-3.475840000000000041e-01 6.120240000000000125e-01 4.167779999999999818e-01
2.507880000000000109e-01 -3.839540000000000175e-01 7.416439999999999699e-01
-2.753160000000000052e-01 3.515019999999999811e-01 -7.454929999999999612e-01
-1.814989999999999937e-01 5.093800000000000550e-01 -6.855080000000000062e-01
-2.985360000000000236e-01 -1.813700000000000034e-01 -7.366239999999999455e-01
-3.576819999999999999e-01 2.184339999999999893e-01 7.140300000000000535e-01
-4.710999999999999910e-03 -5.311360000000000525e-01 -8.365089999999999471e-01
-6.780770000000000408e-01 2.563440000000000163e-01 -4.419640000000000235e-01
7.028750000000000275e-01 -6.993399999999999617e-02 -5.821779999999999733e-01
-1.730420000000000014e-01 -2.791529999999999845e-01 -7.845550000000000024e-01
-8.376050000000000439e-01 -3.415800000000000086e-02 5.060599999999999821e-02
3.193429999999999880e-01 2.538309999999999733e-01 7.286740000000000439e-01
2.648349999999999871e-01 8.057940000000000103e-01 1.174440000000000067e-01
-1.910340000000000094e-01 4.741409999999999791e-01 -7.112119999999999553e-01
2.713999999999999746e-01 6.732230000000000159e-01 4.317639999999999811e-01
4.084769999999999790e-01 7.119999999999999593e-04 6.946290000000000520e-01
1.894490000000000063e-01 -4.064610000000000167e-01 7.782900000000000373e-01
1.570050000000000057e-01 6.627030000000000420e-01 -4.920599999999999974e-01
2.050099999999999839e-02 8.404779999999999474e-01 -2.663499999999999895e-02
-4.144900000000000251e-01 3.151320000000000232e-01 6.467659999999999521e-01
-6.590169999999999639e-01 -1.786210000000000020e-01 -5.387499999999999512e-01
-7.931359999999999522e-01 -1.505789999999999906e-01 1.268100000000000060e-01
7.979640000000000066e-01 -1.379440000000000111e-01 3.877099999999999991e-01
-5.157939999999999747e-01 6.938100000000000378e-01 1.667829999999999868e-01
-1.638850000000000029e-01 7.016510000000000247e-01 -3.900899999999999923e-01
2.332000000000000045e-02 5.478570000000000384e-01 7.927309999999999635e-01
8.012730000000000130e-01 1.292820000000000080e-01 4.191779999999999951e-01
-1.843069999999999986e-01 7.800899999999999501e-01 -1.847350000000000103e-01
7.288580000000000059e-01 3.188610000000000055e-01 -1.635459999999999969e-01
3.423359999999999737e-01 -7.935339999999999616e-01 1.495380000000000043e-01
-8.293490000000000029e-01 5.577599999999999919e-02 2.808530000000000193e-01
2.054640000000000077e-01 -2.343790000000000040e-01 -7.721740000000000270e-01
4.089470000000000049e-01 -1.500279999999999947e-01 6.944489999999999830e-01
-7.035829999999999584e-01 -2.361389999999999878e-01 -4.366639999999999966e-01
-2.356530000000000014e-01 -4.277730000000000143e-01 -7.129600000000000382e-01
4.549889999999999768e-01 7.516000000000000111e-03 -6.768650000000000500e-01
1.969309999999999949e-01 -3.814779999999999838e-01 -7.754330000000000389e-01
-7.008959999999999635e-01 3.805720000000000214e-01 -2.949149999999999827e-01
5.003060000000000285e-01 -5.736289999999999445e-01 3.024479999999999946e-01
2.732289999999999996e-01 -1.181839999999999974e-01 7.462900000000000089e-01
2.337680000000000036e-01 -7.020060000000000189e-01 3.891589999999999772e-01
-4.278370000000000228e-01 -8.233759999999999968e-01 7.140699999999999825e-02
-3.764159999999999728e-01 6.562980000000000480e-01 -3.436690000000000023e-01
-5.944430000000000547e-01 1.848219999999999863e-01 -5.971260000000000456e-01
-2.062819999999999931e-01 5.148810000000000331e-01 6.552219999999999711e-01
-6.060499999999999915e-02 6.730099999999999971e-02 8.275040000000000173e-01
6.027400000000000119e-02 -3.092599999999999794e-01 -8.276299999999999768e-01
7.691249999999999476e-01 2.134479999999999988e-01 -1.500849999999999962e-01
7.392539999999999667e-01 -2.916540000000000243e-01 -2.107880000000000031e-01
6.235619999999999497e-01 3.677860000000000018e-01 -3.850370000000000181e-01
3.714900000000000146e-02 2.952210000000000112e-01 -8.364629999999999566e-01
-4.804400000000000337e-02 -5.754240000000000466e-01 7.205610000000000070e-01
3.308799999999999936e-02 -7.665389999999999704e-01 2.202210000000000001e-01
-4.841989999999999905e-01 -2.149139999999999939e-01 6.657049999999999912e-01
6.773379999999999956e-01 4.537530000000000174e-01 -1.740000000000000010e-04
-1.039830000000000060e-01 5.002640000000000420e-01 7.721390000000000198e-01
-5.070949999999999624e-01 4.365879999999999761e-01 -4.327019999999999755e-01
1.004069999999999963e-01 6.642989999999999728e-01 -4.878810000000000091e-01
2.842310000000000114e-01 2.143639999999999990e-01 7.420879999999999699e-01
-2.816339999999999955e-01 4.542740000000000111e-01 6.404760000000000453e-01
4.187060000000000226e-01 -7.307029999999999914e-01 -2.269780000000000131e-01
6.222000000000000100e-03 2.189439999999999997e-01 -8.482739999999999725e-01
5.105849999999999556e-01 -2.237490000000000034e-01 -6.420510000000000383e-01
-1.894689999999999985e-01 -7.996670000000000167e-01 1.334879999999999955e-01
8.449659999999999949e-01 -1.488199999999999940e-02 -2.255409999999999915e-01
7.598880000000000079e-01 -2.376350000000000129e-01 -7.839400000000000535e-02
8.059960000000000457e-01 -1.169130000000000030e-01 3.214159999999999795e-01
5.471110000000000140e-01 2.525660000000000127e-01 5.767090000000000272e-01
-1.960669999999999913e-01 2.697089999999999765e-01 -7.757619999999999516e-01
-4.796340000000000048e-01 5.226279999999999815e-01 -3.741240000000000121e-01
1.611910000000000009e-01 7.521759999999999557e-01 -2.578210000000000224e-01
4.909000000000000030e-01 7.394749999999999934e-01 1.460079999999999989e-01
-7.221440000000000081e-01 -3.364420000000000188e-01 -5.754800000000000193e-02
4.860249999999999848e-01 -6.107780000000000431e-01 2.795819999999999972e-01
3.598500000000000310e-02 -8.676899999999999891e-02 8.369069999999999565e-01
-8.114029999999999854e-01 1.027529999999999971e-01 -4.127120000000000233e-01
-4.017049999999999788e-01 -7.103509999999999547e-01 -2.643309999999999826e-01
-7.882909999999999640e-01 1.632599999999999885e-01 -3.640740000000000087e-01
-4.409129999999999994e-01 -2.602579999999999893e-01 -6.752160000000000384e-01
-3.753100000000000186e-02 -7.691249999999999476e-01 2.134479999999999988e-01
3.461569999999999925e-01 2.818390000000000062e-01 -7.184329999999999883e-01
1.680860000000000132e-01 -5.191879999999999828e-01 6.891129999999999756e-01
5.756229999999999958e-01 -1.398109999999999908e-01 6.307859999999999578e-01
-6.255260000000000264e-01 2.388550000000000118e-01 5.120050000000000434e-01
-2.151520000000000099e-01 -8.032669999999999533e-01 -1.240610000000000046e-01
-3.543839999999999768e-01 6.399679999999999813e-01 -3.820330000000000115e-01
1.159919999999999979e-01 -3.724069999999999880e-01 8.063479999999999537e-01
-5.262809999999999988e-01 -4.429890000000000216e-01 4.071150000000000047e-01
-2.119129999999999903e-01 -6.792299999999999727e-02 7.697110000000000340e-01
-7.704069999999999530e-01 -7.266100000000000336e-02 5.333170000000000410e-01
4.917130000000000112e-01 -6.607060000000000155e-01 2.239659999999999984e-01
-5.320300000000000029e-01 -5.784199999999999758e-02 6.474339999999999540e-01
-7.253920000000000368e-01 3.279380000000000073e-01 2.284519999999999884e-01
-1.879780000000000062e-01 -8.264289999999999692e-01 -6.341800000000000215e-02
3.298209999999999753e-01 6.958839999999999471e-01 3.506790000000000185e-01
-5.012280000000000069e-01 4.829760000000000164e-01 3.921789999999999998e-01
7.730280000000000484e-01 -2.032279999999999920e-01 -9.603899999999999937e-02
-5.500920000000000254e-01 1.470800000000000059e-02 -6.405359999999999943e-01
4.901710000000000234e-01 4.035190000000000166e-01 -4.826940000000000119e-01
-3.167670000000000208e-01 -6.064910000000000023e-01 -4.531270000000000020e-01
-4.009820000000000051e-01 -3.417499999999999982e-01 -6.336540000000000505e-01
1.993550000000000044e-01 -5.176230000000000553e-01 -6.594079999999999941e-01
3.157300000000000106e-01 -2.466649999999999954e-01 7.300539999999999807e-01
4.391570000000000196e-01 6.134500000000000508e-01 3.237760000000000082e-01
-2.574569999999999914e-01 1.355689999999999951e-01 7.523149999999999560e-01
7.415110000000000312e-01 2.857430000000000248e-01 -2.785839999999999983e-01
1.411630000000000107e-01 -6.380419999999999980e-01 5.566229999999999789e-01
5.070899999999999713e-02 4.778950000000000142e-01 8.312840000000000229e-01
-1.683540000000000036e-01 6.715729999999999755e-01 4.688399999999999790e-01
-2.193319999999999992e-01 1.812400000000000122e-01 7.668779999999999486e-01
6.635680000000000467e-01 4.897960000000000091e-01 7.509200000000000597e-02
-2.054840000000000000e-01 4.419939999999999980e-01 7.289099999999999469e-01
-7.495290000000000008e-01 2.566800000000000193e-01 -3.701780000000000070e-01
-3.887419999999999765e-01 -7.767420000000000435e-01 -1.935010000000000063e-01
-5.065439999999999943e-01 3.348940000000000250e-01 5.349479999999999791e-01
6.592329999999999579e-01 -1.523039999999999949e-01 -5.648520000000000207e-01
-3.085900000000000101e-02 -5.707919999999999661e-01 -7.326829999999999732e-01
4.354129999999999945e-01 -4.392699999999999938e-01 -5.017019999999999813e-01
3.743110000000000048e-01 7.274519999999999875e-01 -2.746230000000000060e-01
-3.124950000000000228e-01 -5.084079999999999711e-01 -5.554820000000000313e-01
1.820980000000000099e-01 -6.459030000000000049e-01 5.360369999999999857e-01
3.854469999999999841e-01 -8.134620000000000184e-01 9.736300000000000510e-02
5.574599999999999694e-02 -5.071639999999999482e-01 8.134749999999999481e-01
-2.019140000000000101e-01 -7.645049999999999901e-01 -2.255459999999999965e-01
-2.949959999999999805e-01 -6.864440000000000541e-01 -3.949449999999999905e-01
-3.390230000000000188e-01 6.932779999999999498e-01 3.440830000000000277e-01
-2.828680000000000083e-01 5.507659999999999778e-01 -5.427499999999999547e-01
-8.028039999999999621e-01 1.252719999999999945e-01 1.146950000000000053e-01
4.851570000000000049e-01 -1.335659999999999903e-01 6.653390000000000137e-01
3.954269999999999730e-01 8.320100000000000273e-01 4.880899999999999822e-02
3.905159999999999743e-01 6.158850000000000158e-01 3.699839999999999796e-01
5.690200000000000119e-02 -7.543279999999999985e-01 -2.521869999999999945e-01
-7.589470000000000383e-01 2.401000000000000079e-01 -2.610270000000000090e-01
8.390109999999999513e-01 3.047800000000000162e-02 1.415859999999999896e-01
-7.340489999999999515e-01 -3.052750000000000186e-01 1.679309999999999969e-01
8.484140000000000015e-01 -5.853999999999999829e-03 2.344729999999999870e-01
3.493269999999999986e-01 4.390169999999999906e-01 5.880410000000000359e-01
-5.943599999999999994e-01 -1.687569999999999903e-01 -6.132720000000000393e-01
4.277340000000000031e-01 5.497969999999999802e-01 3.988550000000000151e-01
-6.138240000000000363e-01 -3.000950000000000006e-01 4.624639999999999862e-01
-5.658999999999999586e-01 6.936620000000000008e-01 -1.168219999999999953e-01
2.428899999999999948e-01 4.750079999999999858e-01 6.584879999999999622e-01
5.104619999999999713e-01 -2.560760000000000258e-01 6.098440000000000527e-01
-5.298810000000000464e-01 -7.958429999999999671e-01 -5.065999999999999670e-02
-8.195289999999999520e-01 -8.147699999999999387e-02 -3.988329999999999931e-01
1.543809999999999905e-01 2.062710000000000099e-01 -7.916830000000000256e-01
-5.235969999999999791e-01 1.884299999999999864e-01 -6.506560000000000121e-01
-5.208829999999999849e-01 2.170799999999999952e-01 -6.384210000000000163e-01
-5.962070000000000425e-01 -4.914129999999999887e-01 -2.887640000000000207e-01
-2.210570000000000035e-01 -8.276200000000000223e-01 6.030100000000000043e-02
1.540150000000000130e-01 7.643100000000000449e-01 -2.260570000000000079e-01
2.178300000000000028e-02 2.668039999999999856e-01 -8.423310000000000519e-01
-6.183670000000000000e-01 6.081450000000000466e-01 -3.382899999999999796e-02
3.402080000000000104e-01 2.318119999999999903e-01 7.207059999999999578e-01
8.247050000000000214e-01 -6.792800000000000227e-02 -3.779500000000000220e-02
6.204399999999999915e-01 -5.930860000000000021e-01 -1.628620000000000068e-01
4.537050000000000249e-01 -4.913699999999999735e-01 -4.313100000000000267e-01
8.237119999999999997e-01 7.052700000000000635e-02 -4.322499999999999953e-02
-5.736820000000000253e-01 -5.465219999999999523e-01 2.561820000000000208e-01
-5.510150000000000325e-01 7.396129999999999649e-01 -8.575599999999999890e-02
5.416459999999999608e-01 -4.663869999999999960e-01 -3.683500000000000107e-01
3.110859999999999737e-01 7.484200000000000574e-02 -7.318289999999999518e-01
8.185270000000000046e-01 8.409999999999999420e-02 -1.733240000000000058e-01
3.427709999999999924e-01 5.513059999999999627e-01 4.823069999999999857e-01
-7.284629999999999717e-01 -3.198949999999999849e-01 1.499230000000000007e-01
2.475179999999999880e-01 -3.472740000000000271e-01 7.561120000000000063e-01
8.228879999999999528e-01 7.268399999999999861e-02 2.598550000000000026e-01
-5.191350000000000131e-01 -5.609119999999999662e-01 2.963359999999999883e-01
-3.675450000000000106e-01 -6.652219999999999800e-01 3.436150000000000038e-01
2.329330000000000012e-01 8.375089999999999479e-01 -3.441000000000000308e-02
-3.902300000000000213e-01 5.260259999999999936e-01 -4.601279999999999815e-01
1.469499999999999973e-01 4.154950000000000032e-01 7.945229999999999793e-01
-5.507050000000000001e-01 7.852749999999999453e-01 1.827799999999999911e-02
5.710799999999999904e-02 -8.381760000000000321e-01 -3.266199999999999659e-02
-5.090310000000000112e-01 5.665649999999999853e-01 3.007870000000000266e-01
-6.705899999999999361e-02 7.504999999999999449e-01 2.622059999999999946e-01
5.532550000000000523e-01 -5.087869999999999893e-01 3.143429999999999835e-01
3.320670000000000011e-01 -4.804490000000000149e-01 5.638689999999999536e-01
-6.588039999999999452e-01 2.685660000000000269e-01 -4.490140000000000242e-01
-3.197479999999999767e-01 -3.305989999999999762e-01 7.260379999999999612e-01
3.510369999999999879e-01 6.473290000000000433e-01 -3.780180000000000207e-01
4.394219999999999793e-01 -4.380580000000000029e-01 4.989040000000000141e-01
-4.153410000000000157e-01 7.146590000000000442e-01 2.463859999999999939e-01
-2.929340000000000277e-01 -1.141220000000000012e-01 7.387650000000000050e-01
6.330059999999999576e-01 -5.698100000000000387e-01 8.470999999999999364e-03
-8.466430000000000344e-01 1.049300000000000059e-02 7.951800000000000535e-02
-5.919229999999999769e-01 5.130289999999999573e-01 -2.714300000000000046e-01
6.567410000000000192e-01 -5.076709999999999834e-01 1.880280000000000007e-01
-1.164899999999999963e-02 6.122969999999999802e-01 6.240320000000000311e-01
-7.770930000000000337e-01 -1.119320000000000037e-01 4.873609999999999887e-01
-7.911820000000000519e-01 -1.556919999999999971e-01 2.594110000000000027e-01
-7.760580000000000256e-01 1.069319999999999993e-01 4.933960000000000012e-01
7.597450000000000037e-01 2.380089999999999983e-01 -1.394309999999999994e-01
1.300469999999999959e-01 -4.097669999999999924e-01 8.009810000000000541e-01
7.649939999999999518e-01 2.242669999999999941e-01 1.390329999999999899e-01
-2.594730000000000092e-01 7.620280000000000387e-01 -2.320309999999999873e-01
-5.168409999999999949e-01 -4.539590000000000014e-01 -4.055840000000000001e-01
1.017320000000000030e-01 1.422070000000000001e-01 -8.117929999999999868e-01
-7.836400000000000310e-02 -7.060910000000000242e-01 3.784629999999999939e-01
-3.667290000000000272e-01 -5.902589999999999781e-01 -4.193970000000000198e-01
-4.500599999999999740e-02 -5.633550000000000502e-01 -7.521499999999999853e-01
-1.564200000000000035e-01 7.598970000000000447e-01 2.376129999999999909e-01
-2.278360000000000107e-01 6.978509999999999991e-01 -4.000400000000000067e-01
-2.908680000000000154e-01 3.945200000000000096e-02 7.395540000000000447e-01
2.226219999999999866e-01 2.454050000000000120e-01 -7.656220000000000248e-01
-8.088600000000000234e-01 -1.094139999999999974e-01 -3.028970000000000273e-01
-7.584009999999999918e-01 2.415289999999999937e-01 -6.819899999999999574e-02
3.360000000000000209e-01 3.542370000000000241e-01 -6.861469999999999514e-01
-7.833040000000000003e-01 1.763190000000000035e-01 -8.149499999999999800e-02
5.333820000000000228e-01 -6.935200000000000253e-01 -1.494850000000000068e-01
-2.947839999999999905e-01 -2.077390000000000070e-01 7.380579999999999918e-01
4.782029999999999892e-01 2.482070000000000110e-01 6.499749999999999694e-01
3.399349999999999872e-01 2.575339999999999852e-01 -7.208099999999999508e-01
3.638669999999999960e-01 -1.831400000000000042e-02 7.116670000000000496e-01
3.156749999999999834e-01 -3.949409999999999865e-01 -6.657690000000000552e-01
-5.810099999999999987e-02 -8.444589999999999597e-01 1.621099999999999972e-02
-5.962640000000000162e-01 6.468409999999999993e-01 -1.332840000000000136e-01
6.910209999999999964e-01 -2.542349999999999888e-01 4.311309999999999865e-01
6.305089999999999861e-01 -5.763479999999999714e-01 -9.048399999999999499e-02
6.735790000000000388e-01 -1.449729999999999908e-01 -5.578340000000000520e-01
-6.039419999999999789e-01 6.459009999999999474e-01 7.764000000000000068e-03
7.271260000000000501e-01 -2.765750000000000153e-01 3.726860000000000173e-01
-8.151629999999999709e-01 9.290800000000000447e-02 -1.468099999999999961e-01
-7.555509999999999726e-01 2.489870000000000139e-01 -1.498450000000000060e-01
-6.786470000000000002e-01 -2.644020000000000259e-01 -4.333370000000000277e-01
-6.306140000000000079e-01 -2.361360000000000126e-01 -5.096359999999999779e-01
-2.528090000000000059e-01 5.020379999999999843e-01 6.215370000000000061e-01
4.686239999999999850e-01 7.843849999999999989e-01 1.233780000000000016e-01
-6.291930000000000023e-01 -5.797949999999999493e-01 -1.550670000000000104e-01
-1.588600000000000012e-01 -5.822479999999999878e-01 6.352820000000000134e-01
8.268379999999999619e-01 -6.234800000000000064e-02 -9.864699999999999858e-02
-1.832529999999999992e-01 5.221580000000000110e-01 6.709770000000000456e-01
9.665799999999999392e-02 -5.492320000000000535e-01 7.304939999999999767e-01
-1.885680000000000134e-01 4.523920000000000163e-01 -7.354270000000000529e-01
-7.133000000000000451e-02 7.960629999999999651e-01 1.429189999999999905e-01
-6.828769999999999563e-01 -4.392499999999999738e-01 1.989879999999999982e-01
5.893439999999999790e-01 -6.841129999999999711e-01 2.786299999999999888e-02
-5.964249999999999829e-01 1.384999999999999946e-03 6.228420000000000067e-01
1.375359999999999916e-01 -8.805000000000000326e-03 -7.981200000000000516e-01
4.499940000000000051e-01 -7.137769999999999948e-01 -2.126170000000000004e-01
6.383309999999999818e-01 5.255880000000000551e-01 -2.124639999999999862e-01
4.826070000000000082e-01 -2.318649999999999878e-01 6.619129999999999736e-01
-9.561999999999999666e-02 3.222039999999999904e-01 8.141279999999999628e-01
-2.169810000000000072e-01 -3.976020000000000110e-01 -7.618049999999999544e-01
1.862350000000000116e-01 -3.334469999999999934e-01 7.795170000000000154e-01
6.353440000000000198e-01 3.669720000000000204e-01 -3.740669999999999829e-01
-3.935910000000000242e-01 -3.870109999999999939e-01 5.957839999999999803e-01
-2.861400000000000055e-01 6.865850000000000009e-01 -4.036600000000000188e-01
7.805320000000000036e-01 -8.616699999999999360e-02 -5.096850000000000547e-01
6.032699999999999868e-02 3.045220000000000149e-01 8.276099999999999568e-01
-2.158789999999999876e-01 -7.117280000000000273e-01 -3.637059999999999738e-01
3.730100000000000082e-02 6.180320000000000258e-01 -6.090229999999999810e-01
-6.384800000000000197e-02 6.039630000000000276e-01 -6.458479999999999777e-01
-4.717600000000000265e-02 -7.673299999999999566e-01 -2.181490000000000096e-01
-6.829699999999999660e-02 7.302990000000000315e-01 -3.150890000000000080e-01
-3.193300000000000305e-02 -7.481449999999999489e-01 -2.683719999999999994e-01
7.442069999999999519e-01 2.786830000000000140e-01 4.189199999999999868e-02
6.529049999999999576e-01 -5.177089999999999748e-01 -1.165110000000000035e-01
5.823720000000000008e-01 -5.865160000000000373e-01 -2.075019999999999920e-01
-4.037330000000000085e-01 -7.531400000000000594e-02 -6.964399999999999480e-01
-8.972900000000000320e-02 7.255390000000000450e-01 3.275520000000000098e-01
-3.069620000000000126e-01 -7.513389999999999791e-01 2.600109999999999921e-01
4.479110000000000036e-01 -7.759120000000000461e-01 1.525600000000000012e-01
7.970279999999999587e-01 1.018349999999999950e-01 -4.775209999999999733e-01
-2.436100000000000071e-02 -3.214620000000000255e-01 8.413469999999999560e-01
-4.200490000000000057e-01 -7.706849999999999534e-01 1.856500000000000095e-01
5.077600000000000169e-02 -7.592379999999999685e-01 2.393379999999999952e-01
-4.489130000000000065e-01 7.762989999999999613e-01 -1.511709999999999998e-01
8.127959999999999630e-01 9.910700000000000065e-02 -3.132050000000000112e-01
-2.375000000000000028e-02 5.996040000000000258e-01 -6.572599999999999554e-01
-1.805829999999999935e-01 6.616509999999999891e-01 -4.948150000000000048e-01
-2.593289999999999762e-01 7.939690000000000358e-01 -1.483980000000000021e-01
-2.877799999999999803e-01 6.806029999999999580e-01 -4.080030000000000046e-01
-6.623719999999999608e-01 4.929279999999999773e-01 3.204900000000000110e-02
-7.434209999999999985e-01 -2.807410000000000183e-01 1.424179999999999890e-01
2.288300000000000056e-01 5.913089999999999735e-01 5.562470000000000470e-01
8.361239999999999783e-01 3.803499999999999936e-02 -1.157610000000000028e-01
-3.610410000000000008e-01 -6.212919999999999554e-01 -3.940529999999999866e-01
-3.290509999999999824e-01 -2.076000000000000154e-03 7.249659999999999993e-01
-2.299999999999999961e-02 -6.183710000000000040e-01 -6.081349999999999811e-01
1.916700000000000070e-01 -1.281229999999999869e-01 -7.774410000000000487e-01
1.425450000000000050e-01 -7.441210000000000324e-01 2.789090000000000180e-01
7.362699999999999800e-02 -6.866929999999999978e-01 4.292560000000000264e-01
-3.808719999999999883e-01 -2.586510000000000198e-01 7.051709999999999923e-01
8.042660000000000364e-01 1.214439999999999964e-01 1.875729999999999897e-01
4.074880000000000169e-01 7.911300000000000276e-02 -6.950060000000000127e-01
-5.381230000000000180e-01 5.957649999999999890e-01 2.424969999999999903e-01
6.724620000000000042e-01 -4.665119999999999822e-01 -1.148490000000000066e-01
1.077599999999999947e-01 -3.830069999999999864e-01 -8.094909999999999606e-01
6.102769999999999584e-01 1.929240000000000121e-01 5.731870000000000021e-01
2.948040000000000105e-01 8.102890000000000370e-01 1.056700000000000000e-01
6.425499999999999545e-01 -2.876480000000000148e-01 4.461870000000000003e-01
-5.501999999999999946e-03 2.653300000000000103e-01 8.485489999999999977e-01
-6.393020000000000369e-01 4.762170000000000014e-01 2.608659999999999868e-01
-8.212960000000000260e-01 7.685100000000000264e-02 1.305139999999999911e-01
-2.133900000000000033e-02 6.896149999999999780e-01 4.216039999999999788e-01
2.187000000000000055e-01 7.323619999999999575e-01 3.096920000000000228e-01
-2.172149999999999914e-01 -7.133089999999999709e-01 -3.595690000000000275e-01
2.884820000000000162e-01 -4.925510000000000166e-01 5.953509999999999636e-01
-5.209639999999999826e-01 3.857949999999999990e-01 4.696259999999999879e-01
-7.969500000000000473e-01 -2.216800000000000020e-02 -5.462460000000000093e-01
2.843930000000000069e-01 -7.440369999999999484e-01 -2.791279999999999872e-01
-3.110510000000000219e-01 8.104209999999999470e-01 1.053250000000000020e-01
-3.404460000000000264e-01 -2.292520000000000113e-01 -7.206150000000000055e-01
-2.567470000000000030e-01 -2.852390000000000203e-01 -7.525859999999999772e-01
-4.179220000000000157e-01 6.336389999999999523e-01 -3.248219999999999996e-01
2.998529999999999807e-01 -6.058869999999999534e-01 -4.706469999999999820e-01
-7.125310000000000255e-01 3.616039999999999810e-01 1.961040000000000005e-01
7.810460000000000180e-01 1.822320000000000051e-01 2.939860000000000251e-01
7.786960000000000548e-01 1.883849999999999969e-01 -2.964339999999999753e-01
-3.199799999999999867e-01 5.435309999999999864e-01 5.128740000000000521e-01
6.148120000000000251e-01 -8.388700000000000323e-02 -6.158200000000000340e-01
-6.417559999999999931e-01 5.468979999999999952e-01 -1.143679999999999974e-01
8.600499999999999812e-02 3.251539999999999986e-01 -8.177999999999999714e-01
-2.715529999999999888e-01 -7.536669999999999758e-01 -2.539190000000000058e-01
6.789049999999999807e-01 -2.934069999999999734e-01 -4.040719999999999867e-01
3.824049999999999949e-01 5.431620000000000337e-01 -4.508179999999999965e-01
8.337259999999999671e-01 4.431600000000000122e-02 2.756060000000000176e-01
2.701609999999999845e-01 -9.050600000000000311e-02 -7.474619999999999598e-01
1.772479999999999889e-01 -4.802279999999999882e-01 -7.189090000000000202e-01
-1.787529999999999952e-01 -5.542610000000000037e-01 -6.433759999999999479e-01
-7.095300000000000218e-02 4.136179999999999857e-01 8.235500000000000043e-01
7.575500000000000289e-02 -5.460500000000000076e-02 8.217149999999999732e-01
5.882519999999999971e-01 -6.136260000000000048e-01 1.745109999999999995e-01
-8.300889999999999658e-01 -5.383799999999999697e-02 -2.098690000000000000e-01
1.839699999999999946e-01 6.586499999999999577e-01 5.026720000000000077e-01
2.723430000000000017e-01 6.237890000000000379e-01 -4.802549999999999875e-01
7.094009999999999483e-01 -3.697960000000000136e-01 2.296430000000000138e-01
7.159560000000000368e-01 -3.330380000000000007e-01 3.273920000000000163e-01
5.179999999999999882e-02 -7.764609999999999568e-01 -1.942359999999999920e-01
8.463460000000000427e-01 -1.127000000000000050e-02 1.610719999999999930e-01
-7.685210000000000097e-01 -2.150299999999999989e-01 -1.790239999999999887e-01
-2.472749999999999948e-01 2.181609999999999938e-01 -7.562050000000000161e-01
-5.743810000000000304e-01 7.232910000000000172e-01 -3.531100000000000211e-02
6.157510000000000483e-01 1.555650000000000088e-01 -6.050759999999999472e-01
-2.576559999999999961e-01 -6.340829999999999522e-01 4.846469999999999945e-01
1.881359999999999977e-01 -6.258800000000000474e-02 -7.787910000000000110e-01
6.753470000000000306e-01 -1.535599999999999986e-02 5.926940000000000541e-01
2.310200000000000101e-02 6.647239999999999815e-01 -4.867679999999999785e-01
7.141999999999999911e-03 4.771600000000000147e-02 -8.479219999999999535e-01
3.138730000000000131e-01 -6.369479999999999587e-01 4.255669999999999731e-01
5.061590000000000256e-01 -4.807239999999999847e-01 -3.895009999999999861e-01
1.576780000000000126e-01 -6.615710000000000202e-01 -4.950260000000000216e-01
-5.726879999999999749e-01 -4.251349999999999851e-01 3.785609999999999808e-01
-2.841359999999999997e-01 2.404239999999999988e-01 7.421250000000000346e-01
-4.252900000000000014e-01 1.022499999999999971e-02 6.882080000000000419e-01
3.290549999999999864e-01 -3.930819999999999870e-01 6.542470000000000230e-01
5.508570000000000411e-01 8.380700000000000649e-02 6.402440000000000353e-01
-7.254329999999999945e-01 -9.875299999999999356e-02 5.521979999999999666e-01
-7.970679999999999987e-01 1.402899999999999980e-01 -2.776500000000000079e-01
5.163389999999999924e-01 -4.413210000000000188e-01 4.187250000000000139e-01
-7.638930000000000442e-01 -2.271489999999999898e-01 8.791699999999999515e-02
2.161659999999999970e-01 7.564340000000000508e-01 2.466760000000000064e-01
-7.462370000000000392e-01 -2.733679999999999999e-01 5.168899999999999884e-02
-3.997450000000000170e-01 5.333419999999999828e-01 -4.432980000000000254e-01
-6.216129999999999711e-01 5.996449999999999836e-01 -1.271770000000000123e-01
4.189289999999999958e-01 -8.161950000000000038e-01 9.020599999999999452e-02
-8.372180000000000177e-01 3.517300000000000287e-02 -1.586879999999999957e-01
-1.650159999999999960e-01 3.517210000000000059e-01 -7.876199999999999868e-01
7.835360000000000102e-01 1.757110000000000061e-01 3.430010000000000003e-01
-5.403740000000000210e-01 -7.130859999999999976e-01 -1.229240000000000055e-01
-6.137010000000000520e-01 -5.154260000000000508e-01 2.472560000000000036e-01
2.173690000000000067e-01 -7.586169999999999858e-01 -2.409640000000000115e-01
1.293860000000000010e-01 1.558999999999999969e-02 -8.012329999999999730e-01
4.847690000000000055e-01 5.806130000000000457e-01 3.110020000000000007e-01
5.229329999999999812e-01 5.060609999999999831e-01 3.473910000000000053e-01
-3.214100000000000290e-02 6.634839999999999627e-01 -4.900160000000000071e-01
-1.189479999999999982e-01 -2.096369999999999900e-01 -8.052190000000000181e-01
-6.800329999999999986e-01 2.957620000000000249e-01 4.005879999999999996e-01
-3.210029999999999828e-01 7.640209999999999502e-01 -2.268139999999999878e-01
1.086970000000000020e-01 6.760840000000000183e-01 -4.570330000000000226e-01
6.653390000000000137e-01 4.851579999999999782e-01 -5.079700000000000187e-02
2.094459999999999933e-01 -6.815940000000000332e-01 4.426080000000000014e-01
4.269109999999999849e-01 -2.627559999999999896e-01 -6.867199999999999971e-01
2.016850000000000032e-01 2.855980000000000185e-01 7.736169999999999991e-01
-6.028919999999999835e-01 3.499079999999999968e-01 -4.235849999999999893e-01
-1.494699999999999918e-01 1.618189999999999906e-01 -7.935600000000000431e-01
-2.978810000000000069e-01 -6.499460000000000237e-01 4.285610000000000253e-01
4.959999999999999999e-03 3.757550000000000057e-01 8.487559999999999549e-01
-2.722680000000000100e-01 7.066639999999999588e-01 -3.769629999999999925e-01
3.712650000000000117e-01 5.249270000000000325e-01 4.801909999999999790e-01
-8.086600000000000454e-01 -2.084400000000000142e-02 -5.417739999999999778e-01
-1.066060000000000063e-01 -6.955930000000000168e-01 4.059510000000000063e-01
-4.679699999999999971e-01 -3.419269999999999810e-01 -5.664869999999999628e-01
6.105840000000000156e-01 -6.285159999999999636e-01 4.080299999999999899e-02
6.537500000000000533e-01 -2.518440000000000123e-01 -4.707910000000000150e-01
6.740169999999999773e-01 4.624420000000000197e-01 2.171379999999999977e-01
-6.998529999999999474e-01 3.947970000000000090e-01 2.582050000000000178e-01
7.821690000000000031e-01 -1.792910000000000059e-01 -1.602999999999999980e-01
2.801000000000000018e-02 4.520029999999999881e-01 -8.399529999999999497e-01
5.934570000000000123e-01 -4.181540000000000257e-01 3.647730000000000139e-01
-5.734829999999999650e-01 2.284879999999999967e-01 5.744160000000000377e-01
5.609200000000000297e-02 -2.774190000000000267e-01 8.292279999999999651e-01
-8.202479999999999771e-01 -7.959499999999999909e-02 8.492800000000000349e-02
3.754069999999999907e-01 -3.858380000000000143e-01 -6.151400000000000201e-01
6.579469999999999485e-01 -2.857489999999999752e-01 4.326880000000000170e-01
6.269379999999999953e-01 -1.920820000000000027e-01 5.573679999999999746e-01
-6.576670000000000016e-01 4.879310000000000036e-01 -2.307879999999999932e-01
-6.204009999999999803e-01 2.688550000000000106e-01 4.871280000000000054e-01
8.434920000000000195e-01 1.874299999999999924e-02 3.241109999999999824e-01
3.170209999999999972e-01 8.461689999999999490e-01 1.173500000000000064e-02
-5.955829999999999735e-01 -3.809330000000000216e-01 3.998700000000000032e-01
-2.204369999999999941e-01 3.978689999999999727e-01 7.580820000000000336e-01
6.491900000000000448e-01 5.274330000000000407e-01 1.023730000000000057e-01
-7.406629999999999603e-01 1.921710000000000085e-01 -4.435520000000000018e-01
-3.883110000000000173e-01 -7.996130000000000182e-01 1.336279999999999968e-01
2.014999999999999864e-03 -6.331620000000000026e-01 -5.694019999999999637e-01
7.399670000000000414e-01 -2.897859999999999880e-01 2.264660000000000006e-01
2.529299999999999882e-01 -8.351819999999999800e-01 4.050399999999999834e-02
-1.459570000000000034e-01 -4.694780000000000064e-01 7.609479999999999578e-01
3.144899999999999779e-02 -7.220969999999999889e-01 3.365639999999999743e-01
2.605370000000000186e-01 -6.526800000000000657e-02 7.511379999999999724e-01
-1.533229999999999871e-01 -6.572519999999999474e-01 5.063339999999999508e-01
-8.033470000000000333e-01 -1.238500000000000018e-01 5.212399999999999672e-02
-3.553890000000000104e-01 -5.199199999999999655e-02 7.149060000000000414e-01
-4.447809999999999819e-01 6.738579999999999570e-01 -2.577470000000000039e-01
7.575060000000000127e-01 2.438710000000000044e-01 2.273100000000000120e-02
-7.722800000000000498e-02 -3.401600000000000179e-01 8.211519999999999930e-01
-5.675909999999999567e-01 -7.236909999999999732e-01 -8.510500000000000009e-02
8.050380000000000313e-01 1.194230000000000014e-01 -4.035869999999999735e-01
-4.870309999999999917e-01 -7.178320000000000256e-01 1.715220000000000078e-01
3.317390000000000061e-01 3.025800000000000156e-01 -7.239400000000000279e-01
-7.673529999999999518e-01 2.180890000000000051e-01 -1.674199999999999994e-02
-6.103299999999999698e-02 -3.110800000000000232e-01 8.273399999999999643e-01
-7.326319999999999499e-01 -3.089839999999999809e-01 2.818749999999999867e-01
8.246489999999999654e-01 6.807599999999999763e-02 4.763000000000000012e-01
-3.536480000000000179e-01 7.944510000000000183e-01 1.471379999999999910e-01
-8.394669999999999632e-01 -2.928300000000000000e-02 -4.202060000000000239e-01
-8.462920000000000442e-01 1.141000000000000000e-02 -4.079399999999999693e-02
-1.527669999999999861e-01 7.480480000000000462e-01 -2.686270000000000047e-01
8.304999999999999882e-02 6.790370000000000017e-01 -4.493039999999999812e-01
-8.315190000000000081e-01 -5.009500000000000064e-02 2.235399999999999887e-02
1.649629999999999985e-01 4.801059999999999772e-01 7.313159999999999661e-01
2.761689999999999978e-01 -3.586759999999999948e-01 7.415410000000000057e-01
5.031000000000000055e-02 6.022939999999999960e-01 6.502160000000000162e-01
-8.107600000000000362e-01 -1.044370000000000021e-01 -2.621379999999999821e-01
-1.184169999999999945e-01 -8.014719999999999622e-01 -1.287629999999999886e-01
7.308639999999999581e-01 -2.594600000000000031e-02 5.714869999999999672e-01
2.129109999999999892e-01 2.771410000000000262e-01 -7.693299999999999583e-01
2.618099999999999872e-01 5.539509999999999712e-01 5.606269999999999865e-01
5.638739999999999863e-01 5.380580000000000362e-01 -2.744519999999999738e-01
-3.840529999999999777e-01 1.976499999999999924e-01 7.039560000000000262e-01
-4.841399999999999870e-02 -7.943489999999999718e-01 1.474030000000000062e-01
-2.681300000000000003e-02 -2.514049999999999896e-01 8.404099999999999904e-01
6.042100000000000248e-02 2.630250000000000088e-01 -8.275740000000000318e-01
4.175679999999999947e-01 -5.767349999999999977e-01 3.820839999999999792e-01
4.137179999999999747e-01 7.969099999999999795e-02 6.926269999999999927e-01
-5.891769999999999508e-01 -2.014549999999999952e-01 -5.857590000000000297e-01
-8.004769999999999941e-01 -1.313660000000000105e-01 2.490249999999999964e-01
-8.395800000000000485e-02 9.808699999999999364e-02 8.185810000000000031e-01
-3.557560000000000167e-01 -2.119479999999999975e-01 7.147660000000000124e-01
-6.572339999999999849e-01 8.198999999999999344e-02 5.996139999999999803e-01
1.226740000000000053e-01 6.073330000000000117e-01 -6.370249999999999524e-01
3.933829999999999827e-01 5.316089999999999982e-01 4.513920000000000154e-01
-4.193129999999999913e-01 2.280619999999999870e-01 6.904900000000000482e-01
7.616880000000000317e-01 2.329219999999999902e-01 2.654659999999999798e-01
5.101200000000000179e-01 5.910109999999999530e-01 -2.752550000000000274e-01
-1.469400000000000046e-02 -6.255150000000000432e-01 5.894239999999999480e-01
-8.289750000000000174e-01 -5.675499999999999989e-02 1.692249999999999865e-01
6.087510000000000421e-01 4.586919999999999886e-01 3.089419999999999944e-01
2.670939999999999981e-01 -8.260570000000000412e-01 6.439100000000000379e-02
-7.518799999999999928e-01 -1.602320000000000133e-01 4.642729999999999912e-01
-1.252030000000000087e-01 -6.517089999999999828e-01 5.208399999999999697e-01
2.224099999999999966e-01 1.586780000000000135e-01 -7.657030000000000225e-01
-3.278179999999999983e-01 -8.231810000000000516e-01 7.191799999999999582e-02
6.215540000000000509e-01 -1.849399999999999933e-01 5.698929999999999829e-01
-4.352260000000000018e-01 1.910479999999999956e-01 -6.844130000000000491e-01
-2.158160000000000078e-01 -3.927990000000000093e-01 7.677730000000000388e-01
6.414689999999999559e-01 -4.536669999999999869e-01 -2.812490000000000268e-01
-2.660989999999999744e-01 -8.203730000000000189e-01 7.926700000000000412e-02
8.451189999999999536e-01 1.448299999999999935e-02 -5.131400000000000405e-01
3.972029999999999728e-01 7.148179999999999534e-01 2.643650000000000166e-01
4.209100000000000341e-02 4.520129999999999981e-01 -8.345759999999999845e-01
7.653640000000000443e-01 -6.092000000000000193e-03 -5.583080000000000265e-01
-1.114590000000000025e-01 2.844050000000000189e-01 -8.080789999999999917e-01
