-6.488031148910522461e-01 5.294317603111267090e-01 8.487062156200408936e-02
-6.538080573081970215e-01 5.236955285072326660e-01 1.099262461066246033e-01
-2.744299769401550293e-01 5.499619841575622559e-01 5.512493252754211426e-01
-2.651072442531585693e-01 5.391229391098022461e-01 5.748129487037658691e-01
-2.560875415802001953e-01 5.608084201812744141e-01 5.594741702079772949e-01
-2.456679046154022217e-01 5.493760108947753906e-01 5.837347507476806641e-01
-6.493686437606811523e-01 -4.613797962665557861e-01 -2.823139131069183350e-01
-6.558759808540344238e-01 -4.653425812721252441e-01 -2.497546970844268799e-01
-6.651811003684997559e-01 -4.455159306526184082e-01 -2.604629993438720703e-01
-6.730842590332031250e-01 -4.464010894298553467e-01 -2.221994698047637939e-01
-6.886764764785766602e-01 -4.193592369556427002e-01 1.833173781633377075e-01
-6.886612772941589355e-01 -4.202425479888916016e-01 2.144800126552581787e-01
-6.998312473297119141e-01 -3.988145291805267334e-01 2.061621248722076416e-01
-6.993407011032104492e-01 -3.997045159339904785e-01 2.377201169729232788e-01
7.069787979125976562e-01 -3.730178475379943848e-01 1.701256930828094482e-01
7.020317912101745605e-01 -3.816675245761871338e-01 1.985317915678024292e-01
7.090441584587097168e-01 -3.617873489856719971e-01 2.024518847465515137e-01
7.023537158966064453e-01 -3.707022070884704590e-01 2.312920391559600830e-01
-7.598553299903869629e-01 -2.384579032659530640e-01 -7.728522270917892456e-02
-7.591270804405212402e-01 -2.435764670372009277e-01 -4.972437769174575806e-02
-7.683231234550476074e-01 -2.221336215734481812e-01 -5.715073645114898682e-02
-7.684702277183532715e-01 -2.272580116987228394e-01 -3.104094602167606354e-02
8.569990992546081543e-01 -4.817901179194450378e-03 4.838113486766815186e-01
8.441392779350280762e-01 -8.545555174350738525e-03 5.175715088844299316e-01
8.463566899299621582e-01 2.530763112008571625e-02 5.064767003059387207e-01
8.316152095794677734e-01 2.258461527526378632e-02 5.383433103561401367e-01
4.567692279815673828e-01 -2.775034904479980469e-01 -6.460684537887573242e-01
4.767049849033355713e-01 -2.828823626041412354e-01 -6.291611194610595703e-01
4.727150201797485352e-01 -2.510678470134735107e-01 -6.443158984184265137e-01
4.931422173976898193e-01 -2.524489462375640869e-01 -6.270115375518798828e-01
-5.406443476676940918e-01 4.279237687587738037e-01 -4.060018956661224365e-01
-5.598872303962707520e-01 4.286695420742034912e-01 -3.796579837799072266e-01
-5.494946837425231934e-01 4.451966583728790283e-01 -3.778036832809448242e-01
-5.661868453025817871e-01 4.470434784889221191e-01 -3.533688187599182129e-01
6.492497771978378296e-02 -6.322271227836608887e-01 -5.845228433609008789e-01
6.863566488027572632e-02 -6.366134881973266602e-01 -5.597901940345764160e-01
5.201156064867973328e-02 -6.341422796249389648e-01 -5.700925588607788086e-01
5.520498380064964294e-02 -6.389032006263732910e-01 -5.442098975181579590e-01
4.006607830524444580e-01 -3.589899837970733643e-01 6.092759370803833008e-01
3.837712407112121582e-01 -3.583091199398040771e-01 6.304664611816406250e-01
3.951221108436584473e-01 -3.395741283893585205e-01 6.371892690658569336e-01
3.781303167343139648e-01 -3.376196920871734619e-01 6.574131250381469727e-01
-8.181392401456832886e-02 -4.786319136619567871e-01 -8.083043694496154785e-01
-9.385195374488830566e-02 -4.853388965129852295e-01 -7.927716970443725586e-01
-1.006837189197540283e-01 -4.685566425323486328e-01 -7.983899116516113281e-01
-1.120869889855384827e-01 -4.745572209358215332e-01 -7.823151350021362305e-01
-5.805680155754089355e-01 -5.772848129272460938e-01 -2.290415465831756592e-01
-5.869404077529907227e-01 -5.836762189865112305e-01 -2.018662840127944946e-01
-6.010050773620605469e-01 -5.580876469612121582e-01 -2.140327990055084229e-01
-6.072997450828552246e-01 -5.622754693031311035e-01 -1.871066689491271973e-01
-4.615933299064636230e-01 3.278465569019317627e-01 5.749627351760864258e-01
-4.476098418235778809e-01 3.185445964336395264e-01 6.120541691780090332e-01
-4.356689155101776123e-01 3.483359515666961670e-01 5.995510816574096680e-01
-4.216192960739135742e-01 3.377008736133575439e-01 6.286053657531738281e-01
1.648206561803817749e-01 5.548226833343505859e-01 6.526756882667541504e-01
1.592252403497695923e-01 5.490544438362121582e-01 6.729586124420166016e-01
1.477527916431427002e-01 5.709204077720642090e-01 6.568783521652221680e-01
1.423215717077255249e-01 5.640708208084106445e-01 6.789458394050598145e-01
-6.703125834465026855e-01 4.672038853168487549e-01 1.751164942979812622e-01
-6.749214529991149902e-01 4.627998173236846924e-01 1.986736804246902466e-01
-6.711187362670898438e-01 4.795372784137725830e-01 1.973461955785751343e-01
-6.743403077125549316e-01 4.741291701793670654e-01 2.211448699235916138e-01
-9.892871975898742676e-02 -3.960629403591156006e-01 -8.263819217681884766e-01
-1.138010770082473755e-01 -4.018080532550811768e-01 -8.120365142822265625e-01
-1.131845414638519287e-01 -3.826314508914947510e-01 -8.131188154220581055e-01
-1.280417442321777344e-01 -3.878869712352752686e-01 -7.989055514335632324e-01
4.405850470066070557e-01 4.986627101898193359e-01 4.219980835914611816e-01
4.351001083850860596e-01 4.927598536014556885e-01 4.453926980495452881e-01
4.176667332649230957e-01 5.110648274421691895e-01 4.385361671447753906e-01
4.126976728439331055e-01 5.051370859146118164e-01 4.617019891738891602e-01
-5.588593482971191406e-01 4.512410461902618408e-01 3.573995232582092285e-01
-5.487301945686340332e-01 4.399194717407226562e-01 3.827819824218750000e-01
-5.468620657920837402e-01 4.614398777484893799e-01 3.701618611812591553e-01
-5.346645712852478027e-01 4.510507881641387939e-01 3.942248821258544922e-01
5.057831406593322754e-01 2.984235286712646484e-01 5.645358562469482422e-01
4.983820617198944092e-01 2.931089699268341064e-01 5.859026312828063965e-01
4.860547482967376709e-01 3.145674169063568115e-01 5.775783061981201172e-01
4.769977331161499023e-01 3.085379004478454590e-01 6.013839244842529297e-01
5.928931832313537598e-01 5.415461659431457520e-01 -2.475568354129791260e-01
6.002264618873596191e-01 5.446374416351318359e-01 -2.239292711019515991e-01
5.789157152175903320e-01 5.623409748077392578e-01 -2.324122339487075806e-01
5.864285230636596680e-01 5.657019615173339844e-01 -2.082931101322174072e-01
-5.961023569107055664e-01 -6.547759771347045898e-01 1.255583763122558594e-02
-5.961112380027770996e-01 -6.579515337944030762e-01 4.203449189662933350e-02
-6.100025177001953125e-01 -6.319772601127624512e-01 2.561280876398086548e-02
-6.097486615180969238e-01 -6.347227692604064941e-01 5.482466146349906921e-02
-6.159116625785827637e-01 6.026180386543273926e-01 -9.931022673845291138e-02
-6.210494041442871094e-01 5.974089503288269043e-01 -7.051342725753784180e-02
-6.155384778976440430e-01 6.227859258651733398e-01 -8.162143081426620483e-02
-6.205487251281738281e-01 6.171609759330749512e-01 -5.282986164093017578e-02
4.344200789928436279e-01 1.726177930831909180e-01 -6.917724013328552246e-01
4.488628804683685303e-01 1.757407039403915405e-01 -6.754353642463684082e-01
4.312134385108947754e-01 1.892269104719161987e-01 -6.864029765129089355e-01
4.449168741703033447e-01 1.925173103809356689e-01 -6.699048876762390137e-01
-6.401814818382263184e-01 -5.326835513114929199e-01 -1.570979356765747070e-01
-6.468330621719360352e-01 -5.348623394966125488e-01 -1.260403692722320557e-01
-6.580697298049926758e-01 -5.136426091194152832e-01 -1.445156335830688477e-01
-6.629127860069274902e-01 -5.161156058311462402e-01 -1.110414192080497742e-01
-4.892077744007110596e-01 3.224343061447143555e-01 5.449260473251342773e-01
-4.749022126197814941e-01 3.127854168415069580e-01 5.843504667282104492e-01
-4.679069221019744873e-01 3.405443429946899414e-01 5.662696957588195801e-01
-4.551428556442260742e-01 3.317496180534362793e-01 5.998202562332153320e-01
6.451885104179382324e-01 5.477887392044067383e-01 -3.883554786443710327e-02
6.452350616455078125e-01 5.424941778182983398e-01 -7.268761284649372101e-03
6.314540505409240723e-01 5.688043236732482910e-01 -1.772481203079223633e-02
6.317536830902099609e-01 5.626989603042602539e-01 1.573172584176063538e-02
-2.660222351551055908e-02 -7.901620268821716309e-01 -1.782088279724121094e-01
-2.219791896641254425e-02 -7.960703372955322266e-01 -1.466421782970428467e-01
-4.800462722778320312e-02 -7.950465083122253418e-01 -1.615332067012786865e-01
-4.378089681267738342e-02 -8.008417487144470215e-01 -1.323347389698028564e-01
3.584909737110137939e-01 5.968483090400695801e-01 4.096660315990447998e-01
3.530932962894439697e-01 5.888091325759887695e-01 4.330350756645202637e-01
3.389640748500823975e-01 6.107033491134643555e-01 4.225037097930908203e-01
3.337396979331970215e-01 6.020558476448059082e-01 4.458682537078857422e-01
1.118084639310836792e-01 6.139230132102966309e-01 6.037409901618957520e-01
1.090150251984596252e-01 6.062381267547607422e-01 6.300678253173828125e-01
8.729521930217742920e-02 6.133297681808471680e-01 6.189914345741271973e-01
8.672083169221878052e-02 6.048198342323303223e-01 6.457578539848327637e-01
7.002680897712707520e-01 -3.849613070487976074e-01 -3.108350634574890137e-01
7.002989053726196289e-01 -3.914217054843902588e-01 -2.825475633144378662e-01
7.060612440109252930e-01 -3.703798651695251465e-01 -2.787433266639709473e-01
7.042732238769531250e-01 -3.766767680644989014e-01 -2.514670789241790771e-01
-5.846005678176879883e-01 -6.691696047782897949e-01 -1.232399195432662964e-01
-5.881652832031250000e-01 -6.739218831062316895e-01 -9.577415883541107178e-02
-5.972630381584167480e-01 -6.551573276519775391e-01 -9.851287305355072021e-02
-6.006671786308288574e-01 -6.591193675994873047e-01 -7.134250551462173462e-02
5.873005390167236328e-01 4.793138802051544189e-01 -3.157864511013031006e-01
5.956259369850158691e-01 4.847172796726226807e-01 -2.888684272766113281e-01
5.734207034111022949e-01 5.012890100479125977e-01 -2.997373938560485840e-01
5.823208689689636230e-01 5.066861510276794434e-01 -2.747658491134643555e-01
-6.696151494979858398e-01 4.464267790317535400e-01 -2.148942500352859497e-01
-6.756482124328613281e-01 4.416385889053344727e-01 -1.896514594554901123e-01
-6.672390699386596680e-01 4.666777551174163818e-01 -1.964965313673019409e-01
-6.734502315521240234e-01 4.612577259540557861e-01 -1.700058132410049438e-01
2.445260621607303619e-02 -4.361340999603271484e-01 8.402310609817504883e-01
6.442889571189880371e-04 -4.514706432819366455e-01 8.470058441162109375e-01
-1.298363786190748215e-03 -4.106422662734985352e-01 8.440869450569152832e-01
-2.082126960158348083e-02 -4.337054193019866943e-01 8.466272950172424316e-01
-4.277071654796600342e-01 5.535159707069396973e-01 -4.042519330978393555e-01
-4.451180100440979004e-01 5.538581013679504395e-01 -3.822852671146392822e-01
-4.343875050544738770e-01 5.718723535537719727e-01 -3.779535889625549316e-01
-4.521061182022094727e-01 5.718989372253417969e-01 -3.560421168804168701e-01
1.599047482013702393e-01 -6.008833050727844238e-01 -6.550249457359313965e-01
1.704332232475280762e-01 -6.060934066772460938e-01 -6.271189451217651367e-01
1.396656036376953125e-01 -5.994104743003845215e-01 -6.397760510444641113e-01
1.484364569187164307e-01 -6.053456664085388184e-01 -6.133084893226623535e-01
9.067365527153015137e-02 5.314447283744812012e-01 7.491627931594848633e-01
8.414440602064132690e-02 5.237135887145996094e-01 7.727245688438415527e-01
6.232423335313796997e-02 5.456355214118957520e-01 7.580776214599609375e-01
5.638642981648445129e-02 5.372485518455505371e-01 7.814587354660034180e-01
-1.048940271139144897e-01 8.522807359695434570e-01 -3.369796648621559143e-02
-9.039788693189620972e-02 8.544175028800964355e-01 -6.494670175015926361e-03
-1.194057539105415344e-01 8.494116067886352539e-01 -1.261182129383087158e-02
-1.061411127448081970e-01 8.498905897140502930e-01 1.578494347631931305e-02
5.723330974578857422e-01 7.490906715393066406e-01 1.247066073119640350e-02
5.725209116935729980e-01 7.450831532478332520e-01 4.583919048309326172e-02
5.504353046417236328e-01 7.662717103958129883e-01 3.544801473617553711e-02
5.503781437873840332e-01 7.601820826530456543e-01 6.858852505683898926e-02
-3.952235281467437744e-01 -4.809702634811401367e-01 -5.183597803115844727e-01
-4.047587513923645020e-01 -4.887871444225311279e-01 -4.931330978870391846e-01
-4.129395782947540283e-01 -4.656803905963897705e-01 -5.063361525535583496e-01
-4.224160909652709961e-01 -4.731915891170501709e-01 -4.811375141143798828e-01
-6.255601644515991211e-01 1.895370036363601685e-01 5.485938787460327148e-01
-6.093510985374450684e-01 1.802604794502258301e-01 5.755938291549682617e-01
-6.035173535346984863e-01 2.068672031164169312e-01 5.719549059867858887e-01
-5.893360376358032227e-01 1.975938379764556885e-01 5.984971523284912109e-01
1.068179979920387268e-01 -6.355797052383422852e-01 -5.787395238876342773e-01
1.111966595053672791e-01 -6.390799283981323242e-01 -5.536472797393798828e-01
9.040430188179016113e-02 -6.394158601760864258e-01 -5.589203238487243652e-01
9.374798089265823364e-02 -6.441036462783813477e-01 -5.332458019256591797e-01
1.650254875421524048e-01 5.100662112236022949e-01 -7.201863527297973633e-01
1.775663048028945923e-01 5.198335051536560059e-01 -6.932114958763122559e-01
1.424601823091506958e-01 5.326579213142395020e-01 -6.997083425521850586e-01
1.531468927860260010e-01 5.432480573654174805e-01 -6.744675636291503906e-01
4.946884810924530029e-01 -8.406919240951538086e-01 -5.237532407045364380e-02
5.052384734153747559e-01 -8.483984470367431641e-01 -2.655299752950668335e-02
4.907811582088470459e-01 -8.404989242553710938e-01 -3.205984830856323242e-02
4.990293085575103760e-01 -8.463447690010070801e-01 -4.593799822032451630e-03
-3.226344585418701172e-01 -6.661987304687500000e-01 -4.011852443218231201e-01
-3.284132480621337891e-01 -6.737588644027709961e-01 -3.781098127365112305e-01
-3.379484713077545166e-01 -6.589342951774597168e-01 -3.857035338878631592e-01
-3.456087410449981689e-01 -6.662940382957458496e-01 -3.619645833969116211e-01
-6.533223986625671387e-01 5.112596750259399414e-01 1.387663930654525757e-01
-6.574638485908508301e-01 5.063595771789550781e-01 1.625747531652450562e-01
-6.565040946006774902e-01 5.232428312301635742e-01 1.586979478597640991e-01
-6.588571667671203613e-01 5.181953310966491699e-01 1.822338402271270752e-01
-5.766678452491760254e-01 -6.193355917930603027e-01 1.673623621463775635e-01
-5.699657201766967773e-01 -6.153545379638671875e-01 1.942533701658248901e-01
-5.893499851226806641e-01 -6.040141582489013672e-01 1.874190568923950195e-01
-5.819622874259948730e-01 -5.998509526252746582e-01 2.154157012701034546e-01
-7.624267935752868652e-01 -2.196929454803466797e-01 2.364309690892696381e-02
-7.641716599464416504e-01 -2.230798900127410889e-01 5.131031572818756104e-02
-7.701091766357421875e-01 -2.039997279644012451e-01 4.543411731719970703e-02
-7.732456326484680176e-01 -2.061353474855422974e-01 7.619158923625946045e-02
-5.422993302345275879e-01 -6.936203241348266602e-01 1.232035234570503235e-01
-5.367591977119445801e-01 -6.893263459205627441e-01 1.490091532468795776e-01
-5.568981170654296875e-01 -6.814004778861999512e-01 1.434129625558853149e-01
-5.506190657615661621e-01 -6.776624917984008789e-01 1.694200932979583740e-01
-1.912494897842407227e-01 -5.282310247421264648e-01 -6.707599163055419922e-01
-1.990963816642761230e-01 -5.342747569084167480e-01 -6.466443538665771484e-01
-2.069176882505416870e-01 -5.158945918083190918e-01 -6.574293375015258789e-01
-2.143192440271377563e-01 -5.226587057113647461e-01 -6.328452825546264648e-01
-2.426921576261520386e-01 -7.964599132537841797e-01 1.335307210683822632e-01
-2.314157783985137939e-01 -7.905853986740112305e-01 1.591783165931701660e-01
-2.535390257835388184e-01 -7.859019041061401367e-01 1.573946326971054077e-01
-2.399593293666839600e-01 -7.798795700073242188e-01 1.838143169879913330e-01
3.048027157783508301e-01 -7.847133278846740723e-01 1.687917411327362061e-01
3.112452030181884766e-01 -7.751278877258300781e-01 1.995590478181838989e-01
2.935301065444946289e-01 -7.690747380256652832e-01 2.151702195405960083e-01
3.001393079757690430e-01 -7.590526938438415527e-01 2.467366904020309448e-01
-1.391693353652954102e-01 7.092031240463256836e-01 3.491600155830383301e-01
-1.330788880586624146e-01 7.044674754142761230e-01 3.717347979545593262e-01
-1.545099765062332153e-01 7.091616988182067871e-01 3.660850226879119873e-01
-1.486828178167343140e-01 7.043387889862060547e-01 3.876604735851287842e-01
3.848145157098770142e-02 -2.789168059825897217e-01 -8.434260487556457520e-01
2.334291115403175354e-02 -3.001304268836975098e-01 -8.419332504272460938e-01
2.309651300311088562e-02 -2.516001164913177490e-01 -8.447787761688232422e-01
3.006332088261842728e-03 -2.727508842945098877e-01 -8.409989476203918457e-01
3.567261695861816406e-01 5.001758337020874023e-01 5.139018297195434570e-01
3.501976728439331055e-01 4.924767017364501953e-01 5.365324616432189941e-01
3.344754874706268311e-01 5.092062950134277344e-01 5.341489911079406738e-01
3.274518847465515137e-01 5.025751590728759766e-01 5.564152002334594727e-01
-4.624238610267639160e-01 5.916010141372680664e-01 -3.236478269100189209e-01
-4.771501421928405762e-01 5.922222137451171875e-01 -3.040791153907775879e-01
-4.630489349365234375e-01 6.093169450759887695e-01 -3.036444485187530518e-01
-4.766256213188171387e-01 6.107991337776184082e-01 -2.855185270309448242e-01
7.847003936767578125e-01 1.794630885124206543e-01 -2.405935078859329224e-01
7.846957445144653320e-01 1.739358156919479370e-01 -2.011914104223251343e-01
7.722478508949279785e-01 1.985906660556793213e-01 -2.085483521223068237e-01
7.701488733291625977e-01 1.937408149242401123e-01 -1.698658466339111328e-01
-3.695316314697265625e-01 7.922801375389099121e-01 -1.504209041595458984e-01
-3.664169907569885254e-01 8.004081249237060547e-01 -1.251301616430282593e-01
-3.823123276233673096e-01 8.054831624031066895e-01 -1.172649860382080078e-01
-3.779748976230621338e-01 8.124575614929199219e-01 -9.242860972881317139e-02
4.022148549556732178e-01 8.281055688858032227e-01 -7.999532669782638550e-02
4.150242209434509277e-01 8.273287415504455566e-01 -4.604728519916534424e-02
3.765687644481658936e-01 8.339759707450866699e-01 -6.132911890745162964e-02
3.892424106597900391e-01 8.326789736747741699e-01 -2.809591218829154968e-02
1.108361184597015381e-01 -9.948381781578063965e-02 -8.112340569496154785e-01
1.305879652500152588e-01 -1.025395691394805908e-01 -8.014650344848632812e-01
9.582602977752685547e-02 -7.224581390619277954e-02 -8.169596791267395020e-01
1.142765283584594727e-01 -7.756073772907257080e-02 -8.068556785583496094e-01
-6.990277171134948730e-01 -3.839809894561767578e-01 1.765657663345336914e-01
-7.003968358039855957e-01 -3.847667276859283447e-01 2.085749059915542603e-01
-7.113645076751708984e-01 -3.597488403320312500e-01 1.987881213426589966e-01
-7.113729119300842285e-01 -3.606640100479125977e-01 2.309850603342056274e-01
-2.515854835510253906e-01 -5.502744317054748535e-01 5.649190545082092285e-01
-2.389211207628250122e-01 -5.441934466361999512e-01 5.981138348579406738e-01
-2.653883695602416992e-01 -5.286540985107421875e-01 5.838738679885864258e-01
-2.529944777488708496e-01 -5.206919312477111816e-01 6.165142059326171875e-01
3.892445266246795654e-01 6.018302440643310547e-01 3.736369907855987549e-01
3.844240009784698486e-01 5.935342311859130859e-01 3.981885612010955811e-01
3.710908889770507812e-01 6.177737116813659668e-01 3.873459398746490479e-01
3.663114905357360840e-01 6.091946959495544434e-01 4.114264547824859619e-01
6.593516469001770020e-01 -4.992076754570007324e-01 -1.548478007316589355e-01
6.556264162063598633e-01 -5.039638280868530273e-01 -1.322293430566787720e-01
6.645081639289855957e-01 -4.834521412849426270e-01 -1.262352615594863892e-01
6.594684720039367676e-01 -4.877085685729980469e-01 -1.032658070325851440e-01
7.801224589347839355e-01 1.978455185890197754e-01 2.289436310529708862e-01
7.777416110038757324e-01 1.947494596242904663e-01 2.571363151073455811e-01
7.722860574722290039e-01 2.154168188571929932e-01 2.504088580608367920e-01
7.696334123611450195e-01 2.121003568172454834e-01 2.802865207195281982e-01
-4.941779002547264099e-02 6.134030818939208984e-01 6.106056571006774902e-01
-4.354692995548248291e-02 6.064692735671997070e-01 6.395297050476074219e-01
-7.129032909870147705e-02 6.105278134346008301e-01 6.219948530197143555e-01
-6.352911144495010376e-02 6.031939983367919922e-01 6.506176590919494629e-01
-8.112303614616394043e-01 7.178035378456115723e-02 -4.481651782989501953e-01
-8.174772858619689941e-01 6.572653353214263916e-02 -4.195037484169006348e-01
-8.171358704566955566e-01 8.989226073026657104e-02 -4.227730631828308105e-01
-8.231983184814453125e-01 8.490844070911407471e-02 -3.963120281696319580e-01
3.524146080017089844e-01 -8.444187045097351074e-01 -4.568789899349212646e-02
3.597817122936248779e-01 -8.437659144401550293e-01 -1.903987675905227661e-02
3.345672488212585449e-01 -8.440051674842834473e-01 -2.133573405444622040e-02
3.417123556137084961e-01 -8.412262797355651855e-01 4.440405406057834625e-03
-7.991517186164855957e-01 -1.069923639297485352e-01 1.688204556703567505e-01
-8.014417886734008789e-01 -1.110451072454452515e-01 2.051718235015869141e-01
-8.130818605422973633e-01 -8.586186915636062622e-02 1.935527622699737549e-01
-8.152839541435241699e-01 -9.037251025438308716e-02 2.307916283607482910e-01
-7.587859034538269043e-01 -2.332929968833923340e-01 5.080395936965942383e-02
-7.617931962013244629e-01 -2.350695282220840454e-01 8.147668838500976562e-02
-7.675555944442749023e-01 -2.151954919099807739e-01 7.301232218742370605e-02
-7.717927694320678711e-01 -2.160825133323669434e-01 1.065940409898757935e-01
5.467168614268302917e-02 3.418858945369720459e-01 -8.361257910728454590e-01
7.141165435314178467e-02 3.351734876632690430e-01 -8.257942795753479004e-01
4.592857882380485535e-02 3.654683530330657959e-01 -8.357309103012084961e-01
4.716488346457481384e-02 3.545001745223999023e-01 -8.260940909385681152e-01
-2.603397369384765625e-01 6.868404746055603027e-01 4.108305871486663818e-01
-2.493286728858947754e-01 6.787933111190795898e-01 4.351714253425598145e-01
-2.696769237518310547e-01 6.863622069358825684e-01 4.184997081756591797e-01
-2.582641839981079102e-01 6.778158545494079590e-01 4.428953528404235840e-01
-3.924573659896850586e-01 -8.421247601509094238e-01 -5.562777072191238403e-02
-3.899924755096435547e-01 -8.423694372177124023e-01 -2.583377249538898468e-02
-4.142330288887023926e-01 -8.366063237190246582e-01 -3.709878772497177124e-02
-4.109414517879486084e-01 -8.352277278900146484e-01 -7.049831561744213104e-03
4.651207923889160156e-01 -5.228813290596008301e-01 3.910092115402221680e-01
4.507290124893188477e-01 -5.197699666023254395e-01 4.130112528800964355e-01
4.608081281185150146e-01 -5.005533099174499512e-01 4.112409949302673340e-01
4.463952481746673584e-01 -4.969210624694824219e-01 4.337337911128997803e-01
3.961409330368041992e-01 -8.410065770149230957e-01 1.166717894375324249e-02
4.069086015224456787e-01 -8.373582363128662109e-01 3.798321634531021118e-02
3.852171599864959717e-01 -8.301681280136108398e-01 5.103062838315963745e-02
3.918303251266479492e-01 -8.246619701385498047e-01 7.443414628505706787e-02
7.422938346862792969e-01 -1.996904611587524414e-01 4.136497080326080322e-01
7.259114384651184082e-01 -2.010875791311264038e-01 4.397434592247009277e-01
7.400913834571838379e-01 -1.793382018804550171e-01 4.464564025402069092e-01
7.224847078323364258e-01 -1.797476261854171753e-01 4.714176058769226074e-01
-1.717655211687088013e-01 -4.743797481060028076e-01 -7.354190349578857422e-01
-1.795068234205245972e-01 -4.808753430843353271e-01 -7.149780392646789551e-01
-1.929733604192733765e-01 -4.628164172172546387e-01 -7.191993594169616699e-01
-1.999833136796951294e-01 -4.698035120964050293e-01 -6.962565779685974121e-01
4.163286089897155762e-01 -2.322213351726531982e-01 6.812171339988708496e-01
3.944504857063293457e-01 -2.371826916933059692e-01 7.035525441169738770e-01
4.028401374816894531e-01 -2.127980589866638184e-01 7.052847743034362793e-01
3.800068795680999756e-01 -2.174199223518371582e-01 7.265387177467346191e-01
-3.410669565200805664e-01 -7.088969945907592773e-01 3.108653128147125244e-01
-3.337037861347198486e-01 -7.014509439468383789e-01 3.339983224868774414e-01
-3.468569517135620117e-01 -6.968683004379272461e-01 3.304879367351531982e-01
-3.408454656600952148e-01 -6.891935467720031738e-01 3.541889190673828125e-01
-7.885100841522216797e-01 -1.519358158111572266e-01 -2.831972539424896240e-01
-7.903652787208557129e-01 -1.553714871406555176e-01 -2.593309581279754639e-01
-7.994169592857360840e-01 -1.396581679582595825e-01 -2.641783356666564941e-01
-8.009331822395324707e-01 -1.432586759328842163e-01 -2.393826395273208618e-01
-1.746028661727905273e-01 8.362652659416198730e-01 -3.781761229038238525e-02
-1.662940531969070435e-01 8.397555351257324219e-01 -1.344765815883874893e-02
-1.898975968360900879e-01 8.441243171691894531e-01 -2.097326330840587616e-02
-1.819806843996047974e-01 8.442159295082092285e-01 3.395304083824157715e-03
1.844185292720794678e-01 -8.244886398315429688e-01 5.224474519491195679e-02
1.904255151748657227e-01 -8.204160928726196289e-01 7.991772145032882690e-02
1.670498698949813843e-01 -8.175557851791381836e-01 8.961196243762969971e-02
1.723459661006927490e-01 -8.134238123893737793e-01 1.158070564270019531e-01
3.533906042575836182e-01 -7.529468536376953125e-01 -2.684946656227111816e-01
3.592004179954528809e-01 -7.623693943023681641e-01 -2.426472902297973633e-01
3.569309711456298828e-01 -7.512573003768920898e-01 -2.505144178867340088e-01
3.615318238735198975e-01 -7.616323232650756836e-01 -2.244059592485427856e-01
7.899032235145568848e-01 1.585605740547180176e-01 1.659386232495307922e-02
7.887591123580932617e-01 1.546745747327804565e-01 4.816225916147232056e-02
7.737539410591125488e-01 1.834554970264434814e-01 2.837039902806282043e-02
7.729587554931640625e-01 1.785551011562347412e-01 5.836039409041404724e-02
-2.981207370758056641e-01 -3.207988440990447998e-01 7.164358496665954590e-01
-2.767681181430816650e-01 -3.136968314647674561e-01 7.454736232757568359e-01
-3.024979829788208008e-01 -2.925821840763092041e-01 7.321677207946777344e-01
-2.807474434375762939e-01 -2.865318655967712402e-01 7.545595169067382812e-01
5.694165825843811035e-01 -7.083186507225036621e-01 9.576365351676940918e-02
5.565727949142456055e-01 -7.105202674865722656e-01 1.207700073719024658e-01
5.694501996040344238e-01 -6.932918429374694824e-01 1.136369109153747559e-01
5.568003654479980469e-01 -6.951001286506652832e-01 1.365880668163299561e-01
-3.827055394649505615e-01 8.457129597663879395e-01 -5.902164615690708160e-03
-3.741865158081054688e-01 8.439597487449645996e-01 1.979925110936164856e-02
-3.980390727519989014e-01 8.482820987701416016e-01 1.722919382154941559e-02
-3.889569044113159180e-01 8.467981815338134766e-01 4.323613643646240234e-02
2.583260834217071533e-01 -7.162140011787414551e-01 -3.657241165637969971e-01
2.620298564434051514e-01 -7.234681844711303711e-01 -3.372809886932373047e-01
2.372949421405792236e-01 -7.177546024322509766e-01 -3.517788946628570557e-01
2.412493675947189331e-01 -7.251604795455932617e-01 -3.242275118827819824e-01
-3.338146209716796875e-01 7.882253527641296387e-01 -1.670481711626052856e-01
-3.271747529506683350e-01 7.959691882133483887e-01 -1.403191238641738892e-01
-3.425618112087249756e-01 8.005068898200988770e-01 -1.296635568141937256e-01
-3.356461822986602783e-01 8.083869218826293945e-01 -1.029923409223556519e-01
-6.559584736824035645e-01 -2.342686355113983154e-01 -4.940373599529266357e-01
-6.646974086761474609e-01 -2.412196695804595947e-01 -4.711270034313201904e-01
-6.737792491912841797e-01 -2.250406444072723389e-01 -4.784038662910461426e-01
-6.822332143783569336e-01 -2.316727638244628906e-01 -4.553963541984558105e-01
-9.002447128295898438e-02 4.011519253253936768e-01 -8.247336149215698242e-01
-1.107008010149002075e-01 4.023853838443756104e-01 -8.123006224632263184e-01
-9.907078742980957031e-02 4.212083518505096436e-01 -8.082667589187622070e-01
-1.171556860208511353e-01 4.240473508834838867e-01 -7.928541898727416992e-01
-1.332659274339675903e-03 -3.767052292823791504e-01 -8.470252156257629395e-01
-2.117538079619407654e-02 -3.896631002426147461e-01 -8.411187529563903809e-01
-1.505390927195549011e-02 -3.537287116050720215e-01 -8.448194861412048340e-01
-3.442925959825515747e-02 -3.658556938171386719e-01 -8.384140133857727051e-01
3.791603446006774902e-01 -2.941792607307434082e-01 -7.022850513458251953e-01
4.019033610820770264e-01 -2.999653220176696777e-01 -6.842967867851257324e-01
4.039502143859863281e-01 -2.676419615745544434e-01 -6.961095333099365234e-01
4.255957007408142090e-01 -2.718445360660552979e-01 -6.803505420684814453e-01
3.419185876846313477e-01 7.325044870376586914e-01 2.909596264362335205e-01
3.390190899372100830e-01 7.216411232948303223e-01 3.187631964683532715e-01
3.132398128509521484e-01 7.353211045265197754e-01 3.090147972106933594e-01
3.122434020042419434e-01 7.253799438476562500e-01 3.366631865501403809e-01
4.571603536605834961e-01 3.210308253765106201e-01 -6.071545481681823730e-01
4.726355671882629395e-01 3.283315598964691162e-01 -5.742798447608947754e-01
4.370066523551940918e-01 3.466669619083404541e-01 -5.880924463272094727e-01
4.545148909091949463e-01 3.541736602783203125e-01 -5.532755255699157715e-01
6.918525099754333496e-01 -4.386245310306549072e-01 2.413231581449508667e-01
6.828305125236511230e-01 -4.433605670928955078e-01 2.687798440456390381e-01
6.942521333694458008e-01 -4.206870198249816895e-01 2.694472968578338623e-01
6.835244894027709961e-01 -4.247822165489196777e-01 2.959364950656890869e-01
2.299375534057617188e-01 -5.154795572161674500e-02 7.547097206115722656e-01
2.046142071485519409e-01 -5.281265079975128174e-02 7.686920762062072754e-01
2.214825898408889771e-01 -2.781607583165168762e-02 7.670558094978332520e-01
1.964241266250610352e-01 -2.906264737248420715e-02 7.819259166717529297e-01
2.017432898283004761e-01 5.227243304252624512e-01 6.438341736793518066e-01
1.954957842826843262e-01 5.167062282562255859e-01 6.630390882492065430e-01
1.853469163179397583e-01 5.351921319961547852e-01 6.533061861991882324e-01
1.794782131910324097e-01 5.295259356498718262e-01 6.726177930831909180e-01
5.635596513748168945e-01 -1.754778474569320679e-01 -6.199695467948913574e-01
5.844165086746215820e-01 -1.844167560338973999e-01 -5.999773144721984863e-01
5.891323089599609375e-01 -1.567947715520858765e-01 -6.163252592086791992e-01
6.100950837135314941e-01 -1.645116806030273438e-01 -5.952335000038146973e-01
6.722268462181091309e-01 5.022399425506591797e-01 1.718372851610183716e-01
6.722329854965209961e-01 4.946543872356414795e-01 1.992688775062561035e-01
6.550578474998474121e-01 5.196524858474731445e-01 1.881453394889831543e-01
6.533057689666748047e-01 5.127952694892883301e-01 2.152481675148010254e-01
6.889396905899047852e-01 2.015164196491241455e-01 -4.980990886688232422e-01
6.989300847053527832e-01 2.094607502222061157e-01 -4.673788845539093018e-01
6.750363707542419434e-01 2.262677848339080811e-01 -4.852389693260192871e-01
6.853300333023071289e-01 2.352270334959030151e-01 -4.578610360622406006e-01
-5.483707785606384277e-01 6.864488720893859863e-01 1.287914514541625977e-01
-5.394079089164733887e-01 6.734136939048767090e-01 1.653281152248382568e-01
-5.293381214141845703e-01 7.052959203720092773e-01 1.493787467479705811e-01
-5.156110525131225586e-01 6.903369426727294922e-01 1.858121305704116821e-01
-7.776952981948852539e-01 -1.707457900047302246e-01 1.510398685932159424e-01
-7.811744213104248047e-01 -1.745947897434234619e-01 1.853797137737274170e-01
-7.946246862411499023e-01 -1.492788940668106079e-01 1.688635051250457764e-01
-7.974106669425964355e-01 -1.533112674951553345e-01 2.044280469417572021e-01
-2.842646837234497070e-01 6.097645759582519531e-01 4.813364148139953613e-01
-2.734180390834808350e-01 6.009851694107055664e-01 5.022646784782409668e-01
-2.628450095653533936e-01 6.173127889633178711e-01 4.948089718818664551e-01
-2.517330646514892578e-01 6.088251471519470215e-01 5.166176557540893555e-01
-7.256928086280822754e-01 -3.212182223796844482e-01 6.464321166276931763e-02
-7.260192036628723145e-01 -3.260768055915832520e-01 9.167833626270294189e-02
-7.389762401580810547e-01 -3.025034666061401367e-01 8.435748517513275146e-02
-7.398471832275390625e-01 -3.070231378078460693e-01 1.109839901328086853e-01
2.762176692485809326e-01 -3.952656984329223633e-01 7.123453021049499512e-01
2.580549120903015137e-01 -3.955531418323516846e-01 7.316517233848571777e-01
2.670322358608245850e-01 -3.722623884677886963e-01 7.298877239227294922e-01
2.466000616550445557e-01 -3.726356625556945801e-01 7.473668456077575684e-01
7.068549990653991699e-01 -2.465099245309829712e-01 -4.338198900222778320e-01
7.141998410224914551e-01 -2.572812438011169434e-01 -4.035305082798004150e-01
7.238484621047973633e-01 -2.332336157560348511e-01 -4.214854836463928223e-01
7.284565567970275879e-01 -2.420315444469451904e-01 -3.882080018520355225e-01
8.411605954170227051e-01 4.404778033494949341e-02 -2.969165742397308350e-01
8.387745022773742676e-01 3.908268734812736511e-02 -2.647542357444763184e-01
8.307479023933410645e-01 5.951730906963348389e-02 -2.722410857677459717e-01
8.290193080902099609e-01 5.545519292354583740e-02 -2.380089461803436279e-01
-7.999858856201171875e-01 1.105574294924736023e-01 -2.951202094554901123e-01
-8.046164512634277344e-01 1.051369458436965942e-01 -2.672027349472045898e-01
-8.050511479377746582e-01 1.244261860847473145e-01 -2.709462046623229980e-01
-8.113494515419006348e-01 1.191803961992263794e-01 -2.413467913866043091e-01
-2.729368209838867188e-01 -6.683331727981567383e-01 4.285607337951660156e-01
-2.612199485301971436e-01 -6.620449423789978027e-01 4.546059072017669678e-01
-2.896803021430969238e-01 -6.566447019577026367e-01 4.535254538059234619e-01
-2.762576043605804443e-01 -6.507623791694641113e-01 4.812846481800079346e-01
1.418414264917373657e-01 6.685343384742736816e-01 4.638598561286926270e-01
1.474331617355346680e-01 6.604883074760437012e-01 4.921811223030090332e-01
1.190288662910461426e-01 6.684017181396484375e-01 4.779216349124908447e-01
1.252546012401580811e-01 6.598434448242187500e-01 5.071125626564025879e-01
-8.104982376098632812e-01 1.033924892544746399e-01 -6.206461228430271149e-03
-8.140991330146789551e-01 9.763636440038681030e-02 2.254405617713928223e-02
-8.078891634941101074e-01 1.177395805716514587e-01 1.850048452615737915e-02
-8.100700974464416504e-01 1.131408512592315674e-01 4.304215312004089355e-02
8.451120853424072266e-01 -1.671757362782955170e-02 4.628552868962287903e-02
8.436985611915588379e-01 -2.390353195369243622e-02 7.308635115623474121e-02
8.411622047424316406e-01 -1.883027609437704086e-03 6.450429558753967285e-02
8.396303653717041016e-01 -8.399927988648414612e-03 9.059808403253555298e-02
-6.002866625785827637e-01 -6.560569405555725098e-01 5.747342482209205627e-02
-5.961212515830993652e-01 -6.591059565544128418e-01 8.346481621265411377e-02
-6.115535497665405273e-01 -6.424369812011718750e-01 8.130782842636108398e-02
-6.059166193008422852e-01 -6.450986266136169434e-01 1.069329828023910522e-01
-2.007374763488769531e-01 -6.042604446411132812e-01 5.599607229232788086e-01
-1.892636120319366455e-01 -6.038191318511962891e-01 5.919410586357116699e-01
-2.205479294061660767e-01 -5.903066992759704590e-01 5.833394527435302734e-01
-2.081861943006515503e-01 -5.906440019607543945e-01 6.159372925758361816e-01
7.517675161361694336e-01 -2.799868285655975342e-01 3.102962374687194824e-01
7.438212633132934570e-01 -2.831573188304901123e-01 3.356592655181884766e-01
7.502366304397583008e-01 -2.642724812030792236e-01 3.395727872848510742e-01
7.418724894523620605e-01 -2.671567499637603760e-01 3.644688427448272705e-01
-3.732049763202667236e-01 2.949078083038330078e-01 -7.111177444458007812e-01
-3.929366767406463623e-01 2.941567599773406982e-01 -6.896856427192687988e-01
-3.862705230712890625e-01 3.169707059860229492e-01 -6.899510622024536133e-01
-4.039824008941650391e-01 3.164092600345611572e-01 -6.673185229301452637e-01
4.799797832965850830e-01 6.145113706588745117e-02 -6.702057719230651855e-01
5.015849471092224121e-01 6.479524075984954834e-02 -6.563020348548889160e-01
4.689073562622070312e-01 9.286960959434509277e-02 -6.758091449737548828e-01
4.909382462501525879e-01 9.642821550369262695e-02 -6.616241335868835449e-01
1.194120347499847412e-01 -5.417885184288024902e-01 7.069780230522155762e-01
1.051803380250930786e-01 -5.417989492416381836e-01 7.270427346229553223e-01
1.246735230088233948e-01 -5.225650072097778320e-01 7.275154590606689453e-01
1.103926524519920349e-01 -5.227235555648803711e-01 7.471522688865661621e-01
-1.181993782520294189e-01 8.328909277915954590e-01 2.193291485309600830e-02
-1.069598495960235596e-01 8.315246701240539551e-01 5.121766775846481323e-02
-1.293436139822006226e-01 8.318380713462829590e-01 4.299570620059967041e-02
-1.198030784726142883e-01 8.289288282394409180e-01 7.346066832542419434e-02
-2.576494775712490082e-02 -5.444012880325317383e-01 7.962280511856079102e-01
-2.744286693632602692e-02 -5.392319560050964355e-01 8.160622715950012207e-01
-3.935904055833816528e-02 -5.192604064941406250e-01 8.159421086311340332e-01
-3.794367238879203796e-02 -5.161899924278259277e-01 8.318201303482055664e-01
-4.372182786464691162e-01 8.143908977508544922e-01 5.135039985179901123e-02
-4.286355376243591309e-01 8.101343512535095215e-01 7.997254282236099243e-02
-4.498410820960998535e-01 8.215101361274719238e-01 7.168476283550262451e-02
-4.408404529094696045e-01 8.160944581031799316e-01 9.954212605953216553e-02
-3.401868045330047607e-01 2.615173459053039551e-01 -7.309489846229553223e-01
-3.630594611167907715e-01 2.607803344726562500e-01 -7.114580869674682617e-01
-3.587233126163482666e-01 2.783059775829315186e-01 -7.145230770111083984e-01
-3.797877728939056396e-01 2.780807316303253174e-01 -6.933887600898742676e-01
6.058635711669921875e-01 -6.428828239440917969e-01 -7.356178760528564453e-02
6.062844991683959961e-01 -6.536283493041992188e-01 -4.065081104636192322e-02
6.057024598121643066e-01 -6.279788613319396973e-01 -3.540790826082229614e-02
6.036290526390075684e-01 -6.372246742248535156e-01 -3.809956833720207214e-03
-6.933005452156066895e-01 4.058123528957366943e-01 1.642141491174697876e-01
-6.966778039932250977e-01 3.989701867103576660e-01 1.921503990888595581e-01
-6.933698058128356934e-01 4.178166985511779785e-01 1.887539178133010864e-01
-6.963917613029479980e-01 4.120824933052062988e-01 2.162625491619110107e-01
7.756156325340270996e-01 2.114682495594024658e-01 -3.158439695835113525e-01
7.780908942222595215e-01 2.048200815916061401e-01 -2.747416794300079346e-01
7.609345316886901855e-01 2.282789498567581177e-01 -2.915114760398864746e-01
7.639502286911010742e-01 2.213399410247802734e-01 -2.507119774818420410e-01
6.413149833679199219e-01 4.779740869998931885e-01 2.351435720920562744e-01
6.384034156799316406e-01 4.690282046794891357e-01 2.630802392959594727e-01
6.233385801315307617e-01 4.896526932716369629e-01 2.524143457412719727e-01
6.194654703140258789e-01 4.804893136024475098e-01 2.802638113498687744e-01
3.406607806682586670e-01 -5.420459508895874023e-01 4.791556000709533691e-01
3.249301016330718994e-01 -5.380373597145080566e-01 5.035987496376037598e-01
3.318663239479064941e-01 -5.227774977684020996e-01 5.149522423744201660e-01
3.173373639583587646e-01 -5.183662772178649902e-01 5.382894277572631836e-01
2.105644643306732178e-01 -4.433110356330871582e-01 7.179288864135742188e-01
1.892866045236587524e-01 -4.455645382404327393e-01 7.407061457633972168e-01
2.106223851442337036e-01 -4.238938391208648682e-01 7.346581220626831055e-01
1.884780675172805786e-01 -4.266376793384552002e-01 7.566941976547241211e-01
-5.637164711952209473e-01 3.919529616832733154e-01 4.209960401058197021e-01
-5.531975030899047852e-01 3.805567026138305664e-01 4.476075470447540283e-01
-5.430710911750793457e-01 4.041471779346466064e-01 4.374597966670989990e-01
-5.307298302650451660e-01 3.923839032649993896e-01 4.645632505416870117e-01
-3.347891941666603088e-02 5.025504231452941895e-01 -8.323655128479003906e-01
-5.702786147594451904e-02 5.043483376502990723e-01 -8.148966431617736816e-01
-5.323307216167449951e-02 5.204421281814575195e-01 -8.063745498657226562e-01
-7.138712704181671143e-02 5.231338739395141602e-01 -7.854865193367004395e-01
1.247419342398643494e-01 4.760411381721496582e-01 -7.739548683166503906e-01
1.404781490564346313e-01 4.917369782924652100e-01 -7.467217445373535156e-01
1.124993115663528442e-01 4.977776408195495605e-01 -7.565057277679443359e-01
1.275952309370040894e-01 5.139613747596740723e-01 -7.301219105720520020e-01
-7.815657258033752441e-01 -1.689447313547134399e-01 -1.184077635407447815e-01
-7.837643027305603027e-01 -1.708530783653259277e-01 -8.937222510576248169e-02
-7.907508611679077148e-01 -1.481796801090240479e-01 -9.904284775257110596e-02
-7.931357026100158691e-01 -1.504888534545898438e-01 -6.946895271539688110e-02
5.322612524032592773e-01 4.150912761688232422e-01 -4.369663894176483154e-01
5.428894162178039551e-01 4.239231944084167480e-01 -4.101255834102630615e-01
5.175904035568237305e-01 4.408308565616607666e-01 -4.149478375911712646e-01
5.277872085571289062e-01 4.493913948535919189e-01 -3.862393200397491455e-01
-3.875280320644378662e-01 -2.027683258056640625e-01 -7.099829912185668945e-01
-4.056025743484497070e-01 -2.052616775035858154e-01 -6.943079233169555664e-01
-4.052427411079406738e-01 -1.831911951303482056e-01 -6.982513070106506348e-01
-4.229813516139984131e-01 -1.857922822237014771e-01 -6.823859214782714844e-01
-2.315545678138732910e-01 -2.492879927158355713e-01 -7.677789926528930664e-01
-2.532075047492980957e-01 -2.514411509037017822e-01 -7.523799538612365723e-01
-2.477845102548599243e-01 -2.303389310836791992e-01 -7.581909298896789551e-01
-2.690324783325195312e-01 -2.324922531843185425e-01 -7.437427043914794922e-01
5.950517058372497559e-01 5.335028097033500671e-02 6.164089441299438477e-01
5.755696296691894531e-01 5.113616213202476501e-02 6.285787224769592285e-01
5.771993994712829590e-01 6.916244328022003174e-02 6.277235746383666992e-01
5.585640072822570801e-01 6.601671129465103149e-02 6.407359242439270020e-01
2.873593270778656006e-01 -4.564422070980072021e-01 -6.375567913055419922e-01
2.973264157772064209e-01 -4.656547904014587402e-01 -6.154450774192810059e-01
2.981688976287841797e-01 -4.496605098247528076e-01 -6.250373721122741699e-01
3.068138360977172852e-01 -4.600830078125000000e-01 -6.026850342750549316e-01
-1.777449399232864380e-01 -7.119853496551513672e-01 3.518237769603729248e-01
-1.693384200334548950e-01 -7.080835700035095215e-01 3.764633238315582275e-01
-1.911175698041915894e-01 -7.045196294784545898e-01 3.781420290470123291e-01
-1.838318407535552979e-01 -7.000467777252197266e-01 4.023634493350982666e-01
-2.559911310672760010e-01 -7.726115584373474121e-01 -2.217541635036468506e-01
-2.543963491916656494e-01 -7.813394069671630859e-01 -1.930199861526489258e-01
-2.829844653606414795e-01 -7.736640572547912598e-01 -2.075917571783065796e-01
-2.819840013980865479e-01 -7.825457453727722168e-01 -1.788574904203414917e-01
4.829643070697784424e-01 -7.200286984443664551e-01 1.659774780273437500e-01
4.695037007331848145e-01 -7.154381275177001953e-01 1.851346939802169800e-01
4.699034690856933594e-01 -7.014347314834594727e-01 1.955013722181320190e-01
4.558989405632019043e-01 -6.982358694076538086e-01 2.148653268814086914e-01
1.049478650093078613e-01 2.056050896644592285e-01 8.086403608322143555e-01
7.948464155197143555e-02 1.979287117719650269e-01 8.185908198356628418e-01
9.205304086208343506e-02 2.323054075241088867e-01 8.169339299201965332e-01
6.847087293863296509e-02 2.223176211118698120e-01 8.247047066688537598e-01
2.690423727035522461e-01 -7.945407032966613770e-01 -1.762268394231796265e-01
2.705089449882507324e-01 -7.999230027198791504e-01 -1.484476625919342041e-01
2.450464963912963867e-01 -7.895730733871459961e-01 -1.636813282966613770e-01
2.475903034210205078e-01 -7.957648038864135742e-01 -1.367370784282684326e-01
-5.952304601669311523e-01 -4.423491060733795166e-01 -3.608905375003814697e-01
-5.923549532890319824e-01 -4.498052299022674561e-01 -3.311240673065185547e-01
-6.095108985900878906e-01 -4.298390746116638184e-01 -3.418054282665252686e-01
-6.090784668922424316e-01 -4.362788796424865723e-01 -3.115246295928955078e-01
3.279849290847778320e-01 1.666904687881469727e-01 7.236298322677612305e-01
3.103615343570709229e-01 1.652894318103790283e-01 7.358141541481018066e-01
3.146419525146484375e-01 1.920642107725143433e-01 7.301682233810424805e-01
2.972570955753326416e-01 1.908573657274246216e-01 7.433087825775146484e-01
-3.202994465827941895e-01 7.067520022392272949e-01 3.359420597553253174e-01
-3.079227805137634277e-01 6.964976191520690918e-01 3.617601096630096436e-01
-3.108226358890533447e-01 7.116244435310363770e-01 3.531181812286376953e-01
-2.975037395954132080e-01 7.011132836341857910e-01 3.781102597713470459e-01
-6.351939439773559570e-01 5.469652414321899414e-01 -1.173407584428787231e-01
-6.395798325538635254e-01 5.412346124649047852e-01 -8.532826602458953857e-02
-6.352783441543579102e-01 5.639565587043762207e-01 -9.581314027309417725e-02
-6.391656994819641113e-01 5.585857629776000977e-01 -6.567629426717758179e-02
-1.783684790134429932e-01 -7.186385393142700195e-01 -3.544795811176300049e-01
-1.765684336423873901e-01 -7.256326079368591309e-01 -3.312686979770660400e-01
-1.977635324001312256e-01 -7.236201167106628418e-01 -3.350307643413543701e-01
-1.968658417463302612e-01 -7.300853133201599121e-01 -3.107790946960449219e-01
3.352435827255249023e-01 7.853460311889648438e-01 -1.641237139701843262e-01
3.496172726154327393e-01 7.928475737571716309e-01 -1.325383335351943970e-01
3.249307274818420410e-01 8.042593598365783691e-01 -1.362681835889816284e-01
3.411267101764678955e-01 8.102610707283020020e-01 -1.045734584331512451e-01
3.118494153022766113e-01 -3.709700107574462891e-01 7.014940381050109863e-01
2.913814485073089600e-01 -3.704124093055725098e-01 7.202567458152770996e-01
2.960289120674133301e-01 -3.502762317657470703e-01 7.211834788322448730e-01
2.750543653964996338e-01 -3.499533236026763916e-01 7.395512461662292480e-01
-6.900532245635986328e-01 8.599479496479034424e-02 5.803688168525695801e-01
-6.690708398818969727e-01 8.483956009149551392e-02 6.003509759902954102e-01
-6.734918951988220215e-01 1.106267124414443970e-01 5.835581421852111816e-01
-6.525450348854064941e-01 1.073666214942932129e-01 6.048456430435180664e-01
5.432456731796264648e-01 -3.956405520439147949e-01 4.335220158100128174e-01
5.310025811195373535e-01 -3.934041559696197510e-01 4.518700242042541504e-01
5.323936343193054199e-01 -3.822413384914398193e-01 4.584117233753204346e-01
5.197193622589111328e-01 -3.799884617328643799e-01 4.795555770397186279e-01
-5.635704994201660156e-01 2.287362217903137207e-01 5.791248679161071777e-01
-5.506219267845153809e-01 2.202192395925521851e-01 6.060547232627868652e-01
-5.399948358535766602e-01 2.438785433769226074e-01 6.030955910682678223e-01
-5.257480144500732422e-01 2.346860617399215698e-01 6.286345720291137695e-01
1.252520829439163208e-01 7.032548785209655762e-01 3.701533675193786621e-01
1.298673450946807861e-01 6.965111494064331055e-01 4.007889926433563232e-01
1.035041585564613342e-01 6.989100575447082520e-01 3.936207592487335205e-01
1.081223115324974060e-01 6.929850578308105469e-01 4.229674935340881348e-01
-6.604048609733581543e-01 4.859256148338317871e-01 1.695201098918914795e-01
-6.642615199089050293e-01 4.811511039733886719e-01 1.924203634262084961e-01
-6.629789471626281738e-01 4.991217255592346191e-01 1.898879110813140869e-01
-6.658686995506286621e-01 4.929960668087005615e-01 2.137225717306137085e-01
-2.944989800453186035e-01 -7.227240204811096191e-01 3.363806009292602539e-01
-2.874214947223663330e-01 -7.149715423583984375e-01 3.581697940826416016e-01
-3.084727823734283447e-01 -7.099763751029968262e-01 3.558751344680786133e-01
-3.013813197612762451e-01 -7.020303606986999512e-01 3.774993121623992920e-01
6.982389688491821289e-01 -4.069591164588928223e-01 1.521341204643249512e-01
