3.265295624732971191e-01 1.838040649890899658e-01 -2.861308753490447998e-01
3.417385220527648926e-01 1.824406832456588745e-01 -2.725411653518676758e-01
3.317993879318237305e-01 2.013057619333267212e-01 -2.868315875530242920e-01
3.458013534545898438e-01 1.994312703609466553e-01 -2.737690806388854980e-01
-4.465222060680389404e-01 4.347704946994781494e-01 1.458019390702247620e-02
-4.538530409336090088e-01 4.177749156951904297e-01 2.362042292952537537e-02
-4.579804837703704834e-01 4.535079002380371094e-01 1.244911551475524902e-02
-4.625501930713653564e-01 4.383020699024200439e-01 2.276344783604145050e-02
-3.409985899925231934e-01 -1.154743228107690811e-02 -3.434273898601531982e-01
-3.346254825592041016e-01 -9.806916117668151855e-03 -3.267504572868347168e-01
-3.426280319690704346e-01 1.162596512585878372e-02 -3.345655500888824463e-01
-3.298168778419494629e-01 1.421375665813684464e-02 -3.186706304550170898e-01
3.292795419692993164e-01 2.812221460044384003e-02 -1.889669895172119141e-01
3.335982859134674072e-01 1.759637147188186646e-02 -1.688025742769241333e-01
3.425209820270538330e-01 3.530086204409599304e-02 -1.751905828714370728e-01
3.482456505298614502e-01 2.525578998029232025e-02 -1.530574709177017212e-01
5.611614584922790527e-01 7.204470038414001465e-01 -2.221030928194522858e-02
5.635297894477844238e-01 7.172831892967224121e-01 -3.875636495649814606e-03
5.604026913642883301e-01 7.298297286033630371e-01 -4.943386651575565338e-03
5.610606670379638672e-01 7.271954417228698730e-01 1.269979961216449738e-02
4.752761721611022949e-01 2.780011892318725586e-01 -1.181240230798721313e-01
4.817671775817871094e-01 2.740950286388397217e-01 -9.460815787315368652e-02
4.784694910049438477e-01 2.939034402370452881e-01 -9.978275746107101440e-02
4.845561385154724121e-01 2.898825705051422119e-01 -7.603365182876586914e-02
1.423550695180892944e-01 -3.512013852596282959e-01 3.435645997524261475e-01
1.289493888616561890e-01 -3.605853915214538574e-01 3.502908349037170410e-01
1.240074709057807922e-01 -3.336017429828643799e-01 3.476339280605316162e-01
1.140337735414505005e-01 -3.472073376178741455e-01 3.509335517883300781e-01
-1.303509920835494995e-01 -2.514555454254150391e-01 -3.140525817871093750e-01
-1.253168135881423950e-01 -2.461553961038589478e-01 -2.946376502513885498e-01
-1.385389268398284912e-01 -2.409575283527374268e-01 -2.989109158515930176e-01
-1.328017413616180420e-01 -2.370277941226959229e-01 -2.798985540866851807e-01
-9.426207840442657471e-02 -7.468511462211608887e-01 2.550582289695739746e-01
-9.044683724641799927e-02 -7.518947720527648926e-01 2.682251036167144775e-01
-9.876853972673416138e-02 -7.292435169219970703e-01 2.532084584236145020e-01
-9.945465624332427979e-02 -7.398568391799926758e-01 2.630407810211181641e-01
3.582333624362945557e-01 6.966935098171234131e-02 -2.048121094703674316e-01
3.688734769821166992e-01 6.138434261083602905e-02 -1.799108237028121948e-01
3.744054436683654785e-01 7.930318266153335571e-02 -1.905335485935211182e-01
3.846380710601806641e-01 7.079286128282546997e-02 -1.658084392547607422e-01
2.419930696487426758e-01 5.814112424850463867e-01 3.424781560897827148e-01
2.341616898775100708e-01 5.741806626319885254e-01 3.579040169715881348e-01
2.259767949581146240e-01 5.881513357162475586e-01 3.508219420909881592e-01
2.186563163995742798e-01 5.796253085136413574e-01 3.667036294937133789e-01
1.925877928733825684e-01 -1.357128173112869263e-01 2.683911621570587158e-01
1.782048046588897705e-01 -1.363932490348815918e-01 2.760263979434967041e-01
1.835548132658004761e-01 -1.232989877462387085e-01 2.725788056850433350e-01
1.678549796342849731e-01 -1.226898431777954102e-01 2.787861526012420654e-01
1.526508573442697525e-02 6.750749945640563965e-01 -1.604806929826736450e-01
1.181821618229150772e-02 6.795213222503662109e-01 -1.443923711776733398e-01
5.940759088844060898e-03 6.864572167396545410e-01 -1.323087811470031738e-01
2.372778719291090965e-03 6.905345916748046875e-01 -1.164611056447029114e-01
6.364734843373298645e-03 1.380955427885055542e-01 -3.575131297111511230e-01
-6.334592122584581375e-03 1.298842281103134155e-01 -3.469952940940856934e-01
-1.000904105603694916e-02 1.471399068832397461e-01 -3.536998629570007324e-01
-2.291284687817096710e-02 1.399038583040237427e-01 -3.425212800502777100e-01
-9.907817095518112183e-02 -2.433183938264846802e-01 -3.191438689827919006e-02
-9.462296217679977417e-02 -2.448553740978240967e-01 -1.074138656258583069e-02
-1.154448464512825012e-01 -2.425795942544937134e-01 -1.828619651496410370e-02
-1.116854548454284668e-01 -2.450614720582962036e-01 3.326154313981533051e-03
-2.214080691337585449e-01 -2.570905983448028564e-01 2.330414950847625732e-02
-2.237042635679244995e-01 -2.660128474235534668e-01 3.660831227898597717e-02
-2.374948561191558838e-01 -2.610913813114166260e-01 2.897756360471248627e-02
-2.407601177692413330e-01 -2.697001099586486816e-01 4.312855377793312073e-02
2.845024503767490387e-02 -6.024705246090888977e-02 -1.793000549077987671e-01
2.556737512350082397e-02 -6.700949370861053467e-02 -1.624872535467147827e-01
1.535446941852569580e-02 -6.216611713171005249e-02 -1.677955687046051025e-01
1.213488355278968811e-02 -6.862851232290267944e-02 -1.504737138748168945e-01
1.141917034983634949e-01 -7.926033139228820801e-01 1.317269206047058105e-01
1.087376102805137634e-01 -7.956399917602539062e-01 1.461846381425857544e-01
1.141207963228225708e-01 -7.827357649803161621e-01 1.580334156751632690e-01
1.069725900888442993e-01 -7.862086296081542969e-01 1.726552695035934448e-01
2.928450703620910645e-01 4.643129706382751465e-01 3.750917017459869385e-01
2.797568440437316895e-01 4.607003331184387207e-01 3.876220285892486572e-01
2.747272551059722900e-01 4.780436754226684570e-01 3.782255649566650391e-01
2.626173794269561768e-01 4.737641811370849609e-01 3.908460438251495361e-01
5.227839946746826172e-01 5.889303088188171387e-01 6.766862422227859497e-02
5.108022689819335938e-01 5.799411535263061523e-01 8.123506605625152588e-02
5.195314884185791016e-01 6.063230633735656738e-01 7.634783536195755005e-02
5.075241327285766602e-01 5.965937972068786621e-01 8.870619535446166992e-02
-5.831950902938842773e-02 -6.959727406501770020e-01 2.783569693565368652e-01
-5.892949551343917847e-02 -7.117536067962646484e-01 2.883001565933227539e-01
-6.271027773618698120e-02 -6.763105392456054688e-01 2.687729299068450928e-01
-6.636328250169754028e-02 -6.930263042449951172e-01 2.794856429100036621e-01
1.823760755360126495e-02 -9.228266030550003052e-02 -1.147688105702400208e-01
1.603149995207786560e-02 -9.925615042448043823e-02 -9.582890570163726807e-02
1.207716297358274460e-03 -9.175097197294235229e-02 -1.008482351899147034e-01
-9.633123409003019333e-04 -9.797848016023635864e-02 -8.108799904584884644e-02
-1.762242615222930908e-01 1.755501627922058105e-01 -2.963746488094329834e-01
-1.869744509458541870e-01 1.720906198024749756e-01 -2.866888642311096191e-01
-1.842148154973983765e-01 1.865184158086776733e-01 -2.897916138172149658e-01
-1.953758597373962402e-01 1.841270476579666138e-01 -2.802472710609436035e-01
-2.370665967464447021e-01 -7.956151366233825684e-01 -1.263121068477630615e-01
-2.324057668447494507e-01 -7.946044206619262695e-01 -1.065921932458877563e-01
-2.509064674377441406e-01 -7.935647964477539062e-01 -1.089594587683677673e-01
-2.455974221229553223e-01 -7.926344871520996094e-01 -8.832491934299468994e-02
-1.889846175909042358e-01 1.785872429609298706e-01 3.071769177913665771e-01
-1.739016920328140259e-01 1.802881211042404175e-01 3.219127357006072998e-01
-1.822674423456192017e-01 1.940149813890457153e-01 3.143913149833679199e-01
-1.676783859729766846e-01 1.970492601394653320e-01 3.275002837181091309e-01
-9.005259722471237183e-02 5.400684475898742676e-01 -2.929758727550506592e-01
-1.029282063245773315e-01 5.418710112571716309e-01 -2.770628631114959717e-01
-9.669674187898635864e-02 5.558679699897766113e-01 -2.696266770362854004e-01
-1.077612042427062988e-01 5.580794811248779297e-01 -2.542456388473510742e-01
-3.510158658027648926e-01 -3.030287325382232666e-01 -4.338026940822601318e-01
-3.701072335243225098e-01 -3.150300979614257812e-01 -4.256120026111602783e-01
-3.674464225769042969e-01 -2.871696352958679199e-01 -4.332352280616760254e-01
-3.863023221492767334e-01 -2.986900806427001953e-01 -4.245582818984985352e-01
4.605006426572799683e-02 -7.855902314186096191e-01 -7.894327864050865173e-04
4.842242971062660217e-02 -7.851632237434387207e-01 1.624920032918453217e-02
3.611665219068527222e-02 -7.804729938507080078e-01 1.079708989709615707e-02
3.855455666780471802e-02 -7.804623246192932129e-01 2.889376133680343628e-02
3.011231124401092529e-01 -7.413980960845947266e-01 -1.058554947376251221e-01
3.113833069801330566e-01 -7.467240691184997559e-01 -8.198039978742599487e-02
2.994005978107452393e-01 -7.318122982978820801e-01 -8.777730166912078857e-02
3.073708415031433105e-01 -7.375968694686889648e-01 -6.358569115400314331e-02
5.544891357421875000e-01 6.778337955474853516e-01 -5.113912746310234070e-02
5.606658458709716797e-01 6.737077832221984863e-01 -3.156077861785888672e-02
5.539538264274597168e-01 6.849191784858703613e-01 -3.787401691079139709e-02
5.586826801300048828e-01 6.809101700782775879e-01 -1.890380121767520905e-02
8.885384351015090942e-02 1.242892965674400330e-01 5.064880847930908203e-01
6.658806651830673218e-02 1.231312900781631470e-01 5.142416357994079590e-01
7.656994462013244629e-02 1.425554305315017700e-01 5.146249532699584961e-01
5.430009961128234863e-02 1.387107968330383301e-01 5.208784937858581543e-01
-3.871302306652069092e-01 -2.721658051013946533e-01 -4.649766907095909119e-02
-3.877906501293182373e-01 -2.819261550903320312e-01 -3.168498724699020386e-02
-3.809882402420043945e-01 -2.730267345905303955e-01 -2.883677184581756592e-02
-3.814939558506011963e-01 -2.844511568546295166e-01 -1.378768775612115860e-02
1.307228654623031616e-01 3.096857964992523193e-01 4.991760253906250000e-01
1.216898337006568909e-01 3.009326457977294922e-01 5.173230171203613281e-01
1.106396466493606567e-01 3.140504956245422363e-01 5.071603655815124512e-01
1.025557294487953186e-01 3.050784468650817871e-01 5.232530236244201660e-01
-4.048142731189727783e-01 5.924289226531982422e-01 -1.212503612041473389e-01
-4.124158918857574463e-01 5.987676382064819336e-01 -1.066559329628944397e-01
-4.241745471954345703e-01 6.077144145965576172e-01 -1.049408838152885437e-01
-4.313440620899200439e-01 6.109557151794433594e-01 -8.826140314340591431e-02
-2.908128201961517334e-01 -7.937165498733520508e-01 -6.873632222414016724e-02
-2.839687764644622803e-01 -7.943628430366516113e-01 -4.410717636346817017e-02
-3.002451956272125244e-01 -7.862274050712585449e-01 -4.824106395244598389e-02
-2.936758995056152344e-01 -7.874400615692138672e-01 -2.296525612473487854e-02
-2.080184221267700195e-01 1.725093834102153778e-02 2.074944376945495605e-01
-2.052934616804122925e-01 1.640447415411472321e-02 2.264993637800216675e-01
-2.149302661418914795e-01 2.782831713557243347e-02 2.248866707086563110e-01
-2.125613093376159668e-01 2.813698723912239075e-02 2.435490787029266357e-01
-3.753963112831115723e-01 5.952970385551452637e-01 -1.145211681723594666e-01
-3.719086349010467529e-01 6.031997799873352051e-01 -9.685599803924560547e-02
-3.910903334617614746e-01 6.045323610305786133e-01 -9.402973949909210205e-02
-3.881641924381256104e-01 6.120009422302246094e-01 -7.586929947137832642e-02
2.338738441467285156e-01 -5.666245222091674805e-01 1.332725398242473602e-02
2.325446456670761108e-01 -5.704988241195678711e-01 3.210090100765228271e-02
2.358750849962234497e-01 -5.557746291160583496e-01 2.774643152952194214e-02
2.343284636735916138e-01 -5.593610405921936035e-01 4.617516323924064636e-02
-2.047098129987716675e-01 6.139696836471557617e-01 -5.613936111330986023e-02
-2.041214108467102051e-01 6.167641282081604004e-01 -3.596838563680648804e-02
-2.064980268478393555e-01 6.198460459709167480e-01 -2.598447166383266449e-02
-2.045012414455413818e-01 6.210184693336486816e-01 -6.615279242396354675e-03
2.841811776161193848e-01 -1.741645932197570801e-01 1.383125036954879761e-01
2.821987569332122803e-01 -1.774935722351074219e-01 1.566425710916519165e-01
2.807115018367767334e-01 -1.621951460838317871e-01 1.524199098348617554e-01
2.781046032905578613e-01 -1.656442880630493164e-01 1.700332313776016235e-01
3.945897519588470459e-01 3.956086635589599609e-01 3.145818710327148438e-01
3.850470781326293945e-01 3.925504386425018311e-01 3.305042684078216553e-01
3.874988257884979248e-01 4.117112457752227783e-01 3.266489803791046143e-01
3.768756687641143799e-01 4.080986082553863525e-01 3.401799798011779785e-01
1.791853308677673340e-01 3.465541601181030273e-01 4.125356972217559814e-01
1.663526892662048340e-01 3.430898785591125488e-01 4.263122081756591797e-01
1.672941297292709351e-01 3.588370680809020996e-01 4.202001094818115234e-01
1.542639732360839844e-01 3.560073971748352051e-01 4.332842528820037842e-01
6.248184293508529663e-02 -4.832282066345214844e-01 -3.239351809024810791e-01
7.013187557458877563e-02 -4.860659837722778320e-01 -3.035187423229217529e-01
6.034191697835922241e-02 -4.677266776561737061e-01 -3.102096319198608398e-01
6.803743541240692139e-02 -4.704042375087738037e-01 -2.894704043865203857e-01
-4.059439599514007568e-01 -4.366404712200164795e-01 7.374186068773269653e-02
-3.952440619468688965e-01 -4.399126172065734863e-01 8.652549237012863159e-02
-3.997024893760681152e-01 -4.214920997619628906e-01 8.167510479688644409e-02
-3.884759843349456787e-01 -4.245965182781219482e-01 9.380390495061874390e-02
-7.093846797943115234e-02 -4.047171398997306824e-02 3.397402465343475342e-01
-6.798534095287322998e-02 -3.587540239095687866e-02 3.575887084007263184e-01
-7.591063529253005981e-02 -3.201314434409141541e-02 3.560786843299865723e-01
-7.285155355930328369e-02 -2.763215079903602600e-02 3.732592165470123291e-01
1.766850203275680542e-01 -2.436728402972221375e-02 -2.339298278093338013e-01
1.747177094221115112e-01 -3.360767662525177002e-02 -2.153879106044769287e-01
1.591201573610305786e-01 -2.633749321103096008e-02 -2.312557250261306763e-01
1.580198854207992554e-01 -3.485393524169921875e-02 -2.120797336101531982e-01
-4.728631675243377686e-01 -2.783640027046203613e-01 -2.479366213083267212e-01
-4.641861617565155029e-01 -2.809049189090728760e-01 -2.289698719978332520e-01
-4.708993136882781982e-01 -2.619050443172454834e-01 -2.418856024742126465e-01
-4.593648016452789307e-01 -2.639251947402954102e-01 -2.226371914148330688e-01
-1.863736808300018311e-01 -2.234112322330474854e-01 -6.097714602947235107e-02
-1.806288063526153564e-01 -2.274418324232101440e-01 -4.388207569718360901e-02
-1.973255276679992676e-01 -2.227617800235748291e-01 -4.835303500294685364e-02
-1.918252259492874146e-01 -2.274056971073150635e-01 -3.124051727354526520e-02
-1.794475913047790527e-01 3.261514902114868164e-01 3.394304513931274414e-01
-1.713539063930511475e-01 3.326441049575805664e-01 3.512188792228698730e-01
-1.901129335165023804e-01 3.431046903133392334e-01 3.461969494819641113e-01
-1.809155046939849854e-01 3.489131331443786621e-01 3.581900298595428467e-01
4.638628661632537842e-01 2.563925683498382568e-01 -1.425865143537521362e-01
4.707075655460357666e-01 2.522841393947601318e-01 -1.199322566390037537e-01
4.637615382671356201e-01 2.690648138523101807e-01 -1.214489787817001343e-01
4.704425930976867676e-01 2.646962106227874756e-01 -9.903436899185180664e-02
2.559280097484588623e-01 5.618460178375244141e-01 3.505305051803588867e-01
2.474436163902282715e-01 5.549769997596740723e-01 3.657922446727752686e-01
2.401687055826187134e-01 5.670109987258911133e-01 3.592739105224609375e-01
2.312864661216735840e-01 5.598047375679016113e-01 3.745039701461791992e-01
-2.235935777425765991e-01 3.737479448318481445e-01 3.245448172092437744e-01
-2.129178345203399658e-01 3.767336905002593994e-01 3.385825753211975098e-01
-2.120694965124130249e-01 3.929467499256134033e-01 3.326959908008575439e-01
-2.008352279663085938e-01 3.964762389659881592e-01 3.464136421680450439e-01
-2.893757224082946777e-01 -7.108588218688964844e-01 -3.051823079586029053e-01
-2.981244325637817383e-01 -7.156177759170532227e-01 -2.906663715839385986e-01
-3.006758391857147217e-01 -6.982700228691101074e-01 -3.018810153007507324e-01
-3.099837601184844971e-01 -7.022850513458251953e-01 -2.862697839736938477e-01
3.903923183679580688e-02 -4.268354475498199463e-01 -3.432951867580413818e-01
4.817909747362136841e-02 -4.272226393222808838e-01 -3.235259652137756348e-01
3.264853358268737793e-02 -4.114668369293212891e-01 -3.313314914703369141e-01
4.119580611586570740e-02 -4.123090207576751709e-01 -3.110912442207336426e-01
4.353067278861999512e-02 -7.163943052291870117e-01 2.968412935733795166e-01
3.417846560478210449e-02 -7.238060832023620605e-01 3.100547194480895996e-01
3.016601502895355225e-02 -7.047967910766601562e-01 3.017599880695343018e-01
2.118828147649765015e-02 -7.153444290161132812e-01 3.124744594097137451e-01
3.614950180053710938e-02 -3.766246885061264038e-02 -2.243737727403640747e-01
3.309359028935432434e-02 -4.582324251532554626e-02 -2.056799083948135376e-01
1.789979636669158936e-02 -3.675741702318191528e-02 -2.131462842226028442e-01
1.425842009484767914e-02 -4.442374780774116516e-02 -1.946559399366378784e-01
-5.104530975222587585e-02 6.007779240608215332e-01 3.317971825599670410e-01
-4.795794934034347534e-02 5.908939242362976074e-01 3.453171849250793457e-01
-5.764800310134887695e-02 6.118893027305603027e-01 3.207466602325439453e-01
-5.697034671902656555e-02 6.015713214874267578e-01 3.342584669589996338e-01
-1.410272270441055298e-01 -4.601538181304931641e-01 1.679655164480209351e-01
-1.270433366298675537e-01 -4.564887583255767822e-01 1.836555004119873047e-01
-1.408158242702484131e-01 -4.429103732109069824e-01 1.729391068220138550e-01
-1.268835514783859253e-01 -4.398224949836730957e-01 1.884467601776123047e-01
-5.314436182379722595e-02 6.542081832885742188e-01 2.598198950290679932e-01
-4.870048165321350098e-02 6.446229815483093262e-01 2.769006490707397461e-01
-6.524360179901123047e-02 6.446416378021240234e-01 2.684361338615417480e-01
-6.291323900222778320e-02 6.343302130699157715e-01 2.845891118049621582e-01
-1.697192341089248657e-01 -2.524014376103878021e-02 -1.994523219764232635e-02
-1.687605679035186768e-01 -2.789600379765033722e-02 -3.903577104210853577e-03
-1.774768680334091187e-01 -1.859251409769058228e-02 -9.714435786008834839e-03
-1.769937276840209961e-01 -2.101430110633373260e-02 6.600135006010532379e-03
-3.829543292522430420e-01 -1.499310582876205444e-01 -4.233728647232055664e-01
-3.753259181976318359e-01 -1.477265059947967529e-01 -4.098441302776336670e-01
-3.895986378192901611e-01 -1.355826109647750854e-01 -4.143573045730590820e-01
-3.822101056575775146e-01 -1.306551694869995117e-01 -4.012245833873748779e-01
-7.194205187261104584e-03 -1.428839191794395447e-02 -2.363294661045074463e-01
-1.094411499798297882e-02 -2.238062024116516113e-02 -2.165978252887725830e-01
-2.336985245347023010e-02 -1.098060049116611481e-02 -2.264727056026458740e-01
-2.779762819409370422e-02 -1.844727434217929840e-02 -2.079249918460845947e-01
-1.759164929389953613e-01 4.715499877929687500e-01 -2.769038677215576172e-01
-1.869840323925018311e-01 4.705212116241455078e-01 -2.615230381488800049e-01
-1.882979571819305420e-01 4.869977831840515137e-01 -2.597370445728302002e-01
-1.999549716711044312e-01 4.873866438865661621e-01 -2.456304728984832764e-01
-4.886561036109924316e-01 4.396768808364868164e-01 -1.012684330344200134e-01
-4.956139624118804932e-01 4.385304450988769531e-01 -8.052765578031539917e-02
-4.964025616645812988e-01 4.516238868236541748e-01 -8.697071671485900879e-02
-5.014241337776184082e-01 4.510004222393035889e-01 -6.384401768445968628e-02
1.382066607475280762e-01 7.256410717964172363e-01 3.947798535227775574e-02
1.437530070543289185e-01 7.274254560470581055e-01 5.787038058042526245e-02
1.283322423696517944e-01 7.276503443717956543e-01 5.299141630530357361e-02
1.345581859350204468e-01 7.289897203445434570e-01 7.330556958913803101e-02
-1.648283749818801880e-01 -2.166930437088012695e-01 -1.084290146827697754e-01
-1.592356562614440918e-01 -2.196685969829559326e-01 -9.137345850467681885e-02
-1.755050569772720337e-01 -2.109271883964538574e-01 -9.827806800603866577e-02
-1.695904135704040527e-01 -2.141419500112533569e-01 -8.069630712270736694e-02
-3.137287497520446777e-01 5.140694379806518555e-01 4.177229851484298706e-02
-3.028014600276947021e-01 5.086718201637268066e-01 5.886755883693695068e-02
-3.101429343223571777e-01 5.256840586662292480e-01 4.972044005990028381e-02
-2.991668283939361572e-01 5.200546383857727051e-01 6.642284244298934937e-02
-2.782137393951416016e-01 -2.732007503509521484e-01 -3.837935626506805420e-01
-2.722377479076385498e-01 -2.657985091209411621e-01 -3.663814067840576172e-01
-2.893975377082824707e-01 -2.592042088508605957e-01 -3.718661367893218994e-01
-2.841457724571228027e-01 -2.535247802734375000e-01 -3.541831374168395996e-01
-5.969494208693504333e-02 -7.660797834396362305e-01 5.851462483406066895e-02
-5.320154502987861633e-02 -7.683452367782592773e-01 7.816603779792785645e-02
-7.260162383317947388e-02 -7.699225544929504395e-01 7.233148813247680664e-02
-6.633913516998291016e-02 -7.711945176124572754e-01 9.128403663635253906e-02
-1.834057457745075226e-02 6.903024911880493164e-01 2.014957815408706665e-01
-8.936824277043342590e-03 6.846935749053955078e-01 2.227410227060317993e-01
-3.155435621738433838e-02 6.839483976364135742e-01 2.137087583541870117e-01
-2.215472795069217682e-02 6.776646971702575684e-01 2.341958433389663696e-01
4.177583754062652588e-01 2.506106905639171600e-02 -1.972469501197338104e-02
4.141842424869537354e-01 1.658957079052925110e-02 3.748829010874032974e-03
4.216550290584564209e-01 3.432617336511611938e-02 -3.349362872540950775e-03
4.172823727130889893e-01 2.650246769189834595e-02 2.064251899719238281e-02
-5.603440105915069580e-02 5.040104985237121582e-01 3.969913125038146973e-01
-5.602714419364929199e-02 4.905892014503479004e-01 4.061537981033325195e-01
-6.371720135211944580e-02 5.167601704597473145e-01 3.920093178749084473e-01
-6.010295450687408447e-02 5.049504041671752930e-01 4.027076363563537598e-01
-3.790509402751922607e-01 1.325781196355819702e-01 -2.546904981136322021e-01
-3.833885490894317627e-01 1.282722502946853638e-01 -2.310453802347183228e-01
-3.886602520942687988e-01 1.501674950122833252e-01 -2.413103133440017700e-01
-3.919629156589508057e-01 1.458355039358139038e-01 -2.160525321960449219e-01
-1.367654204368591309e-01 -2.299042195081710815e-01 -2.445720583200454712e-01
-1.323727071285247803e-01 -2.289164364337921143e-01 -2.274309694766998291e-01
-1.441638469696044922e-01 -2.254726439714431763e-01 -2.293239980936050415e-01
-1.398269236087799072e-01 -2.253100126981735229e-01 -2.123912870883941650e-01
6.009631790220737457e-03 -6.772438287734985352e-01 -3.022347092628479004e-01
1.985568180680274963e-02 -6.761960983276367188e-01 -2.906464636325836182e-01
1.112520229071378708e-02 -6.615692377090454102e-01 -3.033810853958129883e-01
2.402630820870399475e-02 -6.627953052520751953e-01 -2.915079891681671143e-01
2.817376330494880676e-02 -6.922094821929931641e-01 2.954376041889190674e-01
1.894026249647140503e-02 -7.031147480010986328e-01 3.067296147346496582e-01
1.143368519842624664e-02 -6.811254024505615234e-01 2.950653731822967529e-01
2.684439532458782196e-03 -6.934426426887512207e-01 3.050634562969207764e-01
-2.018814980983734131e-01 -7.949054837226867676e-01 -2.828595340251922607e-01
-2.003518790006637573e-01 -7.996949553489685059e-01 -2.637841403484344482e-01
-2.139540910720825195e-01 -7.929989695549011230e-01 -2.713418304920196533e-01
-2.139798104763031006e-01 -7.986391782760620117e-01 -2.512154579162597656e-01
5.555667281150817871e-01 5.694062709808349609e-01 -1.680530048906803131e-02
5.535132288932800293e-01 5.643777847290039062e-01 7.561013102531433105e-03
5.606002211570739746e-01 5.840989351272583008e-01 4.932645708322525024e-03
5.544399023056030273e-01 5.800363421440124512e-01 2.930804342031478882e-02
1.272198706865310669e-01 -3.006910979747772217e-01 3.449272811412811279e-01
1.200880855321884155e-01 -3.161884844303131104e-01 3.487636148929595947e-01
1.185592636466026306e-01 -2.865494489669799805e-01 3.415377736091613770e-01
1.118885725736618042e-01 -3.025814890861511230e-01 3.459866940975189209e-01
1.106349676847457886e-01 4.921545274555683136e-03 -2.803129255771636963e-01
1.036631613969802856e-01 -4.791898187249898911e-03 -2.643362879753112793e-01
9.040081501007080078e-02 6.405183579772710800e-03 -2.802152037620544434e-01
8.337200433015823364e-02 -3.420229535549879074e-03 -2.643268108367919922e-01
1.446634083986282349e-01 -6.695935130119323730e-02 -1.731473356485366821e-01
1.486606597900390625e-01 -7.373748719692230225e-02 -1.532615721225738525e-01
1.245964542031288147e-01 -7.147966325283050537e-02 -1.646967083215713501e-01
1.269252151250839233e-01 -7.896489650011062622e-02 -1.473429501056671143e-01
3.092061877250671387e-01 2.434907555580139160e-01 3.909112513065338135e-01
2.983888089656829834e-01 2.377192527055740356e-01 4.069949388504028320e-01
2.940866947174072266e-01 2.543762326240539551e-01 4.003148376941680908e-01
2.841477394104003906e-01 2.481735795736312866e-01 4.160275459289550781e-01
4.943979382514953613e-01 3.311150968074798584e-01 -5.473215132951736450e-03
4.947506189346313477e-01 3.260170519351959229e-01 1.835804246366024017e-02
4.965864419937133789e-01 3.453359901905059814e-01 1.437870599329471588e-02
4.966789484024047852e-01 3.399822711944580078e-01 3.780108317732810974e-02
-1.312976628541946411e-01 -3.865003585815429688e-01 -4.279058575630187988e-01
-1.342069059610366821e-01 -3.884863853454589844e-01 -4.237659573554992676e-01
-1.371963471174240112e-01 -3.661729693412780762e-01 -4.249477386474609375e-01
-1.439767777919769287e-01 -3.658268451690673828e-01 -4.197307229042053223e-01
-7.840532064437866211e-02 2.938764169812202454e-02 4.273932576179504395e-01
-6.890777498483657837e-02 3.729498386383056641e-02 4.455358684062957764e-01
-8.845642954111099243e-02 4.757034406065940857e-02 4.366626739501953125e-01
-7.760868221521377563e-02 5.457382649183273315e-02 4.556668102741241455e-01
3.467841446399688721e-01 1.227272227406501770e-01 4.088210463523864746e-01
3.329813480377197266e-01 1.223594695329666138e-01 4.240947067737579346e-01
3.432686626911163330e-01 1.383627802133560181e-01 4.167114198207855225e-01
3.285964131355285645e-01 1.374372243881225586e-01 4.322775900363922119e-01
3.341301083564758301e-01 9.261406213045120239e-02 4.059234857559204102e-01
3.228959739208221436e-01 9.310366213321685791e-02 4.195265471935272217e-01
3.330017924308776855e-01 1.108894497156143188e-01 4.186384081840515137e-01
3.209032118320465088e-01 1.112331449985504150e-01 4.320464134216308594e-01
3.259975612163543701e-01 -6.795763969421386719e-02 1.461869627237319946e-01
3.203099370002746582e-01 -7.011644542217254639e-02 1.603505164384841919e-01
3.293914496898651123e-01 -5.958481132984161377e-02 1.632005572319030762e-01
3.232569396495819092e-01 -6.200180947780609131e-02 1.779259145259857178e-01
-1.406103670597076416e-01 -5.421650409698486328e-01 1.553918123245239258e-01
-1.257654130458831787e-01 -5.452688932418823242e-01 1.690893918275833130e-01
-1.446227729320526123e-01 -5.222108364105224609e-01 1.601632535457611084e-01
-1.311250776052474976e-01 -5.262456536293029785e-01 1.733243912458419800e-01
-2.960991859436035156e-01 2.568061351776123047e-01 -2.521176338195800781e-01
-3.131515681743621826e-01 2.534453868865966797e-01 -2.412883341312408447e-01
-3.067052960395812988e-01 2.751258611679077148e-01 -2.474012374877929688e-01
-3.221417665481567383e-01 2.728826105594635010e-01 -2.342316806316375732e-01
2.183520495891571045e-01 6.570329666137695312e-01 2.581686377525329590e-01
2.190800160169601440e-01 6.501129269599914551e-01 2.773899137973785400e-01
1.983507275581359863e-01 6.588853597640991211e-01 2.688104808330535889e-01
1.994657963514328003e-01 6.522926092147827148e-01 2.881651818752288818e-01
-8.084857463836669922e-02 -2.587712407112121582e-01 -2.814644575119018555e-01
-7.735011726617813110e-02 -2.553249299526214600e-01 -2.634840011596679688e-01
-8.880323171615600586e-02 -2.502786815166473389e-01 -2.636308372020721436e-01
-8.571386337280273438e-02 -2.472488731145858765e-01 -2.456749677658081055e-01
1.210229173302650452e-01 -4.016465246677398682e-01 -1.570298969745635986e-01
1.295158416032791138e-01 -3.985622823238372803e-01 -1.430304050445556641e-01
1.165156438946723938e-01 -3.895781934261322021e-01 -1.524118334054946899e-01
1.243078038096427917e-01 -3.856146037578582764e-01 -1.383451670408248901e-01
2.908984422683715820e-01 5.340021252632141113e-01 3.499989807605743408e-01
2.814910709857940674e-01 5.282538533210754395e-01 3.651308119297027588e-01
2.748703658580780029e-01 5.461197495460510254e-01 3.577349483966827393e-01
2.658296227455139160e-01 5.397027730941772461e-01 3.732694089412689209e-01
-1.531857103109359741e-01 -2.162235379219055176e-01 -1.539215594530105591e-01
-1.481071114540100098e-01 -2.178688049316406250e-01 -1.373179852962493896e-01
-1.626728177070617676e-01 -2.117474973201751709e-01 -1.422307342290878296e-01
-1.573627293109893799e-01 -2.140664458274841309e-01 -1.251347959041595459e-01
-2.073463499546051025e-01 1.319159660488367081e-02 -4.140583053231239319e-02
-2.069850862026214600e-01 1.098052132874727249e-02 -2.584274485707283020e-02
-2.169068604707717896e-01 2.021929062902927399e-02 -2.734942920506000519e-02
-2.168653607368469238e-01 1.805601641535758972e-02 -1.138893980532884598e-02
-1.683672666549682617e-01 -5.197857618331909180e-01 1.609112620353698730e-01
-1.713702678680419922e-01 -5.348362922668457031e-01 1.665094196796417236e-01
-1.760339289903640747e-01 -4.988503158092498779e-01 1.615582108497619629e-01
-1.812432259321212769e-01 -5.148088335990905762e-01 1.662593334913253784e-01
3.664675354957580566e-01 1.679608225822448730e-01 -2.488848716020584106e-01
3.793226480484008789e-01 1.644302010536193848e-01 -2.333000600337982178e-01
3.699681758880615234e-01 1.878173798322677612e-01 -2.437637448310852051e-01
3.813737034797668457e-01 1.857684552669525146e-01 -2.274247854948043823e-01
-2.837708294391632080e-01 1.055413335561752319e-01 -2.827799916267395020e-01
-2.936459481716156006e-01 9.218306094408035278e-02 -2.798326909542083740e-01
-2.902669906616210938e-01 1.244655027985572815e-01 -2.766707241535186768e-01
-3.010811507701873779e-01 1.113408431410789490e-01 -2.743368148803710938e-01
-7.347407191991806030e-02 -2.558804154396057129e-01 -2.599127292633056641e-01
-7.056087255477905273e-02 -2.533264756202697754e-01 -2.420457303524017334e-01
-8.005204051733016968e-02 -2.478253096342086792e-01 -2.429645210504531860e-01
-7.736364006996154785e-02 -2.457561343908309937e-01 -2.253660261631011963e-01
-3.589854538440704346e-01 -3.536596596240997314e-01 7.420106232166290283e-02
-3.585284054279327393e-01 -3.671376407146453857e-01 8.895982801914215088e-02
-3.703936934471130371e-01 -3.423455357551574707e-01 6.374100595712661743e-02
-3.695170581340789795e-01 -3.550898134708404541e-01 7.965391129255294800e-02
8.027167618274688721e-02 1.112231910228729248e-01 -3.565456569194793701e-01
6.691280752420425415e-02 9.941308200359344482e-02 -3.446629941463470459e-01
6.238075345754623413e-02 1.151774376630783081e-01 -3.530985116958618164e-01
4.860406368970870972e-02 1.054032817482948303e-01 -3.412812054157257080e-01
4.632476866245269775e-01 2.427050918340682983e-01 -1.369574368000030518e-01
4.696806371212005615e-01 2.381628304719924927e-01 -1.131649687886238098e-01
4.655232429504394531e-01 2.559004127979278564e-01 -1.167411953210830688e-01
4.719434678554534912e-01 2.508628666400909424e-01 -9.318525344133377075e-02
-1.969113200902938843e-01 5.199742317199707031e-01 -2.271101027727127075e-01
-2.056209295988082886e-01 5.197927951812744141e-01 -2.125646173954010010e-01
-2.055273652076721191e-01 5.302651524543762207e-01 -2.099136114120483398e-01
-2.141375243663787842e-01 5.299516320228576660e-01 -1.943145096302032471e-01
2.771592438220977783e-01 6.140943169593811035e-01 2.840978503227233887e-01
2.743843495845794678e-01 6.070721745491027832e-01 3.032438158988952637e-01
2.602812349796295166e-01 6.250979304313659668e-01 2.902038693428039551e-01
2.574739754199981689e-01 6.178747415542602539e-01 3.095657229423522949e-01
-5.858207121491432190e-02 -7.778928279876708984e-01 -3.263683617115020752e-02
-5.088569596409797668e-02 -7.759483456611633301e-01 -1.473947800695896149e-02
-7.073011249303817749e-02 -7.753342986106872559e-01 -1.715314388275146484e-02
-6.347326189279556274e-02 -7.748675346374511719e-01 1.684579998254776001e-03
-3.579122126102447510e-01 4.467801749706268311e-01 1.137462072074413300e-02
-3.627110421657562256e-01 4.273299574851989746e-01 1.714419573545455933e-02
-3.705025315284729004e-01 4.659071564674377441e-01 1.186697464436292648e-02
-3.784171342849731445e-01 4.457268714904785156e-01 1.521940808743238449e-02
-4.681924283504486084e-01 -2.443115413188934326e-01 -3.854697346687316895e-01
-4.738969802856445312e-01 -2.474032640457153320e-01 -3.647044599056243896e-01
-4.774683713912963867e-01 -2.328027188777923584e-01 -3.703867197036743164e-01
-4.819789826869964600e-01 -2.355417758226394653e-01 -3.482403457164764404e-01
-2.771731913089752197e-01 1.024830639362335205e-01 1.327309757471084595e-01
-2.755300998687744141e-01 1.028848960995674133e-01 1.587185710668563843e-01
-2.847917675971984863e-01 1.187018454074859619e-01 1.458943337202072144e-01
-2.824644744396209717e-01 1.202628165483474731e-01 1.725002825260162354e-01
-3.472005128860473633e-01 -1.431199610233306885e-01 -2.830106019973754883e-01
-3.554311692714691162e-01 -1.472131907939910889e-01 -2.668966948986053467e-01
-3.499176502227783203e-01 -1.282959282398223877e-01 -2.724144160747528076e-01
-3.609645068645477295e-01 -1.333847641944885254e-01 -2.572165727615356445e-01
-4.678045511245727539e-01 -1.137053295969963074e-01 -3.051318824291229248e-01
-4.671234488487243652e-01 -1.192115917801856995e-01 -2.852019071578979492e-01
-4.641573131084442139e-01 -9.719274193048477173e-02 -2.926059961318969727e-01
-4.641948044300079346e-01 -1.029264479875564575e-01 -2.731420397758483887e-01
-8.455934375524520874e-02 5.255045890808105469e-01 3.749437034130096436e-01
-7.468615472316741943e-02 5.191215276718139648e-01 3.876240849494934082e-01
-8.757601678371429443e-02 5.401322245597839355e-01 3.670988380908966064e-01
-7.546302676200866699e-02 5.351520180702209473e-01 3.796935677528381348e-01
-2.002006620168685913e-01 3.593560755252838135e-01 3.395000994205474854e-01
-1.897339373826980591e-01 3.639741837978363037e-01 3.513070344924926758e-01
-1.973031759262084961e-01 3.742892146110534668e-01 3.448672890663146973e-01
-1.858265846967697144e-01 3.786463141441345215e-01 3.576099872589111328e-01
-1.606152951717376709e-02 6.202008724212646484e-01 -2.396283000707626343e-01
-2.360388077795505524e-02 6.259285807609558105e-01 -2.238677591085433960e-01
-2.877397835254669189e-02 6.355583667755126953e-01 -2.141753435134887695e-01
-3.549405187368392944e-02 6.415388584136962891e-01 -1.984132081270217896e-01
-4.876025617122650146e-01 -2.545304000377655029e-01 -2.731316685676574707e-01
-4.779543876647949219e-01 -2.576541900634765625e-01 -2.530999481678009033e-01
-4.888983368873596191e-01 -2.354130297899246216e-01 -2.644786536693572998e-01
-4.753114581108093262e-01 -2.379456162452697754e-01 -2.449261546134948730e-01
4.459550082683563232e-01 7.714983820915222168e-02 1.949762403964996338e-01
4.394947886466979980e-01 7.409844547510147095e-02 2.190781533718109131e-01
4.413593411445617676e-01 9.218399226665496826e-02 2.213500440120697021e-01
4.334979951381683350e-01 8.968681097030639648e-02 2.460902035236358643e-01
4.920721054077148438e-02 -6.527534723281860352e-01 2.479567825794219971e-01
3.594494611024856567e-02 -6.599555611610412598e-01 2.571139335632324219e-01
4.042124003171920776e-02 -6.350067853927612305e-01 2.510948181152343750e-01
2.591657452285289764e-02 -6.422621607780456543e-01 2.584933340549468994e-01
3.461560010910034180e-01 5.989302992820739746e-01 1.910014152526855469e-01
3.436269760131835938e-01 5.933465957641601562e-01 2.145132273435592651e-01
3.292448520660400391e-01 6.101652383804321289e-01 2.024645805358886719e-01
3.269042968750000000e-01 6.047703027725219727e-01 2.255242764949798584e-01
3.225299417972564697e-01 6.523948311805725098e-01 1.274803876876831055e-01
3.194290995597839355e-01 6.464385986328125000e-01 1.479746699333190918e-01
3.087690174579620361e-01 6.609502434730529785e-01 1.410190314054489136e-01
3.060658872127532959e-01 6.549078226089477539e-01 1.614849716424942017e-01
2.844429910182952881e-01 1.844810098409652710e-01 -3.181024491786956787e-01
2.990072369575500488e-01 1.836740672588348389e-01 -3.072425127029418945e-01
2.808582782745361328e-01 2.029349058866500854e-01 -3.216507732868194580e-01
2.955052852630615234e-01 2.024007141590118408e-01 -3.113217949867248535e-01
-4.877986758947372437e-02 1.449559070169925690e-02 4.401478767395019531e-01
-3.823870792984962463e-02 2.438784390687942505e-02 4.562524855136871338e-01
-5.393821746110916138e-02 3.102550841867923737e-02 4.509544670581817627e-01
-4.291402176022529602e-02 4.102361947298049927e-02 4.679393470287322998e-01
1.112895160913467407e-01 -7.972155213356018066e-01 1.173299923539161682e-01
1.079623773694038391e-01 -7.990267872810363770e-01 1.316921561956405640e-01
1.118069738149642944e-01 -7.868995666503906250e-01 1.423377543687820435e-01
1.059239953756332397e-01 -7.900612354278564453e-01 1.567731797695159912e-01
-1.546902954578399658e-01 -7.964944243431091309e-01 -1.783400028944015503e-01
-1.462739408016204834e-01 -7.948014736175537109e-01 -1.591496914625167847e-01
-1.680004894733428955e-01 -7.949835062026977539e-01 -1.657718569040298462e-01
-1.594825088977813721e-01 -7.929473519325256348e-01 -1.476929485797882080e-01
-3.992808759212493896e-01 -5.655201673507690430e-01 7.786992937326431274e-02
-3.881175816059112549e-01 -5.654209256172180176e-01 9.650281071662902832e-02
-3.961744904518127441e-01 -5.457819104194641113e-01 8.860385417938232422e-02
-3.848536610603332520e-01 -5.451986789703369141e-01 1.056180894374847412e-01
-1.485786885023117065e-01 4.481350183486938477e-01 -3.142634332180023193e-01
-1.591294556856155396e-01 4.439864456653594971e-01 -2.964023649692535400e-01
-1.577426791191101074e-01 4.626048207283020020e-01 -2.950111031532287598e-01
-1.688404232263565063e-01 4.584839940071105957e-01 -2.775422632694244385e-01
-1.478286087512969971e-01 2.139688134193420410e-01 -3.212679624557495117e-01
-1.593178361654281616e-01 2.109327614307403564e-01 -3.126181066036224365e-01
-1.601950079202651978e-01 2.280662804841995239e-01 -3.161725103855133057e-01
-1.715700477361679077e-01 2.259031087160110474e-01 -3.072718679904937744e-01
-1.287079006433486938e-01 -7.086964249610900879e-01 -3.564326167106628418e-01
-1.392224431037902832e-01 -7.194283604621887207e-01 -3.460370302200317383e-01
-1.430964916944503784e-01 -7.021188735961914062e-01 -3.592287302017211914e-01
-1.548836231231689453e-01 -7.116916775703430176e-01 -3.483321964740753174e-01
-1.923987418413162231e-01 6.193550676107406616e-02 -2.238705605268478394e-01
-1.940000206232070923e-01 5.243210121989250183e-02 -2.083974033594131470e-01
-1.919449269771575928e-01 6.242017820477485657e-02 -2.061828821897506714e-01
-1.922602802515029907e-01 5.309859663248062134e-02 -1.902055293321609497e-01
-3.846819996833801270e-01 1.696194261312484741e-01 -2.250963300466537476e-01
-3.871505260467529297e-01 1.646309196949005127e-01 -1.989671736955642700e-01
-3.920413851737976074e-01 1.932060569524765015e-01 -2.130758017301559448e-01
-3.939057886600494385e-01 1.892629116773605347e-01 -1.867856830358505249e-01
4.952734410762786865e-01 3.584361970424652100e-01 -2.170485630631446838e-02
4.970391690731048584e-01 3.527264595031738281e-01 1.947388052940368652e-03
4.979276955127716064e-01 3.744399547576904297e-01 -1.856699585914611816e-03
4.990880191326141357e-01 3.683175742626190186e-01 2.227557823061943054e-02
-4.580410718917846680e-01 3.578327596187591553e-01 2.522954158484935760e-02
-4.615767598152160645e-01 3.477092385292053223e-01 4.207086190581321716e-02
-4.662515223026275635e-01 3.784775733947753906e-01 3.570747375488281250e-02
-4.721754193305969238e-01 3.651366829872131348e-01 5.135456472635269165e-02
-4.335073828697204590e-01 4.873300790786743164e-01 -1.651923358440399170e-01
-4.478102922439575195e-01 4.869017004966735840e-01 -1.483284682035446167e-01
-4.455302655696868896e-01 4.994836449623107910e-01 -1.499013006687164307e-01
-4.589323699474334717e-01 4.989411234855651855e-01 -1.327454000711441040e-01
9.267413616180419922e-02 -5.216754078865051270e-01 -2.392652630805969238e-01
9.383168816566467285e-02 -5.241882801055908203e-01 -2.206879556179046631e-01
9.085009247064590454e-02 -5.102997422218322754e-01 -2.260944098234176636e-01
9.281527251005172729e-02 -5.128210783004760742e-01 -2.067748904228210449e-01
1.090024709701538086e-01 3.917732834815979004e-01 4.434747397899627686e-01
9.998893737792968750e-02 3.845842480659484863e-01 4.516922235488891602e-01
9.746231883764266968e-02 4.029996693134307861e-01 4.437636137008666992e-01
8.913011848926544189e-02 3.954358398914337158e-01 4.513742029666900635e-01
2.728576958179473877e-01 -3.951423466205596924e-01 2.493524253368377686e-01
2.647381424903869629e-01 -3.958500325679779053e-01 2.672213912010192871e-01
2.678208947181701660e-01 -3.788907527923583984e-01 2.628769576549530029e-01
2.593629658222198486e-01 -3.801344335079193115e-01 2.811378240585327148e-01
-9.935314953327178955e-02 3.148370683193206787e-01 -3.584777414798736572e-01
-1.141405031085014343e-01 3.140789568424224854e-01 -3.463343381881713867e-01
-1.095994710922241211e-01 3.290669023990631104e-01 -3.474224209785461426e-01
-1.237772926688194275e-01 3.283964693546295166e-01 -3.343847990036010742e-01
-2.356468886137008667e-01 5.986258387565612793e-01 6.542763859033584595e-02
-2.310779094696044922e-01 5.895432829856872559e-01 8.274641633033752441e-02
-2.388031035661697388e-01 6.026203036308288574e-01 7.103877514600753784e-02
-2.357318550348281860e-01 5.937064886093139648e-01 8.860935270786285400e-02
-1.882811188697814941e-01 1.432797014713287354e-01 3.067809045314788818e-01
-1.746019423007965088e-01 1.445618271827697754e-01 3.230598568916320801e-01
-1.864117383956909180e-01 1.572336852550506592e-01 3.114900290966033936e-01
-1.722124069929122925e-01 1.588784903287887573e-01 3.281515240669250488e-01
-3.689937293529510498e-01 -1.946205794811248779e-01 -2.634090781211853027e-01
-3.798954486846923828e-01 -1.996767967939376831e-01 -2.490901052951812744e-01
-3.735494017601013184e-01 -1.771431416273117065e-01 -2.576581537723541260e-01
-3.855526745319366455e-01 -1.832931488752365112e-01 -2.466869801282882690e-01
3.720876872539520264e-01 4.820105433464050293e-02 3.188133835792541504e-01
3.628822863101959229e-01 4.530536383390426636e-02 3.394301235675811768e-01
3.653148412704467773e-01 5.885051935911178589e-02 3.427985608577728271e-01
3.559149205684661865e-01 5.597775802016258240e-02 3.627448081970214844e-01
3.062104582786560059e-01 4.569398239254951477e-02 -2.264609187841415405e-01
3.175790011882781982e-01 3.820732980966567993e-02 -2.103299945592880249e-01
3.262740969657897949e-01 5.959149822592735291e-02 -2.236051261425018311e-01
3.397802412509918213e-01 5.334232747554779053e-02 -2.048127055168151855e-01
1.896122246980667114e-01 7.025561928749084473e-01 1.888081580400466919e-01
1.924670189619064331e-01 6.967694759368896484e-01 2.065050899982452393e-01
1.757266819477081299e-01 7.045165896415710449e-01 1.985295265913009644e-01
1.791701614856719971e-01 6.983669996261596680e-01 2.164585143327713013e-01
2.700517885386943817e-02 -3.182044625282287598e-01 -2.413415163755416870e-01
3.102868609130382538e-02 -3.175731301307678223e-01 -2.249823957681655884e-01
1.831635832786560059e-02 -3.080087006092071533e-01 -2.300764173269271851e-01
2.175380848348140717e-02 -3.067466914653778076e-01 -2.140641659498214722e-01
-4.339883923530578613e-01 3.317148089408874512e-01 -1.465290784835815430e-01
-4.386685192584991455e-01 3.280909657478332520e-01 -1.285210400819778442e-01
-4.441507160663604736e-01 3.421039581298828125e-01 -1.321942955255508423e-01
-4.491134881973266602e-01 3.394088447093963623e-01 -1.143761575222015381e-01
4.031678736209869385e-01 7.142646908760070801e-01 6.891295313835144043e-02
3.861904740333557129e-01 7.041293382644653320e-01 7.777973264455795288e-02
3.921570479869842529e-01 7.310615181922912598e-01 7.494696974754333496e-02
3.760171532630920410e-01 7.206627130508422852e-01 8.666940778493881226e-02
-3.771628439426422119e-01 2.894077003002166748e-01 4.832165315747261047e-02
-3.716072440147399902e-01 2.839479446411132812e-01 6.819470226764678955e-02
-3.862748742103576660e-01 3.129489421844482422e-01 5.321880429983139038e-02
-3.844421207904815674e-01 3.014725148677825928e-01 6.927280873060226440e-02
1.029879525303840637e-01 7.274523377418518066e-01 6.850104779005050659e-03
1.093594133853912354e-01 7.290297746658325195e-01 2.340826019644737244e-02
8.989889174699783325e-02 7.267391085624694824e-01 2.649016305804252625e-02
9.654918313026428223e-02 7.277582287788391113e-01 4.416858404874801636e-02
-2.750126458704471588e-02 6.161680817604064941e-01 3.239485323429107666e-01
-2.913348190486431122e-02 6.044895648956298828e-01 3.378936350345611572e-01
-4.211449250578880310e-02 6.125532388687133789e-01 3.227898180484771729e-01
-4.336540028452873230e-02 6.013702750205993652e-01 3.361687958240509033e-01
7.000190019607543945e-02 4.054542183876037598e-01 -3.834836781024932861e-01
5.057215318083763123e-02 4.044851064682006836e-01 -3.784069120883941650e-01
5.554169043898582458e-02 4.227555096149444580e-01 -3.779880106449127197e-01
3.631259873509407043e-02 4.238091707229614258e-01 -3.717986941337585449e-01
-1.223088055849075317e-01 6.413632631301879883e-01 2.128996849060058594e-01
-1.249119564890861511e-01 6.301459670066833496e-01 2.305925488471984863e-01
-1.166057065129280090e-01 6.369672417640686035e-01 2.299818396568298340e-01
-1.175585910677909851e-01 6.245931386947631836e-01 2.474332004785537720e-01
2.330366224050521851e-01 -5.807415246963500977e-01 2.702821418642997742e-02
2.310737967491149902e-01 -5.837684273719787598e-01 4.536487534642219543e-02
2.331523001194000244e-01 -5.696390271186828613e-01 4.184696450829505920e-02
2.305753976106643677e-01 -5.717930197715759277e-01 5.982966721057891846e-02
1.626660823822021484e-01 7.236136794090270996e-01 -3.175942599773406982e-02
1.701077818870544434e-01 7.251524925231933594e-01 -1.568484865128993988e-02
1.541941314935684204e-01 7.237771153450012207e-01 -1.448084414005279541e-02
1.607465296983718872e-01 7.251440286636352539e-01 1.673223450779914856e-03
-9.041608870029449463e-02 -2.743582725524902344e-01 9.624399244785308838e-02
-8.583343029022216797e-02 -2.833270728588104248e-01 1.171335130929946899e-01
-7.889534533023834229e-02 -2.671525776386260986e-01 1.093821004033088684e-01
-7.633964717388153076e-02 -2.761941552162170410e-01 1.290683597326278687e-01
4.901255965232849121e-01 4.195710122585296631e-01 -7.411377131938934326e-02
4.951480627059936523e-01 4.164617359638214111e-01 -5.224756523966789246e-02
4.942238032817840576e-01 4.405177831649780273e-01 -6.223671510815620422e-02
4.993515908718109131e-01 4.332628846168518066e-01 -3.920035436749458313e-02
1.081867441534996033e-01 -8.054066300392150879e-01 4.589868709444999695e-02
1.133138537406921387e-01 -8.025050163269042969e-01 6.439308822154998779e-02
1.073475703597068787e-01 -7.967405319213867188e-01 7.437347620725631714e-02
1.102092340588569641e-01 -7.941241860389709473e-01 9.106603264808654785e-02
2.060985267162322998e-01 -8.001976609230041504e-01 -1.239418052136898041e-02
2.152109444141387939e-01 -7.988168001174926758e-01 5.200514569878578186e-03
2.023143172264099121e-01 -7.933874130249023438e-01 6.177598610520362854e-03
2.072910666465759277e-01 -7.915965318679809570e-01 2.324807457625865936e-02
-7.934555411338806152e-03 -1.753161996603012085e-01 1.662235260009765625e-01
-7.834472693502902985e-03 -1.764887124300003052e-01 1.856273710727691650e-01
-1.237203460186719894e-02 -1.647435277700424194e-01 1.812432110309600830e-01
