-3.485300000000000065e-01 3.769819999999999838e-01 -2.233249999999999957e-01
3.080060000000000020e-01 -2.162400000000000086e-02 -1.337210000000000065e-01
5.064060000000000228e-01 6.997299999999999631e-01 -9.847400000000000597e-02
-3.089199999999999724e-01 -4.736100000000000032e-02 -2.260850000000000082e-01
-4.363299999999999818e-02 -3.765419999999999878e-01 2.607579999999999898e-01
-1.354400000000000048e-02 6.960699999999999665e-01 -7.653200000000000280e-02
1.487729999999999886e-01 2.845530000000000004e-01 4.972679999999999878e-01
1.604190000000000060e-01 -2.478660000000000030e-01 3.289889999999999759e-01
-4.326450000000000018e-01 -8.153599999999999737e-02 -3.584550000000000236e-01
1.105479999999999935e-01 -7.963059999999999583e-01 -1.555779999999999941e-01
-3.292359999999999731e-01 -6.947100000000000497e-01 -2.667919999999999736e-01
-4.561430000000000207e-01 3.012259999999999938e-01 -5.648000000000000242e-03
2.063929999999999931e-01 -1.093630000000000019e-01 -6.540700000000000680e-02
9.612500000000000211e-02 2.257810000000000095e-01 -3.867410000000000014e-01
-2.541430000000000078e-01 9.806700000000000139e-02 2.228930000000000078e-01
-5.203300000000000286e-02 3.588000000000000043e-03 -2.278390000000000137e-01
-5.864799999999999874e-02 -7.949519999999999920e-01 -2.304960000000000064e-01
4.120710000000000206e-01 1.531109999999999971e-01 3.451679999999999748e-01
3.499229999999999841e-01 1.275670000000000137e-01 4.093120000000000092e-01
-9.857000000000000484e-02 6.114789999999999948e-01 -1.960159999999999958e-01
3.739390000000000214e-01 8.179020000000000179e-01 8.158300000000000274e-02
-2.759820000000000051e-01 -6.895769999999999955e-01 -3.247889999999999944e-01
-1.102810000000000040e-01 -1.129600000000000048e-02 3.523129999999999873e-01
1.207840000000000025e-01 5.915399999999999547e-01 -2.781390000000000251e-01
-1.709589999999999999e-01 -1.984100000000000100e-02 -2.418700000000000017e-02
-2.937960000000000016e-01 -2.030339999999999923e-01 -1.647849999999999870e-01
-1.051139999999999991e-01 -7.378130000000000521e-01 -3.238650000000000140e-01
-3.758100000000000329e-02 -4.544639999999999791e-01 -4.092109999999999914e-01
-8.469999999999999881e-04 3.890259999999999829e-01 4.422170000000000267e-01
-2.425470000000000126e-01 2.760529999999999928e-01 2.922000000000000153e-01
-5.500800000000000134e-02 -5.393310000000000048e-01 -4.110320000000000085e-01
2.597389999999999977e-01 5.888370000000000548e-01 -2.221899999999999986e-01
2.358490000000000031e-01 -3.409039999999999848e-01 -5.283100000000000296e-02
4.984199999999999742e-01 1.983939999999999870e-01 1.087980000000000058e-01
-1.551710000000000034e-01 6.153960000000000541e-01 2.137570000000000026e-01
3.164710000000000023e-01 -6.709800000000000486e-02 2.410000000000000033e-04
1.785899999999999987e-01 -6.956050000000000288e-01 1.094170000000000004e-01
-4.683180000000000121e-01 -3.096720000000000028e-01 -3.391210000000000058e-01
-3.950599999999999945e-02 2.153440000000000076e-01 4.920579999999999954e-01
2.748050000000000215e-01 -4.160760000000000014e-01 2.454629999999999868e-01
2.034019999999999995e-01 6.805390000000000050e-01 2.350150000000000017e-01
3.319280000000000008e-01 -6.326299999999999979e-02 4.818000000000000060e-02
-1.943370000000000097e-01 -7.934700000000000086e-01 -6.728000000000000647e-02
2.819320000000000159e-01 -4.702500000000000013e-01 1.377029999999999921e-01
-2.070249999999999868e-01 2.951829999999999732e-01 3.206240000000000201e-01
-3.087489999999999957e-01 -2.166919999999999957e-01 -2.634150000000000102e-01
2.540740000000000220e-01 -4.946289999999999853e-01 1.752319999999999989e-01
3.718699999999999783e-02 6.186900000000000038e-02 -3.147110000000000185e-01
3.937640000000000029e-01 3.200209999999999999e-01 3.314280000000000004e-01
-1.950330000000000119e-01 -2.930579999999999852e-01 -3.845910000000000162e-01
4.465790000000000037e-01 1.845110000000000083e-01 -1.439219999999999944e-01
-1.035289999999999960e-01 -1.162499999999999992e-02 3.593060000000000143e-01
1.689559999999999951e-01 -6.555429999999999868e-01 -1.271519999999999873e-01
1.450700000000000080e-02 -2.865200000000000038e-02 -2.186400000000000010e-01
1.324239999999999862e-01 6.271600000000000508e-01 -2.398899999999999921e-01
-1.985490000000000033e-01 -6.303699999999999859e-01 -3.922970000000000068e-01
1.436659999999999882e-01 -1.244379999999999931e-01 2.840670000000000139e-01
-4.623729999999999785e-01 3.515360000000000151e-01 -9.797899999999999665e-02
2.492899999999999977e-02 -7.959119999999999528e-01 -1.685760000000000036e-01
2.080140000000000045e-01 6.767480000000000162e-01 2.398889999999999911e-01
-3.136499999999999705e-02 -2.367509999999999892e-01 1.535819999999999963e-01
7.545899999999999830e-02 7.042239999999999611e-01 2.070929999999999993e-01
4.861300000000000343e-02 -3.248159999999999936e-01 -1.946110000000000062e-01
-1.785300000000000081e-02 7.100220000000000420e-01 6.969000000000000368e-03
-3.529550000000000187e-01 -3.305600000000000205e-01 6.444500000000000228e-02
-2.699980000000000158e-01 -5.820670000000000011e-01 -3.860250000000000070e-01
-2.607590000000000185e-01 -7.910960000000000214e-01 -2.310230000000000061e-01
1.087010000000000060e-01 1.203769999999999979e-01 5.124980000000000091e-01
-4.759120000000000017e-01 5.181400000000000450e-01 1.439900000000000034e-02
1.433230000000000059e-01 4.788229999999999986e-01 4.256400000000000183e-01
1.067160000000000053e-01 -4.217910000000000270e-01 -1.684769999999999879e-01
2.275100000000000039e-02 5.491209999999999702e-01 -3.158949999999999814e-01
1.590509999999999979e-01 -7.891439999999999566e-01 8.477700000000000513e-02
-1.071819999999999995e-01 5.222160000000000135e-01 3.673690000000000011e-01
3.956000000000000315e-03 3.517719999999999736e-01 4.481919999999999793e-01
7.058599999999999597e-02 4.181340000000000057e-01 4.447650000000000214e-01
-2.984510000000000218e-01 4.335769999999999902e-01 1.517789999999999973e-01
-2.810840000000000005e-01 8.621700000000000197e-02 -2.731700000000000100e-02
1.068599999999999932e-02 -1.209410000000000068e-01 2.500740000000000185e-01
5.869300000000000211e-02 -2.409669999999999868e-01 -5.122899999999999676e-02
1.319470000000000087e-01 1.303880000000000039e-01 5.214839999999999476e-01
-1.768889999999999907e-01 1.736630000000000118e-01 -2.910030000000000117e-01
4.792350000000000221e-01 1.210959999999999953e-01 4.664000000000000090e-02
-4.505759999999999765e-01 -4.483920000000000128e-01 -2.491009999999999891e-01
-5.797399999999999776e-02 -4.944500000000000006e-01 -4.193600000000000105e-01
-2.864119999999999999e-01 4.468369999999999842e-01 -2.264160000000000061e-01
-1.112059999999999993e-01 1.554099999999999926e-01 -3.197969999999999979e-01
2.287199999999999997e-02 -2.581809999999999938e-01 -7.345400000000000540e-02
2.838820000000000232e-01 -4.694720000000000004e-01 6.070199999999999901e-02
5.224100000000000271e-02 -6.291700000000000070e-02 3.764640000000000208e-01
-2.298300000000000065e-01 4.432200000000000029e-02 -2.098800000000000110e-01
-1.557790000000000008e-01 5.987430000000000252e-01 2.451429999999999998e-01
-4.012379999999999836e-01 -6.291649999999999743e-01 -1.963469999999999938e-01
4.574779999999999958e-01 4.107689999999999952e-01 -1.179879999999999957e-01
2.606789999999999941e-01 -2.457529999999999992e-01 5.980000000000000072e-03
-1.063410000000000050e-01 -8.490100000000000424e-02 9.114800000000000679e-02
4.871750000000000247e-01 7.639190000000000147e-01 5.818399999999999961e-02
3.634009999999999740e-01 3.429470000000000018e-01 3.386390000000000233e-01
-2.788260000000000183e-01 -7.939619999999999456e-01 -1.563309999999999977e-01
-1.136550000000000060e-01 6.663000000000000034e-01 1.412909999999999999e-01
-2.324650000000000050e-01 -2.087420000000000109e-01 -2.410480000000000123e-01
8.294999999999999596e-02 7.147799999999999987e-02 -3.267189999999999817e-01
-2.604420000000000068e-01 -6.724620000000000042e-01 -3.455730000000000190e-01
4.151900000000000035e-01 8.439849999999999852e-01 -1.604699999999999876e-02
2.820000000000000024e-03 -6.126759999999999984e-01 2.435750000000000137e-01
2.573030000000000039e-01 7.169969999999999954e-01 -8.181399999999999784e-02
1.274359999999999937e-01 -7.318080000000000140e-01 1.735730000000000051e-01
-4.664719999999999978e-01 6.162860000000000005e-01 -6.457400000000000639e-02
1.151969999999999938e-01 -7.881489999999999885e-01 -1.962740000000000040e-01
2.232540000000000080e-01 -7.026459999999999928e-01 6.278699999999999559e-02
-2.342410000000000048e-01 -2.174069999999999891e-01 -6.010000000000000064e-02
3.849279999999999924e-01 5.354170000000000318e-01 2.452189999999999925e-01
8.934100000000000374e-02 3.540929999999999911e-01 -3.881430000000000158e-01
2.276710000000000123e-01 -5.535090000000000288e-01 -1.753299999999999997e-02
3.047000000000000264e-01 -3.422990000000000199e-01 3.908999999999999975e-02
-4.646219999999999795e-01 -4.487400000000000277e-01 -1.714219999999999910e-01
-3.916580000000000061e-01 -6.817480000000000206e-01 -5.098899999999999960e-02
-2.183750000000000135e-01 2.442189999999999916e-01 2.972879999999999967e-01
4.095739999999999936e-01 4.825519999999999810e-01 2.663400000000000212e-01
1.786830000000000085e-01 7.712700000000000111e-02 -3.175020000000000064e-01
7.799999999999999859e-04 3.673799999999999844e-01 -3.795330000000000092e-01
6.144100000000000256e-02 3.727739999999999942e-01 4.496299999999999741e-01
6.143799999999999956e-02 -7.878070000000000350e-01 2.685609999999999942e-01
2.454189999999999983e-01 -2.398790000000000089e-01 -8.547000000000000777e-03
-8.880200000000000593e-02 3.767809999999999770e-01 4.119280000000000164e-01
1.604889999999999928e-01 -6.606199999999999573e-02 -1.632409999999999972e-01
1.393439999999999956e-01 -4.521879999999999789e-01 3.209099999999999731e-01
2.395339999999999969e-01 6.612300000000000122e-02 4.616410000000000236e-01
-3.692239999999999966e-01 -2.803959999999999786e-01 -4.283190000000000053e-01
2.267500000000000071e-02 -2.537760000000000016e-01 2.903810000000000002e-01
7.550500000000000267e-02 -3.594829999999999970e-01 -1.861740000000000061e-01
-9.185999999999999721e-02 3.958329999999999904e-01 -3.453390000000000071e-01
4.174900000000000277e-01 7.206449999999999800e-01 -1.317679999999999962e-01
-4.312960000000000127e-01 -5.474740000000000162e-01 -2.116460000000000008e-01
2.662309999999999954e-01 7.453250000000000153e-01 -1.141900000000000033e-02
1.555169999999999886e-01 -2.742470000000000185e-01 3.381669999999999954e-01
-2.769420000000000215e-01 1.308429999999999871e-01 -2.722809999999999953e-01
-4.060420000000000140e-01 -3.482770000000000032e-01 2.699400000000000063e-02
-3.929699999999999860e-01 2.649659999999999793e-01 7.080100000000000282e-02
-2.624589999999999979e-01 1.982619999999999938e-01 -2.632149999999999768e-01
2.816600000000000006e-02 7.212739999999999707e-01 7.187799999999999745e-02
-5.731399999999999689e-02 5.679319999999999924e-01 3.604519999999999946e-01
8.970499999999999308e-02 -6.202929999999999833e-01 2.283699999999999897e-01
3.096809999999999841e-01 -3.752940000000000165e-01 1.871389999999999998e-01
-4.941399999999999959e-02 -7.977619999999999711e-01 2.029370000000000063e-01
1.065900000000000007e-02 -7.955499999999999794e-01 -9.633899999999999408e-02
1.267169999999999963e-01 -2.142429999999999890e-01 3.194440000000000057e-01
-2.076400000000000121e-02 -6.233330000000000259e-01 2.373349999999999904e-01
1.808970000000000022e-01 3.520079999999999876e-01 -3.710030000000000272e-01
3.558239999999999736e-01 -4.523100000000000037e-02 8.494000000000000161e-02
-1.125180000000000069e-01 5.921149999999999469e-01 -2.139719999999999955e-01
-3.759730000000000016e-01 5.683080000000000354e-01 2.427800000000000097e-02
3.986100000000000060e-02 6.055509999999999504e-01 3.554399999999999782e-01
-3.371919999999999917e-01 2.357869999999999966e-01 -2.671649999999999858e-01
-3.822829999999999839e-01 -7.000499999999999501e-01 -1.009049999999999947e-01
-3.200169999999999959e-01 6.187040000000000317e-01 -1.433899999999999932e-02
-2.430399999999999922e-02 5.082959999999999701e-01 -3.312800000000000189e-01
-2.369890000000000052e-01 3.551389999999999825e-01 -2.690069999999999961e-01
1.813760000000000094e-01 6.691040000000000321e-01 2.682919999999999749e-01
-3.676220000000000043e-01 -2.278590000000000060e-01 -1.941519999999999913e-01
2.869700000000000029e-01 -2.892509999999999803e-01 2.522699999999999942e-02
-2.204589999999999883e-01 -5.561460000000000292e-01 -4.144399999999999751e-01
-9.379099999999999937e-02 2.437509999999999954e-01 3.986080000000000179e-01
2.654130000000000100e-01 -7.032629999999999715e-01 1.884800000000000017e-02
-1.271049999999999958e-01 -2.275969999999999938e-01 -2.238469999999999904e-01
-1.560110000000000108e-01 8.188000000000000833e-03 3.193790000000000240e-01
2.097100000000000006e-02 1.233599999999999974e-01 -3.490199999999999969e-01
-3.637909999999999755e-01 2.865650000000000142e-01 -1.998669999999999891e-01
-2.763900000000000037e-02 -2.499699999999999978e-01 -4.682499999999999857e-02
5.477900000000000130e-02 -3.785390000000000144e-01 -2.395369999999999999e-01
2.141770000000000063e-01 1.743639999999999912e-01 -3.480329999999999813e-01
8.492700000000000249e-02 -4.766690000000000094e-01 -2.201780000000000126e-01
-4.704809999999999826e-01 -3.499079999999999968e-01 -2.311400000000000121e-01
-2.176399999999999862e-02 2.893439999999999901e-01 -3.791340000000000265e-01
3.813500000000000223e-02 6.309019999999999628e-01 3.267229999999999857e-01
-5.770000000000000129e-02 6.975970000000000226e-01 8.466300000000000214e-02
1.153299999999999985e-02 3.078980000000000050e-01 4.952730000000000188e-01
2.743959999999999733e-01 -4.880160000000000053e-01 8.235399999999999665e-02
-3.170789999999999997e-01 -7.562109999999999665e-01 4.831200000000000078e-02
3.325549999999999895e-01 5.859579999999999789e-01 -1.886829999999999896e-01
-2.779399999999999926e-02 -1.344629999999999992e-01 1.712180000000000091e-01
3.057389999999999830e-01 -6.397899999999999421e-02 -3.547600000000000059e-02
3.773119999999999807e-01 5.821950000000000180e-01 1.497680000000000122e-01
-1.983599999999999947e-02 -1.464769999999999961e-01 1.738429999999999975e-01
9.718999999999999861e-02 -3.800879999999999814e-01 -1.713530000000000053e-01
-5.069730000000000070e-01 4.155019999999999825e-01 -2.214999999999999955e-03
5.426299999999999873e-02 3.898539999999999783e-01 4.471209999999999907e-01
2.480360000000000065e-01 1.450579999999999925e-01 -3.241609999999999769e-01
-3.068230000000000124e-01 1.885910000000000086e-01 1.636209999999999887e-01
-3.451819999999999888e-01 2.132259999999999989e-01 9.860700000000000021e-02
2.803359999999999741e-01 -1.425859999999999905e-01 1.118959999999999955e-01
-1.126420000000000060e-01 3.521000000000000241e-01 3.950520000000000143e-01
-7.635200000000000320e-02 -6.369949999999999779e-01 -3.806109999999999771e-01
1.992019999999999902e-01 1.663299999999999848e-02 -2.656789999999999985e-01
4.066000000000000170e-02 -9.163000000000000311e-02 -1.153150000000000008e-01
2.341340000000000088e-01 7.487399999999999611e-02 -2.954990000000000117e-01
1.723860000000000114e-01 7.186420000000000030e-01 -4.407500000000000306e-02
5.434480000000000421e-01 5.028369999999999784e-01 4.692500000000000143e-02
1.863070000000000004e-01 -3.845890000000000142e-01 -9.823199999999999987e-02
-2.945380000000000220e-01 -3.440000000000000132e-04 -1.959519999999999873e-01
-3.101699999999999943e-02 -4.167759999999999798e-01 2.791540000000000132e-01
-4.657620000000000093e-01 -4.250450000000000061e-01 -1.868460000000000121e-01
-4.007249999999999979e-01 -1.022539999999999977e-01 -4.002290000000000014e-01
5.229299999999999921e-02 7.122460000000000457e-01 -6.697400000000000575e-02
-3.342999999999999861e-01 -2.626129999999999853e-01 -2.495999999999999955e-03
1.202860000000000040e-01 -4.723990000000000133e-01 -1.525179999999999869e-01
2.821210000000000107e-01 5.155400000000000260e-02 -2.507770000000000277e-01
-3.261470000000000202e-01 -7.688479999999999759e-01 -1.312600000000000051e-02
-2.101810000000000067e-01 -7.936349999999999794e-01 1.723169999999999980e-01
-3.100439999999999863e-01 4.203689999999999927e-01 9.187199999999999533e-02
4.401120000000000032e-01 3.983369999999999966e-01 2.718030000000000168e-01
1.502799999999999969e-01 -6.186409999999999965e-01 -1.231639999999999957e-01
-4.857449999999999823e-01 5.523230000000000084e-01 -9.466900000000000315e-02
1.511709999999999998e-01 -4.867409999999999792e-01 -1.253420000000000090e-01
2.492969999999999908e-01 3.460960000000000147e-01 3.867949999999999999e-01
3.163360000000000061e-01 4.844470000000000165e-01 3.589359999999999773e-01
-4.857779999999999876e-01 3.656420000000000226e-01 1.907199999999999868e-02
3.040519999999999889e-01 3.665160000000000085e-01 -3.105660000000000087e-01
-4.379640000000000200e-01 -5.200129999999999475e-01 2.962100000000000150e-02
-4.236000000000000182e-02 -2.532599999999999851e-01 1.556329999999999936e-01
3.309000000000000274e-01 3.514900000000000246e-01 3.470829999999999749e-01
2.806499999999999967e-02 -5.102989999999999471e-01 -3.635579999999999923e-01
-6.178899999999999670e-02 -7.950829999999999842e-01 -2.015429999999999999e-01
7.487900000000000111e-02 1.434829999999999994e-01 5.160770000000000080e-01
4.219709999999999850e-01 3.194870000000000210e-01 3.150240000000000262e-01
-1.195719999999999977e-01 2.255109999999999892e-01 -3.381739999999999746e-01
-1.414680000000000104e-01 -4.211499999999999966e-02 -2.313399999999999831e-02
-3.160999999999999921e-02 -2.340589999999999893e-01 1.065539999999999959e-01
3.275560000000000138e-01 3.444920000000000204e-01 3.515519999999999756e-01
-3.699580000000000091e-01 6.289249999999999563e-01 -2.115200000000000066e-02
-3.396000000000000147e-03 4.810570000000000124e-01 -3.496509999999999896e-01
-2.134040000000000104e-01 5.213330000000000464e-01 -2.079179999999999917e-01
-1.527429999999999899e-01 -7.048159999999999981e-01 2.451049999999999895e-01
-1.960200000000000137e-02 -5.216199999999999726e-01 2.689659999999999829e-01
-3.132220000000000004e-01 -5.824350000000000360e-01 -3.586619999999999808e-01
-2.346530000000000005e-01 2.005909999999999915e-01 -2.685600000000000209e-01
3.135680000000000134e-01 1.759969999999999868e-01 -2.938580000000000081e-01
-5.553000000000000297e-02 -7.643259999999999499e-01 5.888999999999999790e-02
-1.185309999999999975e-01 2.760210000000000163e-01 -3.445739999999999914e-01
-2.286880000000000024e-01 -7.929680000000000062e-01 1.460140000000000049e-01
-9.720499999999999974e-02 6.767800000000000482e-01 1.259550000000000114e-01
-1.901999999999999871e-02 -8.393299999999999372e-02 -1.022180000000000033e-01
-2.690899999999999959e-01 -7.753949999999999454e-01 1.567729999999999957e-01
4.533849999999999825e-01 4.404790000000000094e-01 -1.240480000000000055e-01
4.529369999999999785e-01 8.565399999999999403e-02 -2.569400000000000156e-02
4.256780000000000008e-01 5.191679999999999628e-01 1.659569999999999934e-01
2.137729999999999908e-01 -7.970420000000000282e-01 -1.691600000000000048e-02
-2.858289999999999997e-01 2.675230000000000108e-01 -2.499850000000000128e-01
-4.058490000000000153e-01 -1.524099999999999934e-02 -2.745730000000000115e-01
4.975379999999999803e-01 3.066969999999999974e-01 1.342980000000000007e-01
-2.465430000000000121e-01 -1.979299999999999948e-01 -1.361350000000000060e-01
-6.108700000000000241e-02 -7.509320000000000439e-01 2.940820000000000101e-01
-4.095659999999999856e-01 5.346570000000000489e-01 1.176499999999999942e-02
2.686890000000000112e-01 -3.148119999999999807e-01 -1.310099999999999980e-02
3.846419999999999839e-01 1.240330000000000044e-01 3.714850000000000096e-01
-1.795910000000000006e-01 6.345039999999999569e-01 8.104600000000000692e-02
-2.343040000000000123e-01 3.166410000000000058e-01 3.141410000000000036e-01
3.745780000000000221e-01 4.342539999999999734e-01 -2.290470000000000006e-01
4.573189999999999755e-01 7.638129999999999642e-01 6.119700000000000140e-02
-2.336689999999999878e-01 4.077499999999999875e-02 -1.718619999999999870e-01
-3.646119999999999917e-01 -6.712059999999999693e-01 6.084799999999999931e-02
-2.103589999999999904e-01 1.261600000000000048e-02 2.160660000000000081e-01
-2.033290000000000097e-01 2.714269999999999738e-01 3.088989999999999791e-01
4.635239999999999916e-01 7.814149999999999707e-01 -8.610500000000000098e-02
-2.437930000000000097e-01 8.727400000000000435e-02 -2.673800000000000066e-01
-5.510600000000000220e-02 -2.621609999999999774e-01 1.240570000000000006e-01
-2.073750000000000038e-01 2.083899999999999988e-02 2.407759999999999900e-01
-3.485639999999999850e-01 -7.509879999999999889e-01 -1.284089999999999954e-01
3.799679999999999724e-01 5.808950000000000502e-01 1.449709999999999888e-01
-5.122560000000000446e-01 5.757050000000000223e-01 -1.516100000000000086e-02
-2.376149999999999929e-01 1.568380000000000052e-01 -2.632869999999999933e-01
2.730600000000000041e-02 1.933979999999999866e-01 5.247579999999999467e-01
-4.461379999999999790e-01 -3.273010000000000086e-01 -1.221239999999999964e-01
-1.529580000000000106e-01 4.754079999999999973e-01 3.608549999999999813e-01
4.254780000000000229e-01 6.857459999999999667e-01 5.750700000000000256e-02
2.770170000000000132e-01 -3.738799999999999901e-01 -1.538300000000000084e-02
-5.064670000000000005e-01 5.832690000000000374e-01 -7.447999999999999760e-03
-1.519959999999999922e-01 1.577880000000000116e-01 3.387899999999999801e-01
-3.184279999999999888e-01 -6.241360000000000241e-01 1.378469999999999973e-01
7.529299999999999882e-02 -6.355950000000000211e-01 -2.178789999999999893e-01
1.678429999999999922e-01 4.755639999999999867e-01 4.220559999999999867e-01
-3.452799999999999758e-01 -1.562749999999999972e-01 -3.734029999999999849e-01
-1.170479999999999993e-01 3.472669999999999924e-01 -3.416629999999999945e-01
-3.563060000000000116e-01 -5.675000000000000044e-01 -3.285719999999999752e-01
2.600250000000000061e-01 9.032600000000000351e-02 4.668240000000000167e-01
-1.357180000000000053e-01 -7.957119999999999749e-01 -2.178529999999999911e-01
1.920969999999999900e-01 -2.307829999999999881e-01 3.092030000000000056e-01
4.210099999999999953e-02 6.656170000000000142e-01 -1.922609999999999875e-01
3.631210000000000271e-01 -3.871700000000000141e-02 6.054500000000000159e-02
4.864040000000000030e-01 3.500150000000000206e-01 1.732789999999999886e-01
-2.835460000000000202e-01 9.218700000000000505e-02 6.965200000000000558e-02
2.977790000000000159e-01 -2.387090000000000045e-01 1.254190000000000027e-01
-1.350329999999999864e-01 -2.204000000000000126e-01 -8.200399999999999356e-02
5.523829999999999574e-01 5.479929999999999524e-01 5.761800000000000255e-02
-9.341999999999999610e-03 -7.948359999999999870e-01 -9.783300000000000329e-02
4.424040000000000195e-01 7.421569999999999556e-01 6.005100000000000021e-02
2.972049999999999970e-01 -3.243199999999999972e-01 2.210610000000000075e-01
2.428819999999999868e-01 6.834750000000000547e-01 1.916370000000000018e-01
-3.836900000000000033e-02 -2.390480000000000105e-01 6.425699999999999468e-02
-2.934530000000000194e-01 2.106590000000000129e-01 2.170779999999999932e-01
-3.945560000000000178e-01 -5.858050000000000201e-01 -2.617680000000000007e-01
-2.409299999999999983e-02 1.009499999999999981e-01 5.033499999999999641e-01
-7.868200000000000194e-02 -7.934949999999999504e-01 -1.365770000000000040e-01
2.787029999999999785e-01 -1.327569999999999861e-01 1.520509999999999917e-01
-1.795809999999999906e-01 -2.100569999999999937e-01 -1.412400000000000044e-01
2.377599999999999852e-02 5.566269999999999829e-01 3.922100000000000031e-01
-4.418469999999999898e-01 -7.514600000000000446e-02 -2.672889999999999988e-01
2.179359999999999908e-01 1.410900000000000001e-02 -2.545229999999999992e-01
5.682279999999999553e-01 6.938560000000000283e-01 2.232400000000000009e-02
-4.080019999999999758e-01 -1.438329999999999886e-01 -4.180309999999999859e-01
2.454109999999999903e-01 5.262200000000000211e-01 3.807440000000000269e-01
-2.451869999999999883e-01 4.799579999999999957e-01 2.585890000000000133e-01
-8.281199999999999672e-02 1.927200000000000094e-02 4.111290000000000222e-01
-1.590799999999999853e-02 -6.195410000000000084e-01 -3.592560000000000198e-01
1.970260000000000067e-01 -5.019620000000000193e-01 2.505450000000000177e-01
3.276640000000000108e-01 3.047019999999999729e-01 -3.016300000000000092e-01
6.895500000000000240e-02 -1.555300000000000085e-02 4.404140000000000277e-01
2.134590000000000098e-01 3.075749999999999873e-01 4.100779999999999981e-01
-2.716620000000000146e-01 -2.354930000000000079e-01 -1.701499999999999888e-02
1.082130000000000036e-01 -5.544829999999999481e-01 -1.440150000000000041e-01
4.282090000000000063e-01 1.583980000000000110e-01 3.219600000000000239e-01
4.369499999999999773e-02 7.218649999999999789e-01 -4.987000000000000113e-03
4.353060000000000263e-01 1.347800000000000109e-01 -1.384160000000000112e-01
8.612999999999999823e-02 7.198849999999999971e-01 -4.263000000000000123e-02
2.587300000000000016e-02 2.872299999999999853e-01 5.292440000000000477e-01
5.764500000000000179e-02 -7.933470000000000244e-01 -2.400329999999999964e-01
-2.417020000000000002e-01 4.970189999999999886e-01 2.466589999999999894e-01
-3.070459999999999856e-01 4.410499999999999976e-01 7.541499999999999593e-02
1.590100000000000124e-01 -5.314349999999999907e-01 -1.117869999999999975e-01
-4.098890000000000033e-01 6.286929999999999463e-01 -6.034400000000000180e-02
4.336139999999999994e-01 5.726120000000000099e-01 -1.552360000000000129e-01
3.351069999999999882e-01 1.614600000000000063e-02 3.326359999999999872e-01
-1.287560000000000093e-01 6.651089999999999502e-01 3.338399999999999701e-02
4.250829999999999886e-01 2.560199999999999976e-02 8.829700000000000049e-02
-3.146209999999999840e-01 -5.101700000000000124e-01 1.515259999999999940e-01
-4.626390000000000224e-01 -3.276040000000000063e-01 -3.363570000000000171e-01
2.821270000000000167e-01 3.113850000000000229e-01 -3.307689999999999797e-01
-1.442399999999999932e-02 -7.646880000000000344e-01 -2.324199999999999877e-02
2.737129999999999841e-01 1.633209999999999940e-01 -3.159259999999999846e-01
1.443059999999999898e-01 7.046909999999999563e-01 2.043580000000000119e-01
7.940400000000000236e-02 -4.543510000000000049e-01 -2.490370000000000084e-01
-3.991979999999999973e-01 2.454620000000000135e-01 -8.274499999999999911e-02
2.828950000000000076e-01 2.708900000000000197e-01 -3.294099999999999806e-01
-3.438660000000000050e-01 -2.237820000000000087e-01 -2.446149999999999991e-01
2.189059999999999895e-01 -6.825400000000000356e-01 -1.285189999999999944e-01
-1.046060000000000045e-01 -2.515099999999999975e-02 -1.495070000000000010e-01
8.314000000000000556e-02 -4.772230000000000083e-01 -1.745400000000000007e-01
1.255549999999999999e-01 -3.780089999999999839e-01 3.471620000000000261e-01
1.770619999999999972e-01 7.288850000000000051e-01 1.877799999999999955e-02
2.356419999999999904e-01 3.985480000000000134e-01 3.956979999999999942e-01
-3.145310000000000050e-01 5.977740000000000276e-01 -1.010429999999999939e-01
-5.916400000000000131e-02 -4.653959999999999764e-01 -4.201389999999999847e-01
2.848879999999999746e-01 4.363389999999999769e-01 -3.010439999999999783e-01
-4.165760000000000018e-01 -5.385259999999999492e-01 6.648500000000000243e-02
-7.803799999999999626e-02 6.744930000000000092e-01 1.834989999999999954e-01
1.613799999999999957e-02 2.653400000000000203e-01 -3.856809999999999961e-01
-4.687930000000000152e-01 -3.649450000000000194e-01 -2.587920000000000220e-01
-2.297649999999999970e-01 5.863089999999999691e-01 -1.094419999999999976e-01
-2.404810000000000003e-01 5.125199999999999895e-02 -8.601599999999999524e-02
3.690789999999999904e-01 4.253480000000000039e-01 -2.382749999999999868e-01
-1.740099999999999980e-01 2.785400000000000029e-02 3.132739999999999969e-01
4.420299999999999924e-02 -7.964590000000000281e-01 -1.933279999999999998e-01
-1.596549999999999914e-01 -2.218499999999999917e-01 -2.358020000000000116e-01
2.013979999999999937e-01 -5.941049999999999942e-01 1.268859999999999988e-01
1.545479999999999909e-01 1.337299999999999947e-02 -2.775659999999999794e-01
2.080400000000000027e-01 3.672270000000000256e-01 -3.586289999999999756e-01
3.616779999999999995e-01 7.329339999999999744e-01 8.986199999999999743e-02
-8.419999999999999707e-02 -2.363480000000000025e-01 -1.324730000000000074e-01
1.997490000000000099e-01 -1.430720000000000047e-01 2.653559999999999808e-01
-6.791000000000000161e-03 3.871470000000000189e-01 -3.754020000000000135e-01
2.972060000000000257e-01 7.723769999999999802e-01 1.992599999999999927e-02
3.399969999999999937e-01 3.308800000000000074e-01 -2.900829999999999798e-01
-3.605650000000000244e-01 -7.162680000000000158e-01 -1.801180000000000003e-01
3.797659999999999925e-01 1.120699999999999995e-02 -8.130500000000000227e-02
1.703709999999999947e-01 2.052360000000000018e-01 5.234339999999999549e-01
-2.414260000000000017e-01 4.075840000000000019e-01 3.036159999999999970e-01
-8.548300000000000343e-02 -2.568259999999999987e-01 2.732700000000000060e-02
-2.703380000000000227e-01 5.144790000000000196e-01 1.352679999999999993e-01
-8.901799999999999990e-02 7.226299999999999391e-02 -2.787720000000000198e-01
1.431179999999999952e-01 1.728929999999999911e-01 -3.688449999999999784e-01
7.018399999999999639e-02 -6.889060000000000183e-01 -2.456530000000000102e-01
-2.790520000000000223e-01 9.232200000000000129e-02 -2.808129999999999793e-01
-2.990550000000000153e-01 4.462280000000000135e-01 1.239249999999999935e-01
-3.561309999999999754e-01 -5.273830000000000462e-01 -3.509979999999999767e-01
-3.808369999999999811e-01 -5.726059999999999484e-01 1.018939999999999985e-01
4.398810000000000220e-01 1.859329999999999872e-01 -1.567780000000000007e-01
5.938000000000000222e-02 -4.147449999999999748e-01 3.352979999999999849e-01
-2.924490000000000145e-01 1.862709999999999921e-01 2.054360000000000075e-01
-2.504700000000000260e-01 4.463899999999999813e-02 -1.535199999999999898e-01
1.398719999999999963e-01 -7.542410000000000503e-01 -1.852729999999999932e-01
-7.905700000000000227e-02 6.474330000000000362e-01 -1.438020000000000131e-01
1.766340000000000132e-01 7.044369999999999798e-01 1.943539999999999990e-01
9.272500000000000187e-02 -2.922500000000000098e-02 4.334359999999999880e-01
-3.807380000000000209e-01 6.302029999999999577e-01 -4.266199999999999853e-02
-1.416370000000000129e-01 1.522799999999999987e-01 -3.028939999999999966e-01
3.140099999999999836e-02 1.917020000000000113e-01 -3.766200000000000103e-01
-2.187499999999999861e-02 -7.942470000000000363e-01 9.321599999999999331e-02
-2.305810000000000082e-01 2.001479999999999926e-01 -2.701890000000000125e-01
2.801919999999999966e-01 -2.005099999999999938e-01 1.746109999999999884e-01
2.899809999999999888e-01 -2.437439999999999884e-01 1.865779999999999939e-01
-4.174019999999999953e-01 6.291360000000000285e-01 2.949999999999999931e-03
2.704860000000000042e-01 3.602239999999999887e-01 -3.314400000000000124e-01
-1.789500000000000118e-02 -1.768639999999999934e-01 1.168819999999999998e-01
-1.034189999999999970e-01 4.203120000000000189e-01 4.038910000000000000e-01
-2.784059999999999868e-01 -5.070480000000000542e-01 1.616950000000000054e-01
1.471520000000000050e-01 -1.321699999999999958e-02 -2.507510000000000017e-01
2.041389999999999871e-01 -3.423379999999999757e-01 3.305710000000000037e-01
1.456000000000000046e-03 3.658040000000000180e-01 4.449629999999999974e-01
-1.706149999999999889e-01 2.382529999999999926e-01 -3.122559999999999780e-01
4.501939999999999831e-01 4.584559999999999746e-01 2.029179999999999873e-01
-4.681910000000000238e-01 -4.033669999999999756e-01 -1.702559999999999907e-01
-4.415700000000000180e-01 -4.971369999999999956e-01 -2.323250000000000037e-01
4.584849999999999759e-01 7.348219999999999752e-01 5.687899999999999900e-02
-4.345700000000000118e-01 -4.763820000000000277e-01 -2.712129999999999819e-01
-1.104709999999999998e-01 -5.479999999999999845e-04 3.647580000000000267e-01
3.069089999999999874e-01 1.421580000000000066e-01 4.496839999999999726e-01
4.941119999999999957e-01 8.431739999999999791e-01 5.814099999999999824e-02
1.884039999999999881e-01 -5.922870000000000079e-01 -9.430099999999999594e-02
-3.047449999999999881e-01 4.760030000000000094e-01 -2.110879999999999979e-01
2.009519999999999917e-01 7.041169999999999929e-01 1.790829999999999922e-01
3.671200000000000158e-02 -1.102930000000000021e-01 -7.553500000000000492e-02
4.782600000000000184e-01 5.600990000000000135e-01 8.817600000000000438e-02
-6.965999999999999970e-02 -7.892040000000000166e-01 2.657450000000000090e-01
3.615880000000000205e-01 -3.851000000000000256e-02 1.130160000000000053e-01
-2.977219999999999867e-01 4.237879999999999980e-01 1.730450000000000044e-01
-3.987910000000000066e-01 2.494589999999999863e-01 -9.646599999999999620e-02
5.627900000000000263e-02 6.976599999999999469e-02 4.887569999999999970e-01
4.072500000000000009e-01 4.581189999999999984e-01 -1.812130000000000130e-01
-1.480229999999999879e-01 -7.946309999999999762e-01 -2.659980000000000122e-01
2.389680000000000137e-01 -6.214299999999999685e-02 3.050610000000000266e-01
4.648160000000000069e-01 6.652559999999999585e-01 5.644099999999999812e-02
-3.171050000000000257e-01 -2.139359999999999873e-01 -1.982869999999999910e-01
-2.945150000000000268e-01 4.646170000000000022e-01 1.178870000000000057e-01
-3.923600000000000004e-02 -2.740380000000000038e-01 -2.614730000000000110e-01
-2.844949999999999979e-01 -2.566240000000000188e-01 1.739399999999999974e-02
2.506939999999999724e-01 -4.120210000000000261e-01 -4.380200000000000066e-02
-3.715729999999999866e-01 4.584409999999999874e-01 -2.016550000000000009e-01
3.185629999999999851e-01 -3.463089999999999780e-01 9.100199999999999956e-02
4.103359999999999785e-01 4.653390000000000026e-01 2.806440000000000046e-01
1.483059999999999934e-01 -1.470299999999999940e-01 2.869559999999999889e-01
7.033499999999999475e-02 -3.129919999999999924e-01 -1.473260000000000125e-01
5.151599999999999929e-02 -6.875799999999999967e-02 -1.627049999999999885e-01
2.761580000000000146e-01 7.287979999999999459e-01 -7.717999999999999861e-02
-2.318149999999999933e-01 -6.621550000000000491e-01 -3.653350000000000208e-01
-2.375460000000000071e-01 -1.964190000000000103e-01 -1.551929999999999976e-01
-2.661780000000000257e-01 6.573800000000000476e-02 8.351000000000000090e-02
-6.525499999999999357e-02 3.026000000000000044e-03 -2.204280000000000128e-01
5.002609999999999557e-01 2.156319999999999903e-01 1.127169999999999978e-01
-2.982810000000000183e-01 3.687529999999999974e-01 2.171180000000000054e-01
5.185389999999999722e-01 4.284390000000000143e-01 4.713699999999999835e-02
1.902179999999999982e-01 6.810960000000000347e-01 2.414969999999999895e-01
-3.300390000000000268e-01 3.181399999999999784e-01 8.589499999999999913e-02
-3.390909999999999758e-01 5.773600000000000260e-02 -1.735389999999999988e-01
-9.091399999999999482e-02 -1.211600000000000003e-02 -1.830269999999999953e-01
-1.563900000000000012e-02 -4.113300000000000289e-02 -1.843259999999999899e-01
-3.395000000000000014e-03 -7.946469999999999922e-01 -1.338870000000000060e-01
-2.305460000000000009e-01 2.279100000000000015e-01 -2.720600000000000240e-01
-9.211999999999999703e-03 1.802479999999999916e-01 5.191040000000000099e-01
-3.552509999999999835e-01 -2.587090000000000223e-01 -3.200999999999999679e-02
-3.830489999999999728e-01 -4.685860000000000025e-01 -3.555409999999999959e-01
-1.094480000000000036e-01 -1.830100000000000129e-02 -1.581380000000000008e-01
-2.447469999999999923e-01 -7.930810000000000359e-01 1.787100000000000147e-02
1.697639999999999982e-01 -7.251999999999999766e-03 4.406140000000000057e-01
-1.174179999999999946e-01 3.382629999999999804e-01 -3.426910000000000234e-01
-4.449380000000000002e-01 3.177659999999999929e-01 -9.733300000000000285e-02
2.683320000000000149e-01 -6.754759999999999653e-01 -3.706500000000000072e-02
-8.949300000000000310e-02 -6.625899999999999845e-02 -7.303400000000000170e-02
5.019010000000000415e-01 2.430420000000000080e-01 4.269499999999999684e-02
-1.234200000000000019e-01 -2.577900000000000191e-01 2.359100000000000086e-02
-2.992469999999999852e-01 3.542179999999999773e-01 -2.416419999999999957e-01
-3.205270000000000064e-01 1.359049999999999980e-01 -2.427599999999999897e-02
4.741549999999999931e-01 3.545309999999999850e-01 -9.192400000000000571e-02
-2.995889999999999942e-01 1.104870000000000019e-01 1.515999999999999986e-03
2.483470000000000122e-01 -3.454389999999999961e-01 -4.268099999999999672e-02
-1.330729999999999968e-01 -7.987900000000000000e-01 -5.490799999999999847e-02
-3.429280000000000106e-01 -7.193499999999999894e-02 -3.651980000000000226e-01
-4.544309999999999738e-01 -5.108359999999999568e-01 -2.482900000000000038e-02
4.224149999999999849e-01 1.562159999999999938e-01 3.306149999999999922e-01
4.300959999999999783e-01 2.404769999999999963e-01 -1.856639999999999957e-01
-4.008260000000000156e-01 -5.094359999999999999e-01 -3.106490000000000085e-01
2.228600000000000025e-01 5.625499999999999945e-01 3.702030000000000043e-01
4.549000000000000092e-03 6.427779999999999605e-01 -2.169339999999999880e-01
1.080070000000000058e-01 6.838579999999999659e-01 -1.610000000000000042e-01
3.775339999999999807e-01 3.685499999999999887e-02 -1.310800000000000021e-01
1.081789999999999974e-01 -7.970129999999999715e-01 -1.401850000000000041e-01
-2.068499999999999853e-02 -3.115450000000000164e-01 -3.072119999999999851e-01
3.090249999999999941e-01 -4.807100000000000262e-02 -7.291999999999999871e-02
-3.321350000000000136e-01 1.581339999999999968e-01 4.739999999999999769e-02
2.418359999999999954e-01 -5.364640000000000519e-01 9.738099999999999534e-02
-1.166370000000000046e-01 -4.500620000000000176e-01 -4.356439999999999757e-01
-2.538880000000000026e-01 3.019620000000000082e-01 2.885800000000000032e-01
-1.588759999999999895e-01 4.605759999999999854e-01 3.614689999999999848e-01
-3.363090000000000246e-01 -1.874899999999999900e-01 -3.528299999999999770e-01
-7.829700000000000548e-02 -2.914820000000000189e-01 1.444759999999999933e-01
9.781700000000000117e-02 4.278339999999999921e-01 -3.724779999999999758e-01
3.288519999999999777e-01 6.799640000000000128e-01 1.005609999999999976e-01
2.061199999999999838e-02 -3.219819999999999904e-01 -2.547309999999999852e-01
2.014390000000000069e-01 2.161800000000000110e-01 -3.624979999999999869e-01
9.036900000000000488e-02 -4.465509999999999757e-01 -1.842249999999999999e-01
2.755889999999999729e-01 6.465400000000000036e-01 -1.688409999999999911e-01
-2.556050000000000266e-01 1.690129999999999966e-01 2.536999999999999811e-01
5.629999999999999588e-03 -1.610340000000000105e-01 6.398000000000000041e-03
9.876400000000000456e-02 -3.062159999999999882e-01 3.447470000000000256e-01
-2.145930000000000060e-01 1.463369999999999949e-01 2.901420000000000110e-01
4.905669999999999753e-01 3.160189999999999944e-01 1.689370000000000038e-01
-2.902839999999999865e-01 -2.345959999999999990e-01 -3.332829999999999959e-01
1.130329999999999946e-01 -9.300300000000000233e-02 3.154009999999999869e-01
-9.354200000000000015e-02 -6.053600000000000092e-01 -4.019059999999999855e-01
2.677869999999999973e-01 -1.981719999999999871e-01 2.053149999999999975e-01
-4.537109999999999754e-01 -2.713530000000000109e-01 -2.201019999999999921e-01
-4.397000000000000214e-02 -5.408119999999999594e-01 -4.058300000000000241e-01
2.015079999999999927e-01 -2.692330000000000001e-01 3.185830000000000051e-01
-1.082889999999999964e-01 4.061179999999999790e-01 -3.354960000000000164e-01
2.552099999999999924e-01 -1.985299999999999912e-02 -1.879740000000000022e-01
3.582199999999999829e-01 6.346000000000000252e-02 3.615820000000000145e-01
3.679600000000000232e-02 -5.997989999999999711e-01 -3.225299999999999834e-01
-3.130299999999999749e-02 -3.699689999999999923e-01 -3.748480000000000145e-01
3.921450000000000213e-01 6.697469999999999812e-01 6.516500000000000070e-02
1.752110000000000056e-01 5.398389999999999578e-01 3.969090000000000118e-01
1.585159999999999902e-01 -7.312319999999999931e-01 -1.576369999999999993e-01
-3.422629999999999839e-01 -2.058240000000000069e-01 -2.685790000000000122e-01
3.500400000000000039e-02 -5.095650000000000457e-01 -3.573819999999999775e-01
1.051180000000000031e-01 5.907970000000000166e-01 3.717380000000000129e-01
8.516899999999999471e-02 -4.549999999999999878e-02 4.124519999999999853e-01
-1.755990000000000051e-01 -2.236899999999999999e-02 2.239909999999999957e-01
1.661699999999999983e-02 5.180099999999999982e-02 4.836199999999999943e-01
1.298729999999999885e-01 -7.390139999999999487e-01 1.669450000000000101e-01
-4.156499999999999778e-02 1.384769999999999890e-01 -3.404719999999999969e-01
2.391179999999999972e-01 -6.952709999999999724e-01 -1.303759999999999919e-01
-1.850739999999999885e-01 -2.147330000000000072e-01 -2.213350000000000040e-01
-2.899590000000000223e-01 4.929370000000000140e-01 8.551899999999999780e-02
-3.501659999999999773e-01 -6.953949999999999854e-01 -2.332730000000000081e-01
3.805850000000000066e-01 -1.960200000000000137e-02 1.263350000000000029e-01
-4.324140000000000206e-01 -5.618049999999999988e-01 -1.879300000000000137e-01
1.478800000000000114e-01 -2.366230000000000000e-01 3.271990000000000176e-01
-4.061509999999999843e-01 -3.810189999999999966e-01 5.237800000000000095e-02
1.946599999999999997e-01 -8.333400000000000529e-02 -1.124300000000000022e-01
3.634099999999999830e-02 -5.908029999999999671e-01 -3.281319999999999792e-01
9.380900000000000349e-02 3.786089999999999733e-01 -3.845850000000000102e-01
3.576599999999999779e-01 4.548530000000000073e-01 3.407470000000000221e-01
-9.929599999999999538e-02 -2.542050000000000143e-01 -2.912339999999999929e-01
5.109860000000000513e-01 4.646029999999999882e-01 -5.241599999999999732e-02
-4.711699999999999777e-01 -2.145090000000000052e-01 -3.772719999999999962e-01
-4.286730000000000262e-01 -5.175570000000000448e-01 -2.503469999999999862e-01
3.203469999999999929e-01 1.694479999999999875e-01 -2.872379999999999933e-01
4.889899999999999802e-01 3.329650000000000110e-01 -4.218299999999999828e-02
-3.633640000000000203e-01 -6.032889999999999642e-01 -2.969260000000000232e-01
4.992639999999999856e-01 3.434429999999999983e-01 8.674400000000000166e-02
3.250020000000000131e-01 3.113509999999999889e-01 -3.031099999999999905e-01
-1.355949999999999933e-01 -5.601099999999999829e-02 2.361399999999999957e-02
2.275850000000000095e-01 4.273629999999999929e-01 4.054599999999999871e-01
-2.669849999999999723e-01 1.506820000000000104e-01 -2.723610000000000197e-01
-1.858920000000000017e-01 -2.120889999999999997e-01 -2.070780000000000121e-01
-3.981699999999999823e-02 -1.213130000000000042e-01 3.552700000000000302e-02
-4.727729999999999988e-01 -2.738889999999999936e-01 -3.555659999999999932e-01
1.450750000000000095e-01 -5.986780000000000435e-01 1.960069999999999868e-01
2.715359999999999996e-01 6.422759999999999581e-01 2.459250000000000047e-01
-3.946140000000000203e-01 -6.777090000000000058e-01 -9.359000000000000652e-02
2.510760000000000214e-01 -7.871249999999999636e-01 -1.257610000000000117e-01
-1.540920000000000067e-01 -2.212069999999999870e-01 -2.264249999999999874e-01
6.610800000000000010e-02 2.199760000000000049e-01 5.494769999999999932e-01
-4.486919999999999797e-01 3.658799999999999830e-01 -1.350369999999999904e-01
8.929600000000000037e-02 5.475689999999999724e-01 4.025940000000000074e-01
-2.183900000000000008e-01 6.146760000000000002e-01 4.693300000000000249e-02
1.037529999999999980e-01 -7.945649999999999658e-01 1.308030000000000026e-01
1.653050000000000075e-01 -7.115930000000000311e-01 1.203010000000000052e-01
2.714679999999999871e-01 -2.739000000000000115e-02 -1.619220000000000104e-01
-1.158069999999999933e-01 2.823899999999999744e-01 -3.461529999999999885e-01
-2.411059999999999870e-01 1.072199999999999959e-01 -2.672889999999999988e-01
-3.549030000000000240e-01 -7.067250000000000476e-01 -2.104050000000000087e-01
-3.081269999999999842e-01 4.354129999999999945e-01 7.732100000000000084e-02
-2.635900000000000049e-02 5.345029999999999504e-01 3.950089999999999990e-01
-3.126809999999999867e-01 -4.359149999999999969e-01 1.402160000000000073e-01
-1.299760000000000082e-01 1.381739999999999913e-01 -3.025240000000000151e-01
-1.312159999999999993e-01 -7.922270000000000145e-01 -1.232049999999999951e-01
1.243070000000000008e-01 -4.875959999999999739e-01 -1.469540000000000013e-01
2.872810000000000086e-01 -2.423349999999999949e-01 1.935429999999999928e-01
7.391499999999999460e-02 2.868789999999999951e-01 5.377819999999999823e-01
4.262670000000000070e-01 4.302170000000000161e-01 -1.646950000000000081e-01
2.276200000000000098e-02 1.887000000000000136e-02 4.574449999999999905e-01
-4.147259999999999835e-01 -5.553249999999999575e-01 6.438399999999999679e-02
-4.712600000000000122e-01 -3.506830000000000225e-01 -2.672660000000000036e-01
-3.988789999999999836e-01 -6.067310000000000203e-01 -2.317029999999999923e-01
-1.139300000000000035e-01 4.437789999999999790e-01 -3.220219999999999749e-01
-3.310830000000000162e-01 -7.552459999999999729e-01 -2.007670000000000010e-01
2.925980000000000247e-01 -1.077010000000000051e-01 1.127859999999999974e-01
4.618499999999999828e-01 6.443320000000000158e-01 -1.380589999999999873e-01
-1.063749999999999973e-01 -2.379159999999999886e-01 -2.474870000000000125e-01
-1.506929999999999936e-01 4.105500000000000260e-01 -3.116559999999999886e-01
-3.946800000000000308e-02 -3.060140000000000082e-01 2.300449999999999995e-01
-6.500799999999999634e-02 -3.667099999999999804e-01 2.294799999999999895e-01
6.379300000000000248e-02 -6.047329999999999650e-01 -2.718659999999999966e-01
-3.598300000000000110e-02 7.062180000000000124e-01 3.534199999999999842e-02
-4.336789999999999812e-01 -5.613400000000000334e-02 -3.014109999999999845e-01
-2.800159999999999871e-01 4.722180000000000266e-01 1.763319999999999887e-01
1.863839999999999941e-01 -2.816259999999999875e-01 3.301080000000000125e-01
1.430369999999999975e-01 -6.231790000000000385e-01 1.845390000000000086e-01
9.767800000000000094e-02 2.704630000000000090e-01 5.428110000000000435e-01
2.883120000000000127e-01 -2.124169999999999947e-01 9.548500000000000043e-02
1.854740000000000000e-01 2.251500000000000029e-02 4.517010000000000192e-01
8.416899999999999382e-02 -2.128089999999999982e-01 3.119489999999999763e-01
1.334190000000000098e-01 6.299850000000000172e-01 -2.363270000000000093e-01
1.599180000000000046e-01 -7.556150000000000366e-01 -1.633459999999999912e-01
-4.947810000000000263e-01 5.433010000000000339e-01 1.020800000000000006e-02
3.268240000000000034e-01 -6.907399999999999651e-02 1.076789999999999969e-01
-3.259200000000000291e-02 4.468989999999999907e-01 4.269700000000000162e-01
5.111689999999999845e-01 4.122000000000000108e-01 2.222100000000000117e-02
-3.646159999999999957e-01 1.174309999999999937e-01 -2.163690000000000058e-01
-2.929039999999999977e-01 -7.132060000000000066e-01 1.426270000000000038e-01
-6.731299999999999784e-02 -3.049229999999999996e-01 -3.421029999999999904e-01
-3.563640000000000141e-01 -7.263899999999999801e-01 -1.956999999999999972e-03
3.612239999999999895e-01 2.329600000000000004e-01 3.802820000000000089e-01
-1.374829999999999941e-01 -7.812029999999999808e-01 3.688999999999999918e-02
2.729300000000000129e-02 8.010599999999999665e-02 5.036629999999999718e-01
1.160339999999999983e-01 -7.780099999999999794e-01 1.745259999999999867e-01
-3.464940000000000242e-01 1.045719999999999983e-01 -1.718109999999999915e-01
6.868599999999999706e-02 -1.678330000000000100e-01 2.832230000000000025e-01
-1.349099999999999952e-02 -2.574460000000000082e-01 -9.469700000000000339e-02
4.582000000000000135e-03 -3.307180000000000120e-01 3.008719999999999728e-01
5.242200000000000332e-02 -6.253499999999999615e-01 -2.762040000000000051e-01
-3.516949999999999799e-01 -5.931130000000000013e-01 1.221909999999999941e-01
4.974200000000000149e-02 -7.968530000000000335e-01 -6.119299999999999740e-02
1.026590000000000003e-01 -4.112480000000000024e-01 3.412879999999999803e-01
-3.062610000000000054e-01 1.993679999999999897e-01 1.759749999999999925e-01
7.312499999999999556e-02 1.335270000000000068e-01 -3.598950000000000204e-01
-2.788479999999999848e-01 -3.692380000000000106e-01 -4.257190000000000141e-01
4.861860000000000070e-01 1.664269999999999916e-01 1.652889999999999915e-01
