-3.418287038803100586e-01 1.050219833850860596e-01 -1.331320703029632568e-01
-2.054093033075332642e-01 -3.003841042518615723e-01 3.592855334281921387e-01
-1.951380968093872070e-01 -2.997739315032958984e-01 3.733868002891540527e-01
-2.047618329524993896e-01 -2.828029096126556396e-01 3.611364364624023438e-01
-1.937966048717498779e-01 -2.820521891117095947e-01 3.749792277812957764e-01
1.831790655851364136e-01 3.211478590965270996e-01 -2.781055867671966553e-01
1.739363223314285278e-01 3.110643327236175537e-01 -2.704613208770751953e-01
1.739243716001510620e-01 3.393850922584533691e-01 -2.705079317092895508e-01
1.635888367891311646e-01 3.244585096836090088e-01 -2.661933600902557373e-01
-2.021750062704086304e-01 -9.443655610084533691e-02 3.060440421104431152e-01
-1.892005801200866699e-01 -9.558561444282531738e-02 3.190822601318359375e-01
-2.003808617591857910e-01 -7.913139462471008301e-02 3.078841269016265869e-01
-1.868474930524826050e-01 -7.870274782180786133e-02 3.232791125774383545e-01
1.350551247596740723e-01 -4.396357834339141846e-01 -3.016684949398040771e-01
1.475021094083786011e-01 -4.317467808723449707e-01 -2.951443791389465332e-01
1.253371983766555786e-01 -4.234833419322967529e-01 -2.963902652263641357e-01
1.377699524164199829e-01 -4.183054268360137939e-01 -2.915961742401123047e-01
2.357825189828872681e-01 2.778843641281127930e-01 -2.297375351190567017e-01
2.373255640268325806e-01 2.760715186595916748e-01 -2.113068848848342896e-01
2.251889556646347046e-01 2.849482297897338867e-01 -2.165353745222091675e-01
2.268682420253753662e-01 2.820757925510406494e-01 -1.968035101890563965e-01
3.456827104091644287e-01 -2.044579386711120605e-02 -9.206917881965637207e-02
3.415887653827667236e-01 -2.554797939956188202e-02 -6.952215731143951416e-02
3.396375179290771484e-01 -9.073271416127681732e-03 -7.736902683973312378e-02
3.359467685222625732e-01 -1.235406100749969482e-02 -5.701763927936553955e-02
2.263246774673461914e-01 7.553066611289978027e-01 -1.065261140465736389e-01
2.234029918909072876e-01 7.555261850357055664e-01 -8.261455595493316650e-02
2.202295511960983276e-01 7.731944918632507324e-01 -9.449275583028793335e-02
2.175501137971878052e-01 7.732115983963012695e-01 -7.077535986900329590e-02
-1.561283320188522339e-01 8.780222535133361816e-01 -2.759118676185607910e-01
-1.709479987621307373e-01 8.752038478851318359e-01 -2.696965038776397705e-01
-1.614121794700622559e-01 8.895012736320495605e-01 -2.714641988277435303e-01
-1.741656810045242310e-01 8.870002031326293945e-01 -2.634095251560211182e-01
-2.283479422330856323e-01 -2.548229992389678955e-01 3.261177837848663330e-01
-2.196297645568847656e-01 -2.544578611850738525e-01 3.412138223648071289e-01
-2.238336503505706787e-01 -2.402767688035964966e-01 3.322655558586120605e-01
-2.138642668724060059e-01 -2.405704110860824585e-01 3.460240960121154785e-01
-3.152531683444976807e-01 -2.789079844951629639e-01 6.865967810153961182e-02
-3.177762329578399658e-01 -2.851798236370086670e-01 8.622597903013229370e-02
-3.170160651206970215e-01 -2.719313204288482666e-01 8.801766484975814819e-02
-3.212825357913970947e-01 -2.777901887893676758e-01 1.061131954193115234e-01
-1.252225637435913086e-01 9.484248757362365723e-01 -6.257904320955276489e-02
-1.173446550965309143e-01 9.485466480255126953e-01 -4.356629773974418640e-02
-1.279485672712326050e-01 9.486441016197204590e-01 -4.112202301621437073e-02
-1.202144250273704529e-01 9.486423134803771973e-01 -2.162489295005798340e-02
1.207982078194618225e-01 -6.341903805732727051e-01 3.837929964065551758e-01
1.088509410619735718e-01 -6.354941725730895996e-01 3.990887701511383057e-01
1.151505187153816223e-01 -6.180493831634521484e-01 3.951094448566436768e-01
1.024979054927825928e-01 -6.187627315521240234e-01 4.095218777656555176e-01
3.390099704265594482e-01 -5.147081613540649414e-01 1.422611922025680542e-01
3.350764513015747070e-01 -5.170246958732604980e-01 1.588600724935531616e-01
3.381074368953704834e-01 -5.038490295410156250e-01 1.578928679227828979e-01
3.338820040225982666e-01 -5.060666203498840332e-01 1.752292215824127197e-01
1.316362340003252029e-02 -6.758266687393188477e-01 1.178013347089290619e-02
2.091109007596969604e-02 -6.759160757064819336e-01 3.059890680015087128e-02
1.180627732537686825e-03 -6.747024059295654297e-01 2.972888201475143433e-02
7.798838894814252853e-03 -6.749637126922607422e-01 4.855907708406448364e-02
1.088045537471771240e-02 -6.972896456718444824e-01 2.068590521812438965e-01
1.552923396229743958e-02 -6.980387568473815918e-01 2.254360020160675049e-01
2.208508085459470749e-04 -6.928576231002807617e-01 2.188619673252105713e-01
5.462607834488153458e-03 -6.932315826416015625e-01 2.371904402971267700e-01
-9.952914714813232422e-02 1.687392592430114746e-01 2.919341027736663818e-01
-9.435496479272842407e-02 1.648267060518264771e-01 2.985791862010955811e-01
-1.132841631770133972e-01 1.773452162742614746e-01 2.877894043922424316e-01
-1.038896963000297546e-01 1.779466718435287476e-01 2.993171215057373047e-01
1.925369352102279663e-02 -3.280674517154693604e-01 -2.822653055191040039e-01
1.076832041144371033e-02 -3.413045704364776611e-01 -2.818684279918670654e-01
2.948293928056955338e-03 -3.172873556613922119e-01 -2.788570225238800049e-01
-5.151005461812019348e-03 -3.303650617599487305e-01 -2.787542045116424561e-01
2.268510311841964722e-01 4.458025097846984863e-01 1.324068903923034668e-01
2.258085161447525024e-01 4.408926665782928467e-01 1.529001295566558838e-01
2.236260920763015747e-01 4.535314738750457764e-01 1.463633477687835693e-01
2.224852889776229858e-01 4.491114318370819092e-01 1.661353409290313721e-01
1.179170683026313782e-01 5.631363391876220703e-01 -2.856152057647705078e-01
1.113077998161315918e-01 5.509316921234130859e-01 -2.842018306255340576e-01
1.102887615561485291e-01 5.785688161849975586e-01 -2.869300246238708496e-01
1.035752072930335999e-01 5.660019516944885254e-01 -2.860344350337982178e-01
-1.204284727573394775e-01 2.934061586856842041e-01 -3.022361993789672852e-01
-1.365200579166412354e-01 2.875168323516845703e-01 -2.980468273162841797e-01
-1.282641887664794922e-01 3.081742823123931885e-01 -2.960263490676879883e-01
-1.448155045509338379e-01 3.039281368255615234e-01 -2.897369861602783203e-01
2.215038388967514038e-01 4.633432328701019287e-01 1.056991983205080032e-03
2.213993221521377563e-01 4.599045217037200928e-01 2.096114307641983032e-02
2.220845669507980347e-01 4.746599197387695312e-01 2.521751262247562408e-02
2.215097695589065552e-01 4.713760316371917725e-01 4.518420994281768799e-02
-1.289750337600708008e-01 -3.095631301403045654e-01 4.017668068408966064e-01
-1.212804168462753296e-01 -3.144713640213012695e-01 4.156983494758605957e-01
-1.455277204513549805e-01 -2.912287712097167969e-01 4.022989571094512939e-01
-1.354510933160781860e-01 -2.935096621513366699e-01 4.160667955875396729e-01
-5.414771661162376404e-02 6.325318217277526855e-01 3.366107344627380371e-01
-5.569339543581008911e-02 6.215603351593017578e-01 3.527216911315917969e-01
-5.274298414587974548e-02 6.348193883895874023e-01 3.480907976627349854e-01
-5.421161279082298279e-02 6.233162879943847656e-01 3.639973700046539307e-01
-2.613060176372528076e-01 9.740789979696273804e-02 -3.039335608482360840e-01
-2.756635248661041260e-01 8.713778108358383179e-02 -2.981301248073577881e-01
-2.746509313583374023e-01 1.137316673994064331e-01 -3.018070757389068604e-01
-2.897306680679321289e-01 1.057148724794387817e-01 -2.931703329086303711e-01
8.947908878326416016e-02 -6.933487653732299805e-01 -2.585309147834777832e-01
9.645964950323104858e-02 -6.937018632888793945e-01 -2.367650717496871948e-01
7.849613577127456665e-02 -6.931069493293762207e-01 -2.401747852563858032e-01
8.655272424221038818e-02 -6.930160522460937500e-01 -2.169820070266723633e-01
-2.847887277603149414e-01 8.270020782947540283e-02 1.268190294504165649e-01
-2.794412374496459961e-01 7.799893617630004883e-02 1.487438380718231201e-01
-2.786009013652801514e-01 9.515084326267242432e-02 1.417169719934463501e-01
-2.719343900680541992e-01 9.006273001432418823e-02 1.634102165699005127e-01
-3.274251222610473633e-01 1.902997642755508423e-01 -1.415132880210876465e-01
-3.273215889930725098e-01 1.877195239067077637e-01 -1.231802999973297119e-01
-3.258150815963745117e-01 2.023735791444778442e-01 -1.269753277301788330e-01
-3.255039155483245850e-01 1.993199437856674194e-01 -1.094105392694473267e-01
1.159534007310867310e-01 2.089180946350097656e-01 -2.936181128025054932e-01
1.069720089435577393e-01 1.963336020708084106e-01 -2.930488586425781250e-01
1.061246693134307861e-01 2.243317216634750366e-01 -2.921324074268341064e-01
9.664062410593032837e-02 2.119293510913848877e-01 -2.916137576103210449e-01
1.513864696025848389e-01 -6.836630702018737793e-01 2.867999076843261719e-01
1.577298790216445923e-01 -6.817702651023864746e-01 3.046179413795471191e-01
1.446164101362228394e-01 -6.805263161659240723e-01 3.061014115810394287e-01
1.502332389354705811e-01 -6.786612272262573242e-01 3.235468268394470215e-01
-2.955287694931030273e-01 2.511940598487854004e-01 -2.069073021411895752e-01
-2.988598346710205078e-01 2.433765530586242676e-01 -1.915785223245620728e-01
-2.922719717025756836e-01 2.513563334941864014e-01 -1.839503347873687744e-01
-2.930069863796234131e-01 2.430182844400405884e-01 -1.698600947856903076e-01
-3.665201365947723389e-01 -5.383961796760559082e-01 -1.434201449155807495e-01
-3.687122762203216553e-01 -5.402140617370605469e-01 -1.205741763114929199e-01
-3.699285089969635010e-01 -5.243521928787231445e-01 -1.260179430246353149e-01
-3.719527721405029297e-01 -5.276494622230529785e-01 -1.043128967285156250e-01
-2.080793082714080811e-01 1.722119301557540894e-01 1.903664767742156982e-01
-2.079381197690963745e-01 1.619407385587692261e-01 2.098707556724548340e-01
-1.942332237958908081e-01 1.821400374174118042e-01 2.054251581430435181e-01
-1.955155730247497559e-01 1.715628355741500854e-01 2.253932356834411621e-01
1.475806385278701782e-01 7.127873897552490234e-01 -2.805799543857574463e-01
1.381743550300598145e-01 6.969094872474670410e-01 -2.808125615119934082e-01
1.344293504953384399e-01 7.254015803337097168e-01 -2.809219062328338623e-01
1.246694102883338928e-01 7.121873497962951660e-01 -2.809807956218719482e-01
3.760870993137359619e-01 -3.814159631729125977e-01 -7.378270477056503296e-02
3.758421838283538818e-01 -3.874782621860504150e-01 -4.997593909502029419e-02
3.720088303089141846e-01 -3.730867505073547363e-01 -5.424978956580162048e-02
3.714061379432678223e-01 -3.793667554855346680e-01 -3.011153452098369598e-02
1.570176184177398682e-01 -6.860086917877197266e-01 -1.455430090427398682e-01
1.647670120000839233e-01 -6.842436194419860840e-01 -1.279940307140350342e-01
1.487939804792404175e-01 -6.827173233032226562e-01 -1.285019665956497192e-01
1.560720801353454590e-01 -6.803847551345825195e-01 -1.110982447862625122e-01
1.429546475410461426e-01 1.348960399627685547e-01 2.876833677291870117e-01
1.270894110202789307e-01 1.297844201326370239e-01 3.007251024246215820e-01
1.340666264295578003e-01 1.501989215612411499e-01 2.947801351547241211e-01
1.171575114130973816e-01 1.453817039728164673e-01 3.072519898414611816e-01
2.745929658412933350e-01 -2.202569693326950073e-01 2.987650036811828613e-01
2.679418921470642090e-01 -2.199322730302810669e-01 3.171482384204864502e-01
2.655597031116485596e-01 -2.041628509759902954e-01 3.074519932270050049e-01
2.586699724197387695e-01 -2.040013372898101807e-01 3.248583972454071045e-01
-7.701471913605928421e-03 -6.782823204994201660e-01 3.943041563034057617e-01
-6.412505172193050385e-04 -6.684861779212951660e-01 4.102252423763275146e-01
-1.688303425908088684e-02 -6.627764105796813965e-01 4.091821312904357910e-01
-1.227166317403316498e-02 -6.531608104705810547e-01 4.232085943222045898e-01
-1.058362498879432678e-01 9.513437747955322266e-01 -1.350487470626831055e-01
-9.558738768100738525e-02 9.512314796447753906e-01 -1.142284646630287170e-01
-1.134190633893013000e-01 9.537016153335571289e-01 -1.163051575422286987e-01
-1.039527282118797302e-01 9.539281725883483887e-01 -9.701679646968841553e-02
-8.511509001255035400e-02 7.827218770980834961e-01 1.070435717701911926e-01
-6.743592768907546997e-02 7.812107205390930176e-01 1.184700578451156616e-01
-8.678881078958511353e-02 7.991358041763305664e-01 1.115832775831222534e-01
-6.903515756130218506e-02 8.027667999267578125e-01 1.224680766463279724e-01
3.755442798137664795e-01 -4.324384927749633789e-01 -7.368050515651702881e-02
3.753646910190582275e-01 -4.375579655170440674e-01 -5.133260041475296021e-02
3.729836642742156982e-01 -4.216551482677459717e-01 -5.790723115205764771e-02
3.727781772613525391e-01 -4.272230565547943115e-01 -3.489628806710243225e-02
3.384545743465423584e-01 -6.660488247871398926e-01 -2.882488369941711426e-01
3.431505262851715088e-01 -6.715553402900695801e-01 -2.713371813297271729e-01
3.340881168842315674e-01 -6.524590253829956055e-01 -2.850209176540374756e-01
3.391400277614593506e-01 -6.565374732017517090e-01 -2.679099142551422119e-01
3.360815942287445068e-01 -3.084635436534881592e-01 1.268802136182785034e-01
3.335731923580169678e-01 -3.111366033554077148e-01 1.475317925214767456e-01
3.296627104282379150e-01 -2.944304049015045166e-01 1.440373510122299194e-01
3.271321952342987061e-01 -2.974255383014678955e-01 1.637574583292007446e-01
7.332605868577957153e-02 -5.892501473426818848e-01 -3.403643071651458740e-01
6.218137964606285095e-02 -6.013283133506774902e-01 -3.400376737117767334e-01
5.770161375403404236e-02 -5.737928152084350586e-01 -3.395974934101104736e-01
4.589188843965530396e-02 -5.839403867721557617e-01 -3.381316363811492920e-01
-2.600832581520080566e-01 2.290249615907669067e-01 -6.959989666938781738e-02
-2.645193338394165039e-01 2.196189910173416138e-01 -5.317549407482147217e-02
-2.543125748634338379e-01 2.275306582450866699e-01 -4.099142551422119141e-02
-2.586080431938171387e-01 2.169294506311416626e-01 -2.309061028063297272e-02
8.033876121044158936e-02 -6.867045164108276367e-01 3.816572949290275574e-02
8.452697098255157471e-02 -6.894918084144592285e-01 5.595201253890991211e-02
7.113841921091079712e-02 -6.837297677993774414e-01 5.543892830610275269e-02
7.464385032653808594e-02 -6.869156360626220703e-01 7.313267886638641357e-02
-1.933563649654388428e-01 -5.844388008117675781e-01 3.472921252250671387e-01
-1.812442839145660400e-01 -5.791893601417541504e-01 3.612411320209503174e-01
-2.009129375219345093e-01 -5.680307745933532715e-01 3.558062911033630371e-01
-1.885548532009124756e-01 -5.656163692474365234e-01 3.687868416309356689e-01
2.712185978889465332e-01 -3.436693549156188965e-01 3.281983435153961182e-01
2.638161778450012207e-01 -3.451844453811645508e-01 3.441841304302215576e-01
2.647599875926971436e-01 -3.283680975437164307e-01 3.396728038787841797e-01
2.566090226173400879e-01 -3.294717967510223389e-01 3.553734719753265381e-01
-1.948499977588653564e-01 2.486560046672821045e-01 4.626512061804533005e-03
-2.024510502815246582e-01 2.404212653636932373e-01 2.811900153756141663e-02
-1.938085705041885376e-01 2.585939466953277588e-01 2.305771224200725555e-02
-2.011037021875381470e-01 2.510864734649658203e-01 4.860502853989601135e-02
1.417963057756423950e-01 9.556024670600891113e-01 -2.275639176368713379e-01
1.498637050390243530e-01 9.603846073150634766e-01 -2.096403539180755615e-01
1.311480551958084106e-01 9.630785584449768066e-01 -2.114418298006057739e-01
1.388806104660034180e-01 9.661681652069091797e-01 -1.923315227031707764e-01
2.523929476737976074e-01 2.704026401042938232e-01 -2.196142375469207764e-01
2.538418173789978027e-01 2.685099542140960693e-01 -2.017092853784561157e-01
2.431085705757141113e-01 2.779909670352935791e-01 -2.073486447334289551e-01
2.442390322685241699e-01 2.758935987949371338e-01 -1.884929388761520386e-01
-1.809886656701564789e-02 -4.452483057975769043e-01 4.355208873748779297e-01
-2.430085465312004089e-02 -4.600956141948699951e-01 4.365761876106262207e-01
-2.947364002466201782e-02 -4.306476414203643799e-01 4.335171580314636230e-01
-3.564826399087905884e-02 -4.462494850158691406e-01 4.365570247173309326e-01
-7.843124866485595703e-02 2.876201868057250977e-01 4.179141223430633545e-01
-7.602337002754211426e-02 2.787702977657318115e-01 4.239142537117004395e-01
-8.934039622545242310e-02 3.043832182884216309e-01 4.185620844364166260e-01
-8.193556964397430420e-02 2.952491044998168945e-01 4.266287088394165039e-01
-1.951744109392166138e-01 -2.198792546987533569e-01 -2.912686765193939209e-01
-2.037977725267410278e-01 -2.323372215032577515e-01 -2.881846129894256592e-01
-2.086605429649353027e-01 -2.107090055942535400e-01 -2.904735505580902100e-01
-2.178601622581481934e-01 -2.226982563734054565e-01 -2.866726517677307129e-01
5.814968794584274292e-02 1.859034299850463867e-01 3.199513852596282959e-01
4.916149750351905823e-02 1.909253299236297607e-01 3.307073414325714111e-01
5.151918157935142517e-02 2.031444311141967773e-01 3.263614773750305176e-01
4.705530777573585510e-02 2.104413211345672607e-01 3.387916386127471924e-01
-2.367843985557556152e-01 6.308198571205139160e-01 -1.462329477071762085e-01
-2.327497750520706177e-01 6.302116513252258301e-01 -1.308450698852539062e-01
-2.333021759986877441e-01 6.390987038612365723e-01 -1.330909430980682373e-01
-2.285214364528656006e-01 6.380838751792907715e-01 -1.178144514560699463e-01
-1.194074675440788269e-01 -6.854479908943176270e-01 -2.060268074274063110e-01
-1.135151162743568420e-01 -6.853134036064147949e-01 -1.886281073093414307e-01
-1.300722807645797729e-01 -6.840289235115051270e-01 -1.903346329927444458e-01
-1.240586265921592712e-01 -6.836844682693481445e-01 -1.719476580619812012e-01
7.859485596418380737e-02 -3.714307546615600586e-01 -2.875004410743713379e-01
6.949299573898315430e-02 -3.849408328533172607e-01 -2.881101965904235840e-01
6.891141831874847412e-02 -3.576143980026245117e-01 -2.847447097301483154e-01
5.977116897702217102e-02 -3.714405298233032227e-01 -2.847628891468048096e-01
2.324047684669494629e-01 6.100176572799682617e-01 1.512204557657241821e-01
2.295727878808975220e-01 6.072770953178405762e-01 1.688544154167175293e-01
2.260803878307342529e-01 6.211683750152587891e-01 1.615900695323944092e-01
2.211510539054870605e-01 6.182531714439392090e-01 1.793957352638244629e-01
1.624007970094680786e-01 9.037457704544067383e-01 5.844785645604133606e-02
1.605899333953857422e-01 8.970872163772583008e-01 7.782068103551864624e-02
1.517976075410842896e-01 9.128794670104980469e-01 7.300283014774322510e-02
1.490764021873474121e-01 9.062985777854919434e-01 9.138530492782592773e-02
2.357334345579147339e-01 2.068893164396286011e-01 6.394712626934051514e-02
2.347498238086700439e-01 2.024261802434921265e-01 8.859473466873168945e-02
2.261531651020050049e-01 2.173032909631729126e-01 7.905034720897674561e-02
2.254045456647872925e-01 2.128563374280929565e-01 1.024965867400169373e-01
-2.002037018537521362e-01 -6.810912489891052246e-01 5.108021199703216553e-02
-1.936363875865936279e-01 -6.802898645401000977e-01 6.735461205244064331e-02
-2.069560587406158447e-01 -6.791335940361022949e-01 7.261977344751358032e-02
-2.003857642412185669e-01 -6.788262128829956055e-01 8.914306759834289551e-02
-1.337742358446121216e-01 9.527408480644226074e-01 -2.050587087869644165e-01
-1.309603601694107056e-01 9.505437612533569336e-01 -1.835141181945800781e-01
-1.445924788713455200e-01 9.614157676696777344e-01 -1.886569112539291382e-01
-1.377675384283065796e-01 9.590747356414794922e-01 -1.681331247091293335e-01
2.190110087394714355e-01 4.971564114093780518e-01 -2.654190659523010254e-01
2.174565196037292480e-01 4.850876927375793457e-01 -2.495420277118682861e-01
2.209449112415313721e-01 5.091823339462280273e-01 -2.597463130950927734e-01
2.196897715330123901e-01 4.966311156749725342e-01 -2.445880174636840820e-01
1.040684208273887634e-01 2.991914153099060059e-01 4.254001677036285400e-01
8.979118615388870239e-02 2.937315702438354492e-01 4.303617477416992188e-01
9.750129282474517822e-02 3.150302171707153320e-01 4.325920343399047852e-01
8.375766128301620483e-02 3.077823519706726074e-01 4.367090761661529541e-01
1.672898884862661362e-03 4.328662157058715820e-01 -2.984349429607391357e-01
-7.344726473093032837e-03 4.166284501552581787e-01 -2.892279028892517090e-01
-1.796349883079528809e-02 4.477873742580413818e-01 -2.958058714866638184e-01
-2.608510479331016541e-02 4.333721101284027100e-01 -2.878697216510772705e-01
-2.184887230396270752e-01 -6.840090751647949219e-01 4.204242676496505737e-02
-2.124147564172744751e-01 -6.830160617828369141e-01 5.830048769712448120e-02
-2.258580625057220459e-01 -6.814367175102233887e-01 6.338734179735183716e-02
-2.200084626674652100e-01 -6.806854605674743652e-01 7.981037348508834839e-02
-1.919150054454803467e-01 9.338396787643432617e-01 -1.345625817775726318e-01
-1.946404278278350830e-01 9.269250035285949707e-01 -1.146612018346786499e-01
-1.915373206138610840e-01 9.423944950103759766e-01 -1.189651936292648315e-01
-1.923413872718811035e-01 9.356456398963928223e-01 -1.001466661691665649e-01
1.667094677686691284e-01 -5.604942440986633301e-01 -3.274547755718231201e-01
1.609671115875244141e-01 -5.718156099319458008e-01 -3.279206454753875732e-01
1.518526822328567505e-01 -5.453932881355285645e-01 -3.249637484550476074e-01
1.507049500942230225e-01 -5.542368292808532715e-01 -3.243058025836944580e-01
3.332715332508087158e-01 -3.055237829685211182e-01 -2.249442934989929199e-01
3.467794954776763916e-01 -3.072556257247924805e-01 -2.120598852634429932e-01
3.383461534976959229e-01 -2.903406023979187012e-01 -2.200770080089569092e-01
3.512457907199859619e-01 -2.918599545955657959e-01 -2.061676681041717529e-01
-3.365058898925781250e-01 1.344655007123947144e-01 -2.101421356201171875e-01
-3.387866318225860596e-01 1.319196671247482300e-01 -1.921181678771972656e-01
-3.418977856636047363e-01 1.471181064844131470e-01 -1.978399008512496948e-01
-3.442749679088592529e-01 1.450830698013305664e-01 -1.801557838916778564e-01
-1.881155222654342651e-01 9.248225092887878418e-01 -2.473946958780288696e-01
-1.923529505729675293e-01 9.229936599731445312e-01 -2.317617833614349365e-01
-1.896689832210540771e-01 9.361605048179626465e-01 -2.304141819477081299e-01
-1.937113255262374878e-01 9.341874122619628906e-01 -2.139489054679870605e-01
2.285489588975906372e-01 4.432080686092376709e-01 2.147681713104248047e-01
2.245399355888366699e-01 4.408904910087585449e-01 2.362195849418640137e-01
2.259076535701751709e-01 4.548623561859130859e-01 2.327645272016525269e-01
2.199927419424057007e-01 4.531347751617431641e-01 2.546828389167785645e-01
-3.512122333049774170e-01 -1.363449841737747192e-01 -2.699052989482879639e-01
-3.583654463291168213e-01 -1.390987783670425415e-01 -2.507421672344207764e-01
-3.599551320075988770e-01 -1.234177723526954651e-01 -2.551968097686767578e-01
-3.655900657176971436e-01 -1.246067360043525696e-01 -2.354055941104888916e-01
3.747516572475433350e-01 -4.000638425350189209e-01 3.880638629198074341e-02
3.713286817073822021e-01 -4.032093584537506104e-01 6.338448822498321533e-02
3.699392378330230713e-01 -3.877858817577362061e-01 5.263086780905723572e-02
3.655070960521697998e-01 -3.902454972267150879e-01 7.799866050481796265e-02
-2.593854907900094986e-03 6.764785945415496826e-02 -3.045995533466339111e-01
-1.168901100754737854e-02 5.403931438922882080e-02 -3.047545850276947021e-01
-1.575285941362380981e-02 8.306849002838134766e-02 -3.024733662605285645e-01
-2.468041889369487762e-02 6.945484131574630737e-02 -3.028208911418914795e-01
2.179386913776397705e-01 8.417496085166931152e-01 -2.160210758447647095e-01
2.196539640426635742e-01 8.408332467079162598e-01 -1.954604685306549072e-01
2.167494595050811768e-01 8.582498431205749512e-01 -2.023637294769287109e-01
2.162628024816513062e-01 8.547056913375854492e-01 -1.817667335271835327e-01
3.400698006153106689e-01 6.141343340277671814e-02 -1.905097961425781250e-01
3.392789065837860107e-01 5.837049335241317749e-02 -1.689068377017974854e-01
3.386510610580444336e-01 7.349982857704162598e-02 -1.784092336893081665e-01
3.370741009712219238e-01 7.023462653160095215e-02 -1.563391983509063721e-01
-2.234623208642005920e-02 -6.871194839477539062e-01 -1.405091434717178345e-01
-1.348243094980716705e-02 -6.854903101921081543e-01 -1.206920817494392395e-01
-2.907182648777961731e-02 -6.823417544364929199e-01 -1.195657029747962952e-01
-2.056270465254783630e-02 -6.810130476951599121e-01 -1.009568646550178528e-01
3.245000541210174561e-01 -5.254787206649780273e-02 -2.652562260627746582e-01
3.387202620506286621e-01 -5.300503969192504883e-02 -2.508535087108612061e-01
3.269175887107849121e-01 -3.244493529200553894e-02 -2.618182599544525146e-01
3.373897373676300049e-01 -3.387633711099624634e-02 -2.448850274085998535e-01
-1.325572282075881958e-02 -2.674106657505035400e-01 -2.840715646743774414e-01
-2.132222801446914673e-02 -2.807231843471527100e-01 -2.836512327194213867e-01
-1.928807608783245087e-02 -2.518309354782104492e-01 -2.853242158889770508e-01
-2.693757787346839905e-02 -2.650132775306701660e-01 -2.843219041824340820e-01
-1.361193656921386719e-01 -1.631994247436523438e-01 -2.984802126884460449e-01
-1.461731344461441040e-01 -1.781141459941864014e-01 -2.953146100044250488e-01
-1.460939496755599976e-01 -1.472166776657104492e-01 -2.977010011672973633e-01
-1.566974073648452759e-01 -1.634876281023025513e-01 -2.936291694641113281e-01
3.304270207881927490e-01 -3.967345654964447021e-01 2.042035907506942749e-01
3.245104253292083740e-01 -4.013610184192657471e-01 2.273221909999847412e-01
3.242960572242736816e-01 -3.839639425277709961e-01 2.220867872238159180e-01
3.168885707855224609e-01 -3.879624009132385254e-01 2.449566423892974854e-01
3.380742967128753662e-01 8.165881782770156860e-02 -2.185364067554473877e-01
3.400154709815979004e-01 7.687521725893020630e-02 -1.978936493396759033e-01
3.368256986141204834e-01 9.222602099180221558e-02 -2.075164169073104858e-01
3.367612361907958984e-01 8.808628469705581665e-02 -1.865539401769638062e-01
-2.269583344459533691e-01 -6.806217432022094727e-01 -3.528925776481628418e-01
-2.370341271162033081e-01 -6.884600520133972168e-01 -3.302801549434661865e-01
-2.443365007638931274e-01 -6.747627258300781250e-01 -3.450523018836975098e-01
-2.517083883285522461e-01 -6.818544268608093262e-01 -3.215760588645935059e-01
-1.234184205532073975e-01 1.123201698064804077e-01 -3.079378902912139893e-01
-1.346576511859893799e-01 9.540847688913345337e-02 -3.067779839038848877e-01
-1.375536620616912842e-01 1.280438601970672607e-01 -3.044933378696441650e-01
-1.492715924978256226e-01 1.107493415474891663e-01 -3.032625913619995117e-01
-2.731586098670959473e-01 -6.980622410774230957e-01 4.368259571492671967e-03
-2.674214541912078857e-01 -6.966786980628967285e-01 2.193732187151908875e-02
-2.818652391433715820e-01 -6.951903700828552246e-01 2.073009312152862549e-02
-2.771916091442108154e-01 -6.941481828689575195e-01 3.817850723862648010e-02
-3.055429458618164062e-01 -3.211999535560607910e-01 -2.643887996673583984e-01
-3.178313970565795898e-01 -3.272868394851684570e-01 -2.531499266624450684e-01
-3.208823502063751221e-01 -3.070201277732849121e-01 -2.587852776050567627e-01
-3.312947452068328857e-01 -3.124738335609436035e-01 -2.447027862071990967e-01
-1.128494292497634888e-01 7.898856997489929199e-01 -2.822791039943695068e-01
-1.275137811899185181e-01 7.807053923606872559e-01 -2.772035300731658936e-01
-1.237504184246063232e-01 8.003798127174377441e-01 -2.783032953739166260e-01
-1.382467448711395264e-01 7.915329933166503906e-01 -2.745410799980163574e-01
3.123205304145812988e-01 3.288717940449714661e-02 -3.684218600392341614e-02
3.093801438808441162e-01 3.132582455873489380e-02 -1.611117087304592133e-02
3.099023699760437012e-01 5.061064288020133972e-02 -2.872205898165702820e-02
3.067186176776885986e-01 4.901190847158432007e-02 -7.470181211829185486e-03
-1.917563974857330322e-01 -6.996061205863952637e-01 -3.125097155570983887e-01
-1.897921562194824219e-01 -7.003437876701354980e-01 -2.939864397048950195e-01
-2.060625702142715454e-01 -6.980423927307128906e-01 -2.979405224323272705e-01
-2.042080163955688477e-01 -6.981828808784484863e-01 -2.785052657127380371e-01
-8.449684828519821167e-02 6.991541385650634766e-01 -2.847383320331573486e-01
-9.480656683444976807e-02 6.886359453201293945e-01 -2.837017476558685303e-01
-9.225429594516754150e-02 7.128195762634277344e-01 -2.812407910823822021e-01
-1.030477061867713928e-01 7.028758525848388672e-01 -2.798495590686798096e-01
-3.376736342906951904e-01 4.079886525869369507e-02 -2.632347345352172852e-01
-3.416238427162170410e-01 3.636041656136512756e-02 -2.434119433164596558e-01
-3.429449200630187988e-01 5.621951445937156677e-02 -2.515583932399749756e-01
-3.460321426391601562e-01 5.121232569217681885e-02 -2.307033091783523560e-01
2.093118578195571899e-01 2.389900386333465576e-01 8.988729864358901978e-02
2.084826231002807617e-01 2.351733297109603882e-01 1.112226843833923340e-01
2.056786268949508667e-01 2.561254203319549561e-01 1.099219471216201782e-01
2.038450539112091064e-01 2.530872821807861328e-01 1.288947761058807373e-01
3.019423782825469971e-01 -4.487975835800170898e-01 2.556158900260925293e-01
2.959010601043701172e-01 -4.500248432159423828e-01 2.759889960289001465e-01
2.970568239688873291e-01 -4.342624545097351074e-01 2.739672958850860596e-01
2.899282276630401611e-01 -4.359376430511474609e-01 2.935447394847869873e-01
3.548009693622589111e-01 -2.088503241539001465e-01 -1.556593030691146851e-01
3.550977408885955811e-01 -2.131167948246002197e-01 -1.342014521360397339e-01
3.530901074409484863e-01 -1.962726116180419922e-01 -1.406623870134353638e-01
3.523152768611907959e-01 -2.006828188896179199e-01 -1.185416132211685181e-01
-4.355018213391304016e-02 -6.860537528991699219e-01 2.569085955619812012e-01
-3.886601701378822327e-02 -6.848492026329040527e-01 2.761085927486419678e-01
-5.433573946356773376e-02 -6.842539906501770020e-01 2.764662504196166992e-01
-5.035539343953132629e-02 -6.829248666763305664e-01 2.951898574829101562e-01
-3.350994586944580078e-01 -6.998679041862487793e-01 -2.139534354209899902e-01
-3.356890678405761719e-01 -7.010437846183776855e-01 -1.956962943077087402e-01
-3.435297608375549316e-01 -6.909110546112060547e-01 -2.028951495885848999e-01
-3.442701697349548340e-01 -6.919319033622741699e-01 -1.843359917402267456e-01
1.268299669027328491e-01 -6.839886307716369629e-01 1.296835988759994507e-01
1.363290250301361084e-01 -6.841466426849365234e-01 1.458826661109924316e-01
1.144266501069068909e-01 -6.843680143356323242e-01 1.474692225456237793e-01
1.250108033418655396e-01 -6.849715709686279297e-01 1.646815687417984009e-01
-7.117512077093124390e-02 8.953657150268554688e-01 -2.794529795646667480e-01
-9.163369983434677124e-02 8.925458192825317383e-01 -2.768333554267883301e-01
-7.616588473320007324e-02 9.139248132705688477e-01 -2.739855647087097168e-01
-9.709931910037994385e-02 9.130701422691345215e-01 -2.707747220993041992e-01
-3.502949178218841553e-01 -3.804731667041778564e-01 1.078162863850593567e-01
-3.477509319782257080e-01 -3.866853713989257812e-01 1.284400373697280884e-01
-3.501232266426086426e-01 -3.684927523136138916e-01 1.218779534101486206e-01
-3.476034998893737793e-01 -3.750690519809722900e-01 1.418076157569885254e-01
3.260008990764617920e-01 -5.569654107093811035e-01 8.314422518014907837e-02
3.233507275581359863e-01 -5.582039356231689453e-01 9.758885949850082397e-02
3.273273110389709473e-01 -5.481647253036499023e-01 9.665099531412124634e-02
3.246802389621734619e-01 -5.492936372756958008e-01 1.105495691299438477e-01
2.475395798683166504e-01 2.367258816957473755e-01 -6.552643328905105591e-02
2.467783987522125244e-01 2.344152033329010010e-01 -4.566860198974609375e-02
2.353800386190414429e-01 2.459370493888854980e-01 -5.254884809255599976e-02
2.343469411134719849e-01 2.434132397174835205e-01 -3.190570324659347534e-02
2.314938008785247803e-01 -6.667438149452209473e-01 2.629827857017517090e-01
2.255617976188659668e-01 -6.686640977859497070e-01 2.819610238075256348e-01
2.262192070484161377e-01 -6.520075201988220215e-01 2.803559601306915283e-01
2.189704477787017822e-01 -6.538522839546203613e-01 2.993299663066864014e-01
2.775479853153228760e-01 -6.875269412994384766e-01 -6.559531390666961670e-02
2.866739332675933838e-01 -6.864134669303894043e-01 -4.845875874161720276e-02
2.727457880973815918e-01 -6.852158308029174805e-01 -4.455649480223655701e-02
2.819208800792694092e-01 -6.838901638984680176e-01 -2.647986076772212982e-02
3.491798341274261475e-01 -6.078859567642211914e-01 -2.563769519329071045e-01
3.539932966232299805e-01 -6.091674566268920898e-01 -2.401040196418762207e-01
3.500183522701263428e-01 -5.954443812370300293e-01 -2.441501021385192871e-01
3.546579480171203613e-01 -5.972418785095214844e-01 -2.274734228849411011e-01
1.638260930776596069e-01 -6.842115521430969238e-01 2.148337513208389282e-01
1.692832261323928833e-01 -6.843397021293640137e-01 2.304543405771255493e-01
1.560751646757125854e-01 -6.811974048614501953e-01 2.293574512004852295e-01
1.617911905050277710e-01 -6.815476417541503906e-01 2.448888719081878662e-01
-1.695447266101837158e-01 2.397458255290985107e-01 2.327929735183715820e-01
-1.679016500711441040e-01 2.379672974348068237e-01 2.520328760147094727e-01
-1.744744777679443359e-01 2.526702582836151123e-01 2.482250630855560303e-01
-1.737428009510040283e-01 2.511661052703857422e-01 2.667835652828216553e-01
2.194069027900695801e-01 3.581573069095611572e-01 1.179206967353820801e-01
2.177827060222625732e-01 3.553183078765869141e-01 1.347789913415908813e-01
2.161558717489242554e-01 3.672375977039337158e-01 1.322127729654312134e-01
2.138807922601699829e-01 3.650131523609161377e-01 1.495269536972045898e-01
2.774700224399566650e-01 -6.942685842514038086e-01 -1.850910931825637817e-01
2.861039340496063232e-01 -6.926245689392089844e-01 -1.661221086978912354e-01
2.691807746887207031e-01 -6.936162114143371582e-01 -1.655368506908416748e-01
2.777390182018280029e-01 -6.915234923362731934e-01 -1.469579339027404785e-01
2.089278101921081543e-01 4.465845525264739990e-01 -1.841793060302734375e-01
2.064120024442672729e-01 4.419419765472412109e-01 -1.671295315027236938e-01
2.095208019018173218e-01 4.543187022209167480e-01 -1.724448949098587036e-01
2.072875648736953735e-01 4.507598280906677246e-01 -1.553806066513061523e-01
-1.501083225011825562e-01 -6.965993046760559082e-01 -1.199001371860504150e-01
-1.409596800804138184e-01 -6.958910226821899414e-01 -9.886500984430313110e-02
-1.576243788003921509e-01 -6.905071735382080078e-01 -1.082875058054924011e-01
-1.487391293048858643e-01 -6.901298165321350098e-01 -8.819425851106643677e-02
1.767927855253219604e-01 -1.291351020336151123e-01 3.569897413253784180e-01
1.636371016502380371e-01 -1.323459446430206299e-01 3.672914505004882812e-01
1.647273600101470947e-01 -1.170489042997360229e-01 3.634868264198303223e-01
1.517165303230285645e-01 -1.205308958888053894e-01 3.742013573646545410e-01
-5.971523746848106384e-02 2.091055363416671753e-01 3.571937978267669678e-01
-5.200755968689918518e-02 2.176070809364318848e-01 3.727249503135681152e-01
-6.450647115707397461e-02 2.229135930538177490e-01 3.739360868930816650e-01
-5.648851767182350159e-02 2.299139052629470825e-01 3.894029557704925537e-01
2.177911400794982910e-01 5.343341082334518433e-02 2.682087719440460205e-01
2.098299562931060791e-01 4.850444197654724121e-02 2.848848700523376465e-01
2.068814784288406372e-01 6.731820106506347656e-02 2.777765691280364990e-01
1.973574608564376831e-01 6.227870285511016846e-02 2.944250404834747314e-01
3.653063178062438965e-01 -3.007100522518157959e-01 -3.871645033359527588e-02
3.633405864238739014e-01 -3.042353093624114990e-01 -1.875062286853790283e-02
3.600046336650848389e-01 -2.875466942787170410e-01 -2.694562450051307678e-02
3.576570451259613037e-01 -2.904487550258636475e-01 -6.826442666351795197e-03
3.183129727840423584e-01 3.712391108274459839e-02 -2.738396525382995605e-01
3.312918245792388916e-01 3.513308614492416382e-02 -2.598189711570739746e-01
3.213069438934326172e-01 5.225169658660888672e-02 -2.674807906150817871e-01
3.328117728233337402e-01 5.098653212189674377e-02 -2.522426545619964600e-01
-2.462595254182815552e-01 5.653442144393920898e-01 -1.776038110256195068e-01
-2.464228272438049316e-01 5.641945004463195801e-01 -1.561665534973144531e-01
-2.479509264230728149e-01 5.796437859535217285e-01 -1.655964106321334839e-01
-2.478752434253692627e-01 5.783107280731201172e-01 -1.444077193737030029e-01
-2.336665093898773193e-01 -3.314339816570281982e-01 3.356651663780212402e-01
-2.234308123588562012e-01 -3.312506973743438721e-01 3.517042994499206543e-01
-2.297596335411071777e-01 -3.156726360321044922e-01 3.433051109313964844e-01
-2.197958976030349731e-01 -3.160221576690673828e-01 3.580710589885711670e-01
-2.132951468229293823e-01 5.282502770423889160e-01 6.859257351607084274e-03
-2.172830253839492798e-01 5.254174470901489258e-01 3.150494024157524109e-02
-2.157050222158432007e-01 5.454965233802795410e-01 1.865394599735736847e-02
-2.188111841678619385e-01 5.436580777168273926e-01 4.213874787092208862e-02
-6.855706125497817993e-02 -1.076456010341644287e-01 -3.049033582210540771e-01
-8.003936707973480225e-02 -1.240938752889633179e-01 -3.033347725868225098e-01
-7.809151709079742432e-02 -9.187553077936172485e-02 -3.026483952999114990e-01
-8.939167857170104980e-02 -1.076308488845825195e-01 -3.011351227760314941e-01
3.061029314994812012e-01 -2.112066894769668579e-01 1.730773597955703735e-01
3.035719096660614014e-01 -2.145843952894210815e-01 1.930453479290008545e-01
3.019085526466369629e-01 -1.971227824687957764e-01 1.910169273614883423e-01
2.989181876182556152e-01 -1.995533704757690430e-01 2.123036682605743408e-01
1.152800396084785461e-01 1.061354279518127441e-01 -2.972176373004913330e-01
1.072781533002853394e-01 9.441429376602172852e-02 -2.966149151325225830e-01
1.001442372798919678e-01 1.151891127228736877e-01 -2.968942224979400635e-01
9.225777536630630493e-02 1.033698692917823792e-01 -2.955151796340942383e-01
1.151733994483947754e-01 -5.147942528128623962e-02 3.539990484714508057e-01
1.010598614811897278e-01 -6.043965369462966919e-02 3.623687922954559326e-01
1.016756072640419006e-01 -3.451045602560043335e-02 3.565512895584106445e-01
8.791732043027877808e-02 -4.546562954783439636e-02 3.637521266937255859e-01
3.401650190353393555e-01 -6.807674765586853027e-01 -2.189439982175827026e-01
3.479733765125274658e-01 -6.845998167991638184e-01 -1.992763429880142212e-01
3.415344059467315674e-01 -6.744381785392761230e-01 -2.025041580200195312e-01
3.495233952999114990e-01 -6.776139736175537109e-01 -1.825436055660247803e-01
-3.558508455753326416e-01 -3.541290462017059326e-01 9.064500033855438232e-02
-3.546630442142486572e-01 -3.605916798114776611e-01 1.112854629755020142e-01
-3.538310825824737549e-01 -3.404932320117950439e-01 1.079292967915534973e-01
-3.531248867511749268e-01 -3.473943173885345459e-01 1.282199323177337646e-01
-1.022169813513755798e-01 -2.197010815143585205e-01 -2.972643971443176270e-01
-1.107856854796409607e-01 -2.326306104660034180e-01 -2.969223260879516602e-01
-1.151245236396789551e-01 -2.080404609441757202e-01 -2.968627512454986572e-01
-1.239959523081779480e-01 -2.210289239883422852e-01 -2.959530651569366455e-01
-2.276954799890518188e-01 5.331968665122985840e-01 -2.922153770923614502e-01
-2.356036156415939331e-01 5.258386135101318359e-01 -2.757014036178588867e-01
-2.321008741855621338e-01 5.459979772567749023e-01 -2.778984606266021729e-01
-2.386161386966705322e-01 5.392677783966064453e-01 -2.609030604362487793e-01
1.940365731716156006e-01 -5.865616798400878906e-01 -3.301204741001129150e-01
1.914037317037582397e-01 -5.953010320663452148e-01 -3.292768001556396484e-01
1.845887452363967896e-01 -5.711506605148315430e-01 -3.274280726909637451e-01
1.830153018236160278e-01 -5.795688033103942871e-01 -3.265589177608489990e-01
-1.897455155849456787e-01 -6.902084350585937500e-01 2.773708403110504150e-01
-1.856399923563003540e-01 -6.868785619735717773e-01 2.966013848781585693e-01
-1.984824836254119873e-01 -6.811677813529968262e-01 2.916052341461181641e-01
-1.933684200048446655e-01 -6.781294941902160645e-01 3.110288679599761963e-01
-1.700549423694610596e-01 5.418416261672973633e-01 2.547007501125335693e-01
-1.663814336061477661e-01 5.351638197898864746e-01 2.723164260387420654e-01
-1.614770442247390747e-01 5.497555136680603027e-01 2.672317326068878174e-01
-1.558420956134796143e-01 5.419703125953674316e-01 2.861312329769134521e-01
-1.307105422019958496e-01 -6.872876286506652832e-01 2.309180349111557007e-01
-1.251725405454635620e-01 -6.855198740959167480e-01 2.532780468463897705e-01
-1.419037133455276489e-01 -6.835651993751525879e-01 2.427121400833129883e-01
-1.363709867000579834e-01 -6.813337206840515137e-01 2.640300691127777100e-01
5.204502493143081665e-02 -3.736783564090728760e-01 4.281744658946990967e-01
4.171635210514068604e-02 -3.855419754981994629e-01 4.304491281509399414e-01
4.223599284887313843e-02 -3.597712218761444092e-01 4.286825060844421387e-01
3.195284307003021240e-02 -3.713746964931488037e-01 4.311508238315582275e-01
-3.307701647281646729e-01 -4.531844258308410645e-01 1.693815588951110840e-01
-3.248886168003082275e-01 -4.575572311878204346e-01 1.908663213253021240e-01
-3.365098834037780762e-01 -4.372251927852630615e-01 1.814146488904953003e-01
-3.299539089202880859e-01 -4.415372014045715332e-01 2.030297517776489258e-01
-1.735759526491165161e-01 2.902396917343139648e-01 3.293240964412689209e-01
-1.670316159725189209e-01 2.919882535934448242e-01 3.488998115062713623e-01
-1.714458018541336060e-01 3.078651130199432373e-01 3.376105129718780518e-01
-1.625911593437194824e-01 3.098187744617462158e-01 3.564727008342742920e-01
1.330951452255249023e-01 5.693801045417785645e-01 3.327309787273406982e-01
1.276773512363433838e-01 5.630469322204589844e-01 3.554338812828063965e-01
1.206114888191223145e-01 5.858091711997985840e-01 3.463810086250305176e-01
1.148050352931022644e-01 5.806773900985717773e-01 3.682129681110382080e-01
3.719837963581085205e-01 -4.509215950965881348e-01 2.446262538433074951e-02
3.676893711090087891e-01 -4.533749222755432129e-01 4.609239101409912109e-02
3.718842267990112305e-01 -4.389591515064239502e-01 4.007212817668914795e-02
3.671523332595825195e-01 -4.417512118816375732e-01 6.408542394638061523e-02
-1.622534096240997314e-01 1.000714376568794250e-01 2.881226837635040283e-01
-1.507031321525573730e-01 9.623609483242034912e-02 2.968305945396423340e-01
-1.682308912277221680e-01 1.163543835282325745e-01 2.828668653964996338e-01
-1.560739576816558838e-01 1.123648211359977722e-01 2.924074232578277588e-01
-3.220702111721038818e-01 -5.234548449516296387e-01 1.792516857385635376e-01
-3.150030970573425293e-01 -5.252904295921325684e-01 2.000782787799835205e-01
-3.205118775367736816e-01 -5.066365599632263184e-01 1.946140676736831665e-01
-3.132019639015197754e-01 -5.091021060943603516e-01 2.158618718385696411e-01
-1.459022164344787598e-01 6.091681718826293945e-01 2.066102027893066406e-01
-1.465137898921966553e-01 5.973901748657226562e-01 2.257875502109527588e-01
-1.471760720014572144e-01 6.216676235198974609e-01 2.017036080360412598e-01
-1.460545361042022705e-01 6.114658117294311523e-01 2.204183340072631836e-01
2.537425458431243896e-01 2.261462435126304626e-02 -2.854210138320922852e-01
2.472426295280456543e-01 2.646921202540397644e-03 -2.840553522109985352e-01
2.477248460054397583e-01 4.315861687064170837e-02 -2.868547439575195312e-01
2.394637614488601685e-01 2.364959195256233215e-02 -2.865489423274993896e-01
-3.522042036056518555e-01 -1.307163834571838379e-01 -2.291959822177886963e-01
-3.560026586055755615e-01 -1.303988397121429443e-01 -2.072473466396331787e-01
-3.597728312015533447e-01 -1.178596839308738708e-01 -2.171495556831359863e-01
-3.625785112380981445e-01 -1.169321462512016296e-01 -1.934959143400192261e-01
-2.871005795896053314e-02 6.836713850498199463e-02 3.340041935443878174e-01
-3.426877409219741821e-02 5.428588017821311951e-02 3.382433652877807617e-01
-4.460161179304122925e-02 7.997010648250579834e-02 3.291897475719451904e-01
-5.036354437470436096e-02 6.643912941217422485e-02 3.332742452621459961e-01
2.662644982337951660e-01 6.544376611709594727e-01 -1.778044253587722778e-01
2.642133533954620361e-01 6.523433923721313477e-01 -1.582725942134857178e-01
2.640936672687530518e-01 6.710838079452514648e-01 -1.621272414922714233e-01
2.612715363502502441e-01 6.697718501091003418e-01 -1.421607732772827148e-01
1.259693950414657593e-01 -6.877462863922119141e-01 2.820078134536743164e-01
1.327733844518661499e-01 -6.856331229209899902e-01 2.998666465282440186e-01
1.182292699813842773e-01 -6.831356883049011230e-01 3.003187477588653564e-01
1.246434375643730164e-01 -6.809372305870056152e-01 3.188327848911285400e-01
-1.554670631885528564e-01 9.564253687858581543e-01 -2.441520839929580688e-01
-1.609925478696823120e-01 9.547387361526489258e-01 -2.249912917613983154e-01
-1.594585478305816650e-01 9.691485166549682617e-01 -2.286127060651779175e-01
-1.640162765979766846e-01 9.672980904579162598e-01 -2.084196656942367554e-01
-1.564853042364120483e-01 -6.975186467170715332e-01 -2.944351136684417725e-01
-1.518107056617736816e-01 -6.971757411956787109e-01 -2.771051228046417236e-01
-1.676329970359802246e-01 -6.964967846870422363e-01 -2.780774533748626709e-01
-1.625944525003433228e-01 -6.954165101051330566e-01 -2.602233886718750000e-01
1.663675308227539062e-01 7.983103990554809570e-01 8.746843785047531128e-02
1.539641469717025757e-01 7.929175496101379395e-01 1.037112101912498474e-01
1.534797996282577515e-01 8.114572167396545410e-01 9.272175282239913940e-02
1.403682082891464233e-01 8.064711689949035645e-01 1.071392819285392761e-01
1.016239747405052185e-01 -6.292098164558410645e-01 -3.552669286727905273e-01
9.192007780075073242e-02 -6.406104564666748047e-01 -3.492997586727142334e-01
8.227179944515228271e-02 -6.203615665435791016e-01 -3.564086854457855225e-01
7.175018638372421265e-02 -6.312143206596374512e-01 -3.496689796447753906e-01
-4.452254250645637512e-02 4.332894682884216309e-01 4.025127291679382324e-01
-4.555020481348037720e-02 4.158177673816680908e-01 4.116782248020172119e-01
-5.972355976700782776e-02 4.441949427127838135e-01 3.948510289192199707e-01
-6.158921495079994202e-02 4.260887205600738525e-01 4.042158722877502441e-01
1.616216450929641724e-01 5.661605000495910645e-01 -2.832005918025970459e-01
1.539056897163391113e-01 5.500360131263732910e-01 -2.802414894104003906e-01
1.485592275857925415e-01 5.790777802467346191e-01 -2.819368541240692139e-01
1.423861682415008545e-01 5.641044974327087402e-01 -2.796390056610107422e-01
-2.063921540975570679e-01 7.929816246032714844e-01 -2.411278150975704193e-02
-2.076151072978973389e-01 7.919725775718688965e-01 -9.986013174057006836e-04
-2.097580879926681519e-01 8.067967295646667480e-01 -1.077754795551300049e-02
-2.100202292203903198e-01 8.063699007034301758e-01 1.304014399647712708e-02
6.536112725734710693e-02 -6.905591487884521484e-01 -2.396193295717239380e-01
7.392524182796478271e-02 -6.907266974449157715e-01 -2.146183550357818604e-01
5.669195577502250671e-02 -6.874943971633911133e-01 -2.197062075138092041e-01
6.635853648185729980e-02 -6.880636215209960938e-01 -1.943037956953048706e-01
3.029516637325286865e-01 -6.867378950119018555e-01 -6.102105602622032166e-02
3.093354701995849609e-01 -6.868069767951965332e-01 -4.471002519130706787e-02
2.963099479675292969e-01 -6.852874755859375000e-01 -4.039675742387771606e-02
3.044261336326599121e-01 -6.847748160362243652e-01 -2.331219986081123352e-02
-3.382407426834106445e-01 -1.689665466547012329e-01 -2.878834307193756104e-01
-3.468467891216278076e-01 -1.739944219589233398e-01 -2.676464319229125977e-01
-3.505192101001739502e-01 -1.593245416879653931e-01 -2.681946158409118652e-01
-3.562077283859252930e-01 -1.615296155214309692e-01 -2.477425485849380493e-01
4.027955979108810425e-02 -6.881447434425354004e-01 -2.267901003360748291e-01
5.010791867971420288e-02 -6.887838840484619141e-01 -2.007078528404235840e-01
2.591824159026145935e-02 -6.877479553222656250e-01 -2.077116072177886963e-01
3.611533716320991516e-02 -6.876990795135498047e-01 -1.820842325687408447e-01
2.292108535766601562e-02 3.121991157531738281e-01 4.377520382404327393e-01
1.384503021836280823e-02 3.013755679130554199e-01 4.387754797935485840e-01
