4.632200000000000206e-02 -6.900439999999999907e-01 1.753689999999999971e-01
-1.138679999999999970e-01 -6.933200000000000474e-01 -2.658690000000000220e-01
3.651320000000000121e-01 -4.928859999999999908e-01 -2.306599999999999970e-02
3.122139999999999915e-01 1.614289999999999892e-01 -1.041399999999999965e-02
2.738349999999999951e-01 -1.945060000000000122e-01 3.028140000000000276e-01
-3.298360000000000181e-01 -5.319220000000000059e-01 1.770049999999999957e-01
-1.458589999999999887e-01 8.692389999999999839e-01 -2.739320000000000088e-01
-3.511290000000000244e-01 -6.086899999999999950e-02 -2.292889999999999928e-01
-2.471820000000000128e-01 -6.561489999999999823e-01 2.806359999999999966e-01
2.237210000000000032e-01 7.033749999999999725e-01 -8.517800000000000371e-02
-2.489059999999999884e-01 7.796920000000000517e-01 -2.287730000000000041e-01
1.050399999999999945e-01 -4.585500000000000131e-01 4.316880000000000162e-01
-2.427050000000000041e-01 6.999959999999999516e-01 -1.483319999999999916e-01
-7.434999999999999942e-02 -3.493899999999999784e-01 4.370209999999999928e-01
-2.933999999999999976e-03 3.441730000000000067e-01 -2.947949999999999737e-01
4.057499999999999996e-02 8.789829999999999588e-01 1.655580000000000107e-01
-7.008599999999999552e-02 8.367820000000000258e-01 1.406530000000000002e-01
-3.571340000000000070e-01 -6.663679999999999604e-01 -8.501599999999999435e-02
2.080780000000000129e-01 3.002110000000000056e-01 -1.597510000000000041e-01
2.295709999999999973e-01 6.249050000000000438e-01 3.924999999999999670e-03
1.618100000000000094e-02 9.334780000000000300e-01 -2.701740000000000252e-01
2.195999999999999897e-01 8.183390000000000386e-01 -2.202099999999999891e-02
1.714000000000000029e-03 9.546609999999999818e-01 2.958799999999999972e-02
-7.511900000000000521e-02 9.503620000000000401e-01 -5.585799999999999793e-02
-2.097759999999999903e-01 5.149749999999999606e-01 1.766310000000000102e-01
3.069379999999999886e-01 -2.864090000000000247e-01 1.893040000000000000e-01
-3.529149999999999787e-01 -5.720079999999999609e-01 -2.082440000000000124e-01
-2.911549999999999971e-01 -6.580070000000000086e-01 2.054159999999999875e-01
2.177099999999999869e-02 9.586120000000000196e-01 -1.833699999999999913e-02
-6.734300000000000008e-02 2.413180000000000047e-01 -3.024819999999999731e-01
3.409690000000000221e-01 1.162400000000000065e-02 -1.337810000000000110e-01
1.734390000000000098e-01 -6.858769999999999589e-01 2.784929999999999906e-01
1.415059999999999929e-01 -6.777159999999999851e-01 -2.063309999999999866e-01
1.293469999999999898e-01 5.492860000000000520e-01 -2.826919999999999988e-01
-8.696500000000000064e-02 9.571220000000000283e-01 -2.419590000000000074e-01
2.275530000000000053e-01 4.993079999999999741e-01 1.998709999999999931e-01
5.009399999999999964e-02 -2.152290000000000036e-01 4.159070000000000267e-01
-2.974319999999999742e-01 -1.714050000000000018e-01 -2.896759999999999891e-01
-1.346060000000000034e-01 -7.823700000000000099e-02 3.504320000000000213e-01
-2.250890000000000113e-01 -9.889499999999999680e-02 -2.967440000000000078e-01
-7.791099999999999415e-02 8.293679999999999941e-01 1.343719999999999914e-01
-3.199300000000000060e-02 6.663059999999999539e-01 3.135910000000000086e-01
-3.503649999999999820e-01 -4.240000000000000019e-02 -2.097710000000000130e-01
5.418200000000000099e-02 5.381890000000000285e-01 -2.887839999999999852e-01
-4.552699999999999803e-02 4.991499999999999826e-01 3.449929999999999941e-01
-1.977540000000000131e-01 3.236029999999999740e-01 -1.987389999999999990e-01
-5.391900000000000165e-02 3.831640000000000046e-01 -2.954430000000000112e-01
2.283999999999999919e-01 2.873180000000000178e-01 -2.812259999999999760e-01
-1.955099999999999894e-01 8.998580000000000467e-01 -2.385480000000000100e-01
-2.498680000000000068e-01 6.667309999999999626e-01 -2.665580000000000171e-01
-3.070039999999999991e-01 1.069790000000000046e-01 -4.610100000000000309e-02
-2.298169999999999935e-01 -2.715290000000000203e-01 -2.814019999999999855e-01
2.211579999999999935e-01 7.004310000000000258e-01 9.808500000000000552e-02
1.958499999999999963e-01 -6.969000000000000195e-02 3.338519999999999821e-01
2.438210000000000099e-01 2.214939999999999964e-01 2.428100000000000050e-02
7.546799999999999342e-02 -1.906499999999999861e-01 4.066400000000000015e-01
-3.784540000000000126e-01 -4.244589999999999752e-01 -4.194799999999999918e-02
2.240709999999999924e-01 7.223739999999999606e-01 -9.563299999999999579e-02
2.284690000000000054e-01 6.636919999999999487e-01 -3.742000000000000100e-03
2.238090000000000079e-01 -9.265999999999999931e-03 -2.875929999999999875e-01
1.241929999999999978e-01 5.576400000000000107e-02 -2.969249999999999945e-01
-2.539830000000000143e-01 -6.965639999999999610e-01 -1.782870000000000010e-01
-2.058669999999999944e-01 3.649930000000000119e-01 -8.566799999999999415e-02
-1.483349999999999946e-01 -6.792700000000000404e-01 3.507339999999999902e-01
6.326700000000000379e-02 5.086640000000000050e-01 -2.883919999999999817e-01
3.563709999999999933e-01 -3.885520000000000085e-01 1.269299999999999873e-01
3.369679999999999898e-01 -5.066899999999999876e-02 -3.396500000000000213e-02
-3.269719999999999849e-01 8.695600000000000551e-02 -7.178500000000000159e-02
3.363720000000000043e-01 7.419000000000000247e-03 -2.165140000000000120e-01
2.386600000000000110e-01 2.786919999999999953e-01 -2.148770000000000124e-01
-1.790660000000000029e-01 -6.832070000000000087e-01 2.233980000000000132e-01
-2.459929999999999894e-01 6.047470000000000345e-01 -2.738760000000000083e-01
3.683170000000000055e-01 -3.465650000000000119e-01 5.077399999999999969e-02
1.393399999999999916e-01 8.653220000000000356e-01 1.223149999999999932e-01
1.819649999999999879e-01 9.554470000000000462e-01 -2.053149999999999975e-01
2.275129999999999930e-01 7.090640000000000276e-01 5.543900000000000217e-02
2.260149999999999937e-01 5.136129999999999862e-01 -1.437500000000000062e-02
-3.574570000000000247e-01 -3.102820000000000022e-01 4.427000000000000379e-03
2.975650000000000239e-01 -3.754299999999999998e-02 1.847409999999999886e-01
-7.559599999999999653e-02 -5.977500000000000036e-01 -3.500329999999999830e-01
2.099939999999999862e-01 3.296799999999999731e-01 3.224489999999999856e-01
-2.053500000000000048e-01 -5.386400000000000077e-01 -3.223579999999999779e-01
2.243640000000000079e-01 5.059270000000000156e-01 -5.389300000000000340e-02
3.615389999999999993e-01 -6.001849999999999685e-01 -1.247400000000000037e-01
-5.135699999999999987e-02 1.619569999999999899e-01 3.037259999999999960e-01
3.517830000000000124e-01 -1.683600000000000096e-01 -6.447799999999999365e-02
-2.698119999999999963e-01 -6.974200000000000399e-01 -2.162399999999999878e-01
-9.727600000000000136e-02 7.783409999999999496e-01 -2.783419999999999783e-01
2.276749999999999885e-01 -6.929699999999999749e-01 -2.183769999999999878e-01
2.227929999999999910e-01 7.733470000000000066e-01 -3.696200000000000180e-02
1.535739999999999883e-01 -6.746189999999999687e-01 -4.688200000000000006e-02
2.453430000000000055e-01 -6.891249999999999876e-01 -7.326199999999999379e-02
-1.775420000000000054e-01 2.818939999999999779e-01 2.946289999999999742e-01
-3.375690000000000079e-01 -6.380519999999999525e-01 7.549000000000000155e-02
2.184790000000000065e-01 3.670939999999999759e-01 1.984599999999999906e-02
-8.128100000000000602e-02 2.003989999999999938e-01 3.249139999999999806e-01
-7.421899999999999331e-02 -3.823800000000000116e-02 3.603029999999999844e-01
-3.683119999999999727e-01 -3.137030000000000096e-01 -5.971900000000000125e-02
-3.528299999999999770e-01 -1.585670000000000135e-01 -6.489000000000000323e-02
3.294549999999999979e-01 2.322629999999999972e-01 -1.940199999999999980e-01
2.256100000000000050e-01 5.171890000000000098e-01 2.486089999999999967e-01
-1.963650000000000118e-01 5.033130000000000104e-01 -2.750360000000000027e-01
2.307470000000000077e-01 2.127779999999999949e-01 -2.882629999999999915e-01
2.466790000000000094e-01 -4.026060000000000194e-01 3.530300000000000105e-01
-2.691270000000000051e-01 -1.289069999999999938e-01 2.409979999999999900e-01
8.138900000000000301e-02 -6.643200000000000216e-01 -3.485860000000000070e-01
1.213309999999999944e-01 -6.224269999999999525e-01 -3.426600000000000201e-01
-1.966410000000000102e-01 2.854220000000000090e-01 1.171569999999999973e-01
-1.705160000000000009e-01 -3.220290000000000097e-01 3.934179999999999899e-01
-2.162399999999999878e-01 7.783210000000000406e-01 -1.648590000000000055e-01
-7.032299999999999662e-02 9.533840000000000092e-01 -1.625089999999999868e-01
-3.849899999999999850e-02 -2.701919999999999877e-01 -2.872060000000000168e-01
7.152600000000000624e-02 1.711100000000000121e-01 3.082779999999999965e-01
4.865300000000000180e-02 6.383600000000000385e-01 3.887869999999999937e-01
2.496349999999999958e-01 2.755859999999999976e-01 -2.180840000000000001e-01
-3.090609999999999746e-01 2.843000000000000041e-03 4.195200000000000318e-02
2.853390000000000093e-01 -5.540479999999999849e-01 2.463090000000000002e-01
4.292300000000000282e-02 -6.830230000000000468e-01 -2.131840000000000124e-01
-1.159939999999999999e-01 6.345229999999999482e-01 2.036219999999999974e-01
1.760849999999999915e-01 -1.768600000000000033e-02 3.303180000000000005e-01
-1.375499999999999987e-02 -1.988669999999999882e-01 -2.944339999999999735e-01
-2.960019999999999873e-01 -2.470259999999999956e-01 1.977230000000000099e-01
-2.666290000000000049e-01 -5.153809999999999780e-01 3.009069999999999800e-01
3.574709999999999832e-01 -5.092079999999999940e-01 2.726400000000000004e-02
2.606299999999999936e-02 2.086969999999999936e-01 3.617969999999999797e-01
-3.507730000000000015e-01 -6.145650000000000279e-01 -2.398929999999999951e-01
-3.051180000000000003e-01 6.054199999999999859e-02 6.709099999999999786e-02
-7.628000000000000058e-02 -6.848570000000000491e-01 6.868900000000000006e-02
2.274049999999999960e-01 7.013200000000000545e-01 -1.247319999999999957e-01
3.160370000000000124e-01 -6.915559999999999485e-01 -1.224240000000000050e-01
-3.787869999999999848e-01 -3.995049999999999990e-01 -9.686300000000000465e-02
2.947080000000000255e-01 -6.907379999999999631e-01 -1.106960000000000027e-01
-1.400659999999999961e-01 2.374280000000000002e-01 3.240390000000000215e-01
2.753979999999999762e-01 2.600790000000000046e-01 -2.882290000000000130e-01
3.081869999999999887e-01 1.245570000000000010e-01 -3.901000000000000301e-02
3.097770000000000246e-01 1.192840000000000011e-01 1.057180000000000064e-01
-1.527100000000000124e-01 -6.846640000000000503e-01 3.069479999999999986e-01
-2.694570000000000021e-01 -6.878999999999999559e-01 1.383639999999999870e-01
1.392349999999999977e-01 -3.620349999999999957e-01 4.272349999999999759e-01
3.447779999999999734e-01 -6.492499999999999660e-02 -1.021169999999999994e-01
7.579999999999999932e-03 7.412860000000000005e-01 2.008669999999999900e-01
2.603929999999999856e-01 -4.600560000000000205e-01 -2.579839999999999911e-01
5.711499999999999910e-02 7.463400000000000034e-01 1.719590000000000007e-01
-2.592720000000000025e-01 5.800229999999999553e-01 -2.422789999999999944e-01
2.182520000000000016e-01 4.476129999999999831e-01 -1.129890000000000061e-01
2.728900000000000214e-01 -1.346699999999999980e-02 2.454699999999999938e-01
2.229849999999999888e-01 7.483499999999999597e-01 4.416899999999999993e-02
2.128230000000000122e-01 3.294279999999999986e-01 2.704829999999999735e-01
1.366449999999999887e-01 3.648199999999999776e-01 4.103660000000000085e-01
-2.202129999999999921e-01 4.700150000000000161e-01 -1.913789999999999936e-01
2.097299999999999859e-02 -6.791599999999999859e-01 -1.199360000000000009e-01
-2.021890000000000076e-01 9.022780000000000244e-01 -1.559020000000000128e-01
7.089800000000000268e-02 9.595420000000000060e-01 1.768999999999999956e-03
-1.692889999999999950e-01 6.895999999999999353e-02 2.924610000000000265e-01
-1.985069999999999890e-01 9.272669999999999524e-01 -8.545300000000000118e-02
5.892200000000000215e-02 8.288379999999999637e-01 1.430069999999999952e-01
3.481299999999999950e-01 -1.282469999999999999e-01 -4.530900000000000205e-02
7.625600000000000434e-02 -6.917349999999999888e-01 1.669140000000000068e-01
2.883450000000000180e-01 -4.258819999999999828e-01 3.051209999999999756e-01
-3.087969999999999882e-01 -6.563240000000000185e-01 1.695049999999999890e-01
-1.442859999999999976e-01 9.550629999999999953e-01 -1.444070000000000076e-01
1.006709999999999966e-01 7.915140000000000509e-01 -2.799010000000000109e-01
-7.376399999999999624e-02 3.499340000000000228e-01 4.226150000000000184e-01
3.713620000000000254e-01 -4.140780000000000016e-01 -1.166969999999999952e-01
1.766189999999999982e-01 9.537539999999999907e-01 -2.210070000000000090e-01
-2.704810000000000270e-01 -1.551210000000000089e-01 2.450150000000000106e-01
3.643199999999999772e-01 -3.126289999999999902e-01 5.188500000000000056e-02
-3.766599999999999948e-01 -4.691139999999999755e-01 6.942000000000000254e-03
-2.969350000000000045e-01 -5.776890000000000081e-01 2.214440000000000019e-01
-2.000450000000000006e-01 1.023680000000000007e-01 2.605089999999999906e-01
1.598430000000000129e-01 9.602929999999999522e-01 -2.157409999999999883e-01
-9.892800000000000205e-02 8.727970000000000450e-01 1.417019999999999946e-01
1.776760000000000006e-01 3.918249999999999789e-01 -2.636020000000000030e-01
-2.111349999999999894e-01 7.954390000000000072e-01 -4.875499999999999973e-02
3.138300000000000117e-02 -3.092590000000000061e-01 -2.776390000000000247e-01
3.161280000000000201e-01 -2.501700000000000035e-01 4.451200000000000295e-02
2.092690000000000106e-01 2.022039999999999949e-01 1.580139999999999878e-01
-1.438270000000000104e-01 6.878700000000000092e-02 3.064910000000000134e-01
-2.060589999999999922e-01 -4.013499999999999845e-01 3.714029999999999831e-01
-3.078139999999999765e-01 -2.143519999999999870e-01 8.266000000000000777e-03
3.613540000000000085e-01 -2.491960000000000008e-01 -6.270000000000000573e-02
-2.678470000000000018e-01 -6.933230000000000226e-01 4.813999999999999703e-03
-3.483919999999999795e-01 -6.034990000000000077e-01 2.031200000000000019e-02
2.488160000000000094e-01 6.629599999999999382e-02 2.458190000000000097e-01
-3.725470000000000170e-01 -3.440139999999999865e-01 -1.852659999999999862e-01
-1.308800000000000067e-02 6.671280000000000543e-01 3.327499999999999902e-01
1.347160000000000024e-01 -6.669979999999999798e-01 1.826669999999999960e-01
-1.775780000000000136e-01 -6.989480000000000137e-01 -2.712709999999999844e-01
3.524169999999999803e-01 -5.426410000000000400e-01 -8.425499999999999656e-02
3.178940000000000099e-01 1.826089999999999935e-01 -2.766669999999999963e-01
-3.038959999999999995e-01 -6.177449999999999886e-01 1.838650000000000007e-01
-1.771979999999999944e-01 -3.034580000000000055e-01 -2.772220000000000240e-01
-7.939999999999999836e-02 -5.425440000000000262e-01 4.132000000000000117e-01
3.180089999999999861e-01 -7.088700000000000556e-02 -2.595620000000000149e-01
-2.415440000000000087e-01 -6.812409999999999854e-01 2.590700000000000225e-01
2.367319999999999980e-01 4.924330000000000096e-01 -2.188170000000000115e-01
-3.289389999999999814e-01 -4.235519999999999841e-01 -2.205920000000000103e-01
3.161349999999999993e-01 1.466240000000000043e-01 3.568199999999999844e-02
-2.439979999999999927e-01 1.320820000000000050e-01 1.995869999999999866e-01
-1.748089999999999922e-01 8.898709999999999676e-01 5.952500000000000152e-02
2.097110000000000085e-01 2.827200000000000268e-01 -4.932099999999999679e-02
2.779249999999999776e-01 -6.392430000000000057e-01 1.882139999999999924e-01
1.629680000000000017e-01 -4.694450000000000012e-01 4.082560000000000078e-01
2.536649999999999738e-01 6.149040000000000061e-01 -1.888519999999999921e-01
2.954629999999999757e-01 -1.662790000000000101e-01 2.260570000000000079e-01
-3.083659999999999735e-01 -6.643999999999999732e-03 -6.572999999999999850e-03
3.323760000000000048e-01 -5.905869999999999731e-01 3.708000000000000185e-02
2.148440000000000072e-01 -3.719060000000000143e-01 3.854790000000000161e-01
2.054660000000000097e-01 5.981940000000000035e-01 2.074689999999999868e-01
2.142959999999999865e-01 -6.015610000000000124e-01 3.267470000000000097e-01
8.624500000000000222e-02 4.218819999999999792e-01 4.037299999999999778e-01
7.094100000000000406e-02 7.595809999999999507e-01 1.328950000000000131e-01
1.820070000000000021e-01 -6.731449999999999934e-01 1.139750000000000069e-01
2.276670000000000083e-01 7.066139999999999644e-01 4.829499999999999765e-02
-2.544330000000000203e-01 6.749249999999999972e-01 -1.714620000000000033e-01
-1.379460000000000131e-01 9.537099999999999744e-02 3.035470000000000113e-01
9.508099999999999885e-02 7.196599999999999664e-01 1.266980000000000051e-01
-3.558540000000000036e-01 -5.763800000000000034e-01 -1.774320000000000064e-01
-1.074279999999999957e-01 -6.875400000000000400e-01 3.521039999999999726e-01
4.681699999999999751e-02 -3.426330000000000209e-01 4.319430000000000214e-01
-2.812459999999999960e-01 2.263409999999999866e-01 -8.426699999999999469e-02
-1.508750000000000091e-01 9.172510000000000385e-01 -2.661680000000000157e-01
-2.123700000000000032e-01 4.134639999999999982e-01 4.972599999999999937e-02
1.754729999999999901e-01 -2.007690000000000030e-01 -2.847569999999999824e-01
-2.156170000000000031e-01 -6.833639999999999715e-01 1.395119999999999971e-01
3.477390000000000203e-01 -5.889790000000000303e-01 -2.428780000000000105e-01
-2.790599999999999747e-01 -6.956199999999999883e-02 1.932000000000000106e-01
-2.054999999999999882e-01 8.749350000000000183e-01 -1.597409999999999941e-01
2.452999999999999885e-03 -6.844839999999999813e-01 1.967009999999999870e-01
1.924180000000000057e-01 3.458069999999999755e-01 3.845819999999999794e-01
2.527360000000000162e-01 6.583989999999999565e-01 -2.505430000000000157e-01
-3.496059999999999723e-01 -5.993699999999999722e-02 -2.554870000000000196e-01
3.443769999999999887e-01 -7.307199999999999807e-02 -8.199900000000000244e-02
-1.378199999999999981e-01 9.121230000000000171e-01 7.830299999999999760e-02
1.881069999999999964e-01 -6.857029999999999514e-01 1.968519999999999992e-01
-3.518709999999999893e-01 -6.790460000000000385e-01 -8.108200000000000129e-02
2.840719999999999912e-01 2.655139999999999723e-01 -2.781839999999999868e-01
3.175950000000000162e-01 -4.811259999999999981e-01 2.290449999999999986e-01
-3.490730000000000222e-01 -2.539699999999999944e-02 -1.462569999999999981e-01
5.449899999999999883e-02 9.604960000000000164e-01 -1.700300000000000075e-02
9.520399999999999696e-02 -1.525080000000000047e-01 3.924219999999999930e-01
-1.499999999999999944e-02 -6.776229999999999754e-01 -3.466980000000000062e-01
-3.272749999999999826e-01 -2.955409999999999981e-01 1.038769999999999971e-01
1.363000000000000062e-03 -3.600499999999999812e-01 -2.856799999999999895e-01
2.120920000000000027e-01 6.023279999999999745e-01 1.989239999999999897e-01
-9.327999999999999486e-03 -6.817459999999999631e-01 -3.435880000000000045e-01
-3.197189999999999754e-01 -6.502830000000000554e-01 1.307879999999999876e-01
5.870299999999999824e-02 6.496859999999999857e-01 3.478339999999999765e-01
-2.076050000000000118e-01 5.344529999999999559e-01 1.976100000000000079e-01
2.156250000000000111e-01 7.849260000000000126e-01 -1.291539999999999910e-01
1.175800000000000040e-01 -6.936970000000000081e-01 -1.268730000000000135e-01
-1.984980000000000078e-01 3.865589999999999860e-01 -2.131889999999999896e-01
-3.617070000000000007e-01 -6.272510000000000030e-01 -9.822000000000000175e-02
-2.340669999999999973e-01 6.385659999999999670e-01 -2.738149999999999751e-01
-3.709599999999999703e-02 -1.565380000000000105e-01 3.992640000000000078e-01
-1.993189999999999962e-01 9.254059999999999508e-01 -1.848180000000000101e-01
2.795560000000000267e-01 -2.027539999999999898e-01 -2.655660000000000243e-01
-2.026900000000000091e-01 5.121040000000000036e-01 2.541919999999999735e-01
-6.808699999999999475e-02 -6.710150000000000281e-01 1.116790000000000005e-01
-4.120900000000000257e-02 6.379249999999999643e-01 3.650249999999999884e-01
-2.019839999999999969e-01 9.060479999999999645e-01 -7.877699999999999980e-02
2.269799999999999873e-01 5.383759999999999657e-01 1.548700000000000077e-02
1.570259999999999989e-01 4.396829999999999905e-01 -2.819209999999999772e-01
2.021099999999999980e-02 -6.785830000000000473e-01 1.830710000000000115e-01
2.730230000000000157e-01 -6.857550000000000034e-01 -5.392600000000000171e-02
-2.182129999999999903e-01 2.573529999999999984e-01 -1.291329999999999978e-01
9.076399999999999746e-02 -6.085970000000000546e-01 4.242560000000000220e-01
1.558190000000000131e-01 5.756090000000000373e-01 3.110120000000000107e-01
3.169739999999999780e-01 -2.804320000000000146e-01 -2.351000000000000034e-01
-3.057179999999999898e-01 2.435430000000000095e-01 -1.820239999999999914e-01
-3.543450000000000211e-01 -1.228459999999999969e-01 -1.316090000000000038e-01
3.621949999999999892e-01 -2.575649999999999884e-01 -1.234470000000000012e-01
1.671499999999999930e-01 6.884099999999999664e-01 -2.791250000000000120e-01
-2.061419999999999919e-01 8.720599999999999463e-01 -1.427190000000000125e-01
-3.625599999999999656e-02 1.897220000000000018e-01 3.240060000000000162e-01
-2.972069999999999990e-01 3.782900000000000151e-02 1.137539999999999940e-01
2.830259999999999998e-01 -6.893110000000000070e-01 -9.030900000000000039e-02
-3.548169999999999935e-01 -5.605440000000000422e-01 -1.357710000000000028e-01
-1.989269999999999927e-01 2.956070000000000086e-01 -6.484299999999999786e-02
1.951279999999999959e-01 8.600950000000000539e-01 7.752599999999999769e-02
3.140109999999999846e-01 -5.504890000000000061e-01 -2.669839999999999991e-01
3.105169999999999875e-01 -5.318599999999999994e-01 2.124729999999999952e-01
2.533039999999999736e-01 -1.255320000000000047e-01 3.020470000000000099e-01
2.553800000000000167e-02 6.479949999999999877e-01 3.864380000000000037e-01
3.326419999999999932e-01 6.243200000000000138e-02 -5.183000000000000107e-02
-1.047460000000000058e-01 -2.355939999999999979e-01 -2.941030000000000033e-01
-1.641150000000000109e-01 -6.765830000000000455e-01 3.436080000000000245e-01
-1.090249999999999969e-01 1.856000000000000011e-03 3.389209999999999723e-01
3.713429999999999787e-01 -3.706240000000000090e-01 3.710600000000000009e-02
1.801000000000000083e-03 3.484389999999999987e-01 4.317710000000000159e-01
3.737489999999999979e-01 -4.613249999999999851e-01 -5.498800000000000215e-02
-1.505710000000000104e-01 2.343179999999999985e-01 2.992099999999999760e-01
3.142030000000000101e-01 -4.300010000000000221e-01 2.496690000000000020e-01
-1.928890000000000049e-01 9.029530000000000056e-01 -9.700999999999999554e-03
-3.085720000000000129e-01 -7.024099999999999788e-02 -8.803000000000000061e-03
4.360599999999999893e-02 -3.873909999999999854e-01 4.336380000000000234e-01
2.470150000000000123e-01 2.509540000000000104e-01 -1.070450000000000013e-01
2.280320000000000125e-01 1.660179999999999989e-01 2.344739999999999880e-01
1.139460000000000056e-01 -6.932009999999999561e-01 -2.359410000000000118e-01
-2.132689999999999864e-01 6.701599999999999779e-01 -6.509600000000000108e-02
-3.552540000000000142e-01 -6.329420000000000046e-01 -3.973899999999999655e-02
2.146079999999999932e-01 -5.539260000000000295e-01 -3.153460000000000152e-01
3.005260000000000153e-01 8.662799999999999667e-02 -2.830250000000000266e-01
-1.897989999999999955e-01 4.064579999999999860e-01 3.313050000000000161e-01
1.104640000000000066e-01 6.011239999999999917e-01 -2.838019999999999987e-01
2.083199999999999982e-02 1.968299999999999911e-02 3.490779999999999994e-01
-2.608130000000000170e-01 5.632549999999999502e-01 -2.540330000000000088e-01
-2.551619999999999999e-01 5.817630000000000301e-01 -2.708409999999999984e-01
3.137980000000000214e-01 1.315999999999999948e-01 8.132899999999999852e-02
-9.020999999999999852e-02 6.500699999999999534e-02 3.287590000000000234e-01
3.270719999999999739e-01 -5.754999999999999699e-03 -3.471400000000000180e-02
2.003429999999999933e-01 6.193849999999999634e-01 -2.766660000000000230e-01
3.157599999999999990e-02 -2.994299999999999740e-01 4.359049999999999869e-01
2.259289999999999909e-01 4.881880000000000108e-01 3.232999999999999763e-02
1.658439999999999914e-01 -2.315859999999999863e-01 -2.794440000000000257e-01
2.133019999999999916e-01 8.841639999999999500e-01 -5.938899999999999735e-02
-1.998070000000000124e-01 3.771399999999999753e-02 2.764220000000000010e-01
2.133440000000000059e-01 3.335810000000000164e-01 -3.771999999999999659e-02
3.111289999999999889e-01 -2.523810000000000220e-01 1.589480000000000059e-01
1.550099999999999915e-02 5.603500000000000147e-01 3.998639999999999972e-01
1.703530000000000044e-01 5.629849999999999577e-01 2.925889999999999880e-01
4.969699999999999812e-02 2.909630000000000272e-01 4.372219999999999995e-01
-1.516990000000000005e-01 -6.908269999999999689e-01 2.792299999999999990e-02
-3.446130000000000027e-01 -4.532909999999999995e-01 1.461459999999999981e-01
1.735659999999999981e-01 -6.175920000000000298e-01 -3.360890000000000266e-01
2.926969999999999850e-01 -5.911830000000000140e-01 1.683050000000000102e-01
-1.779229999999999978e-01 7.386409999999999920e-01 7.526700000000000057e-02
-3.638290000000000135e-01 -5.162440000000000362e-01 7.141400000000000525e-02
2.733180000000000054e-01 -3.939489999999999936e-01 -2.230030000000000068e-01
7.681799999999999740e-02 -2.145489999999999897e-01 -2.882399999999999962e-01
-3.619009999999999727e-01 -6.339970000000000327e-01 -1.035739999999999994e-01
-2.005039999999999878e-01 3.196010000000000240e-01 -1.077940000000000009e-01
-3.613500000000000045e-01 -2.070410000000000028e-01 -2.463069999999999982e-01
-2.067009999999999958e-01 8.665580000000000505e-01 -9.707699999999999663e-02
1.489060000000000106e-01 6.066650000000000098e-01 -2.813579999999999970e-01
-6.428000000000000380e-02 -6.824310000000000098e-01 -5.000199999999999784e-02
1.751799999999999885e-02 -2.544960000000000000e-01 -2.860670000000000157e-01
-2.924419999999999797e-01 -3.241209999999999924e-01 2.467090000000000116e-01
2.088460000000000039e-01 8.723919999999999453e-01 -1.495019999999999960e-01
2.176240000000000119e-01 -3.273590000000000111e-01 -2.533779999999999921e-01
1.123709999999999987e-01 6.075760000000000050e-01 -2.834119999999999973e-01
-4.615299999999999958e-02 5.379490000000000105e-01 -2.896819999999999951e-01
-3.398090000000000277e-01 1.670800000000000063e-01 -2.115990000000000093e-01
3.067619999999999791e-01 -2.175479999999999914e-01 3.701000000000000123e-02
-2.069280000000000008e-01 8.645880000000000232e-01 -9.288000000000000422e-02
1.115570000000000034e-01 -6.819300000000000361e-01 -1.864599999999999938e-02
-1.877999999999999895e-03 5.950069999999999526e-01 -2.878830000000000000e-01
-1.963540000000000008e-01 -5.590190000000000436e-01 -3.304779999999999940e-01
3.082690000000000152e-01 -6.827640000000000375e-01 -3.033980000000000010e-01
1.340490000000000015e-01 2.244680000000000009e-01 3.336410000000000209e-01
-3.392020000000000035e-01 3.904099999999999931e-02 -2.788419999999999788e-01
1.945429999999999937e-01 -6.299329999999999652e-01 3.334429999999999894e-01
3.372350000000000070e-01 -4.348480000000000123e-01 1.941039999999999988e-01
4.095599999999999935e-02 3.701289999999999858e-01 -2.925320000000000142e-01
7.774799999999999767e-02 2.138150000000000051e-01 -2.931179999999999897e-01
-1.499290000000000067e-01 -6.882080000000000419e-01 1.403599999999999987e-02
3.230089999999999906e-01 -5.396250000000000213e-01 1.635089999999999877e-01
-3.553959999999999897e-01 -2.460249999999999937e-01 -4.700700000000000017e-02
-1.091209999999999958e-01 9.519490000000000451e-01 -7.257099999999999662e-02
3.636840000000000073e-01 -2.743110000000000270e-01 -7.697900000000000575e-02
-5.619199999999999889e-02 2.322839999999999905e-01 3.741490000000000093e-01
-7.748299999999999632e-02 -3.170180000000000220e-01 4.325579999999999981e-01
-1.451189999999999980e-01 9.543610000000000149e-01 -1.278239999999999932e-01
-9.890599999999999392e-02 8.489550000000000152e-01 1.400849999999999873e-01
3.129560000000000120e-01 -4.765510000000000024e-01 -2.216950000000000032e-01
-1.858039999999999969e-01 -1.887499999999999942e-02 -3.018109999999999959e-01
-1.972609999999999919e-01 -6.822949999999999848e-01 1.528589999999999949e-01
-6.137900000000000300e-02 -6.956400000000000361e-01 -3.138929999999999776e-01
-2.552269999999999817e-01 1.865580000000000016e-01 9.193800000000000583e-02
-2.153579999999999939e-01 5.073090000000000099e-01 -3.785000000000000170e-02
2.238509999999999944e-01 -2.843140000000000112e-01 3.727539999999999742e-01
9.256000000000000338e-02 -6.915459999999999940e-01 5.937300000000000216e-02
1.603930000000000078e-01 1.745539999999999869e-01 2.735719999999999819e-01
3.191229999999999900e-01 -6.133579999999999588e-01 9.614100000000000423e-02
-4.346400000000000263e-02 4.785650000000000182e-01 3.534410000000000052e-01
-2.025919999999999943e-01 3.904420000000000113e-01 3.008529999999999816e-01
2.551539999999999919e-01 7.086130000000000484e-01 -1.536510000000000098e-01
3.372859999999999747e-01 -2.399320000000000064e-01 6.859999999999999779e-03
-8.793299999999999728e-02 6.614539999999999864e-01 -2.849300000000000166e-01
2.329940000000000067e-01 -6.190579999999999972e-01 2.854209999999999803e-01
-4.172999999999999626e-03 -4.690810000000000257e-01 -3.173989999999999867e-01
2.526720000000000077e-01 5.425459999999999727e-01 -2.596260000000000234e-01
-2.136689999999999978e-01 7.139910000000000423e-01 -2.252499999999999988e-02
3.477390000000000203e-01 -5.633430000000000382e-01 -2.968200000000000005e-02
-1.446909999999999863e-01 -6.955139999999999656e-01 -2.113049999999999928e-01
-1.572759999999999991e-01 -5.762930000000000552e-01 3.814279999999999893e-01
-3.535889999999999866e-01 -9.650599999999999457e-02 -1.783639999999999948e-01
-2.055379999999999985e-01 -4.848919999999999897e-01 -3.047699999999999854e-01
-1.832290000000000030e-01 9.509319999999999995e-01 -1.617419999999999969e-01
-4.302899999999999781e-02 -6.126939999999999609e-01 4.208310000000000106e-01
1.092339999999999978e-01 9.282719999999999860e-01 9.614999999999999936e-02
5.125099999999999795e-02 -6.863850000000000229e-01 -8.069400000000000184e-02
-1.045460000000000000e-01 1.038670000000000010e-01 3.122770000000000268e-01
2.554119999999999724e-01 -1.708199999999999996e-02 2.657909999999999995e-01
9.206999999999999906e-02 8.699890000000000123e-01 1.503319999999999934e-01
-3.104049999999999865e-01 -2.018790000000000029e-01 1.260999999999999968e-03
-9.095000000000000306e-02 -2.881489999999999885e-01 -2.846219999999999861e-01
-1.950299999999999950e-02 -5.151759999999999673e-01 4.335919999999999774e-01
-2.450080000000000036e-01 -5.250500000000000167e-01 3.278630000000000155e-01
-2.998219999999999774e-01 -2.185519999999999963e-01 1.866770000000000096e-01
-6.173300000000000315e-02 -6.942409999999999970e-01 -1.430420000000000025e-01
1.695440000000000003e-01 1.393340000000000134e-01 -2.933490000000000264e-01
3.348800000000000110e-01 1.975399999999999934e-01 -1.926080000000000014e-01
2.002079999999999971e-01 4.704929999999999946e-01 3.125640000000000085e-01
-1.186299999999999993e-01 -4.669800000000000062e-01 -3.178940000000000099e-01
1.486709999999999976e-01 9.121050000000000546e-01 -2.729409999999999892e-01
-1.919649999999999967e-01 -3.539300000000000085e-02 3.026610000000000134e-01
3.618489999999999762e-01 -5.664930000000000243e-01 -1.309019999999999906e-01
-1.041559999999999986e-01 7.956159999999999899e-01 1.059869999999999979e-01
2.254440000000000055e-01 5.431179999999999897e-01 -7.704400000000000137e-02
2.133790000000000131e-01 -4.198890000000000122e-01 -2.648079999999999878e-01
2.221220000000000139e-01 4.089249999999999829e-01 5.384900000000000103e-02
2.269670000000000021e-01 5.716369999999999507e-01 2.300000000000000070e-04
-2.117769999999999930e-01 3.890930000000000222e-01 6.641000000000000202e-03
-3.776100000000000012e-01 -4.617479999999999918e-01 -1.398600000000000017e-02
-3.209700000000000053e-02 -6.812099999999999822e-01 -4.765799999999999897e-02
-3.302059999999999995e-01 -6.961880000000000290e-01 -7.747199999999999920e-02
-2.063439999999999996e-01 8.712379999999999569e-01 -4.395400000000000001e-02
-4.642999999999999905e-02 -6.775769999999999849e-01 -6.634900000000000519e-02
-1.272919999999999885e-01 1.869770000000000043e-01 -3.032159999999999855e-01
-1.013030000000000042e-01 9.075260000000000549e-01 -2.738959999999999728e-01
3.349759999999999960e-01 -4.070369999999999822e-01 -1.853730000000000100e-01
-2.812100000000000016e-02 1.951060000000000016e-01 3.377669999999999839e-01
2.090930000000000011e-01 -6.866999999999999771e-01 2.046419999999999906e-01
3.404409999999999936e-01 -2.774599999999999983e-02 -1.812529999999999974e-01
3.029149999999999898e-01 -3.511589999999999989e-01 -2.242709999999999981e-01
3.135060000000000069e-01 -9.688999999999999696e-03 9.263599999999999612e-02
-3.756400000000000017e-02 5.274809999999999777e-01 3.709569999999999812e-01
3.225499999999999895e-02 1.915620000000000100e-01 -2.984299999999999731e-01
1.532199999999999951e-01 7.745119999999999783e-01 9.189200000000000146e-02
3.240370000000000195e-01 -4.644670000000000187e-01 -1.835900000000000032e-01
-2.137020000000000031e-01 6.316380000000000328e-01 1.863899999999999932e-02
3.378880000000000217e-01 1.550950000000000106e-01 -1.944029999999999925e-01
-3.712409999999999877e-01 -3.406770000000000076e-01 -1.988199999999999967e-01
9.839599999999999735e-02 7.418620000000000214e-01 1.027610000000000051e-01
-2.097160000000000135e-01 5.203579999999999872e-01 1.633380000000000110e-01
3.068469999999999809e-01 -1.642039999999999889e-01 4.119600000000000345e-02
-3.122889999999999833e-01 -2.304190000000000127e-01 9.202799999999999869e-02
3.441779999999999839e-01 -5.130099999999999938e-02 -1.018219999999999958e-01
-4.943199999999999678e-02 6.307030000000000136e-01 -2.853769999999999918e-01
1.895120000000000138e-01 9.555010000000000447e-01 -1.488589999999999913e-01
2.212659999999999905e-01 -6.902000000000000357e-01 -1.090769999999999934e-01
-2.641990000000000172e-01 -2.048000000000000168e-02 2.101739999999999997e-01
1.481679999999999942e-01 -3.181399999999999784e-01 -2.662959999999999772e-01
-1.826170000000000015e-01 3.525699999999999945e-01 3.530260000000000065e-01
-7.555399999999999616e-02 -3.169489999999999807e-01 4.327929999999999833e-01
-3.034999999999999937e-03 6.169019999999999504e-01 4.192649999999999988e-01
1.962490000000000068e-01 2.503790000000000182e-01 2.528799999999999937e-01
-1.461780000000000024e-01 6.391970000000000152e-01 1.848069999999999991e-01
-8.412300000000000333e-02 -3.715899999999999759e-02 -3.053779999999999828e-01
-3.698750000000000093e-01 -2.811409999999999743e-01 -2.005369999999999930e-01
2.477679999999999882e-01 6.094659999999999522e-01 -2.151309999999999889e-01
9.264600000000000612e-02 6.006860000000000532e-01 3.644649999999999834e-01
-1.732650000000000023e-01 -6.359000000000000208e-01 -3.494570000000000176e-01
3.102010000000000045e-01 1.621470000000000133e-01 -3.547399999999999859e-02
3.861900000000000055e-02 -2.657450000000000090e-01 -2.840360000000000107e-01
-8.208699999999999330e-02 4.722879999999999856e-01 3.569039999999999990e-01
3.629470000000000196e-01 -6.161290000000000378e-01 -1.986970000000000125e-01
2.066580000000000084e-01 2.764869999999999828e-01 1.895550000000000013e-01
-1.090099999999999958e-01 -4.667020000000000057e-01 -3.189580000000000193e-01
-1.335060000000000136e-01 4.718499999999999778e-02 3.167200000000000015e-01
5.395099999999999896e-02 7.897260000000000391e-01 1.222300000000000053e-01
1.616100000000000037e-01 -5.917639999999999567e-01 -3.329699999999999882e-01
-3.391339999999999910e-01 1.610679999999999890e-01 -1.947520000000000084e-01
-5.411799999999999944e-02 -6.824419999999999931e-01 2.492219999999999991e-01
-2.086709999999999954e-01 6.747680000000000344e-01 7.944900000000000573e-02
3.384190000000000254e-01 7.263000000000000012e-02 -8.713200000000000112e-02
3.260730000000000017e-01 -6.873249999999999638e-01 -1.206699999999999995e-01
5.856000000000000094e-03 2.981070000000000109e-01 4.391939999999999733e-01
-3.614109999999999823e-01 -1.676030000000000020e-01 -2.156399999999999983e-01
-3.322149999999999825e-01 -1.858039999999999969e-01 -2.739600000000000021e-02
-2.793800000000000103e-02 9.544529999999999959e-01 -2.665400000000000061e-02
-2.325570000000000137e-01 -5.526119999999999921e-01 -3.181570000000000231e-01
3.248229999999999729e-01 -6.367070000000000229e-01 6.052300000000000041e-02
2.158029999999999948e-01 3.508450000000000180e-01 2.880780000000000007e-01
-4.192200000000000093e-02 -4.103769999999999918e-01 4.334250000000000047e-01
2.935969999999999969e-01 -2.558699999999999863e-01 2.474190000000000000e-01
-3.428499999999999881e-01 3.952800000000000064e-02 -1.438139999999999974e-01
1.401260000000000006e-01 6.466760000000000286e-01 1.944879999999999942e-01
-2.115819999999999923e-01 -1.816339999999999899e-01 3.234600000000000253e-01
3.412229999999999985e-01 -1.950400000000000050e-02 -1.082759999999999972e-01
-2.689599999999999769e-01 -2.412009999999999987e-01 2.733900000000000219e-01
-8.441899999999999404e-02 2.908669999999999867e-01 -2.992429999999999812e-01
-2.190580000000000027e-01 7.084000000000000019e-03 2.670020000000000171e-01
1.412099999999999987e-02 -5.919149999999999689e-01 -3.433829999999999938e-01
2.288229999999999986e-01 6.970779999999999754e-01 -1.263499999999999901e-01
-2.200719999999999898e-01 -6.615969999999999906e-01 3.081699999999999995e-01
2.103210000000000079e-01 2.797399999999999887e-01 -9.053200000000000136e-02
-1.593670000000000087e-01 -2.808590000000000253e-01 -2.825920000000000099e-01
-1.968459999999999932e-01 2.204270000000000118e-01 6.436300000000000354e-02
9.170000000000000373e-02 -7.089959999999999596e-01 -1.853650000000000020e-01
7.577399999999999414e-02 7.641630000000000367e-01 1.119949999999999973e-01
3.571030000000000038e-01 -3.927229999999999888e-01 1.204979999999999940e-01
-1.369869999999999977e-01 -3.793790000000000218e-01 4.144789999999999863e-01
2.519939999999999958e-01 6.539620000000000433e-01 -2.537619999999999876e-01
6.456099999999999339e-02 2.724460000000000215e-01 -2.936460000000000181e-01
-4.398099999999999926e-02 6.818119999999999736e-01 2.590180000000000260e-01
-3.617219999999999880e-01 -6.440759999999999819e-01 -1.284760000000000069e-01
3.595900000000000207e-01 -5.782009999999999650e-01 -1.944599999999999940e-01
3.038089999999999957e-01 -4.553889999999999882e-01 -2.197810000000000041e-01
-1.129420000000000007e-01 9.345719999999999583e-01 -2.684880000000000044e-01
1.213039999999999952e-01 -6.821580000000000421e-01 -8.898999999999999966e-02
6.539899999999999880e-02 -1.404640000000000055e-01 -2.963680000000000203e-01
-1.057990000000000042e-01 6.119120000000000115e-01 2.261789999999999912e-01
-6.111799999999999872e-02 3.088499999999999926e-02 -3.059640000000000137e-01
2.530910000000000104e-01 1.986390000000000100e-01 -2.875210000000000266e-01
1.989029999999999965e-01 -6.753510000000000346e-01 -7.636000000000000426e-03
1.571019999999999917e-01 7.649589999999999446e-01 -2.774610000000000132e-01
3.411449999999999760e-01 -6.838520000000000154e-01 -1.398290000000000088e-01
4.869000000000000064e-03 5.619800000000000351e-01 -2.901299999999999990e-01
-4.745599999999999818e-02 -4.810960000000000236e-01 4.300510000000000166e-01
2.205390000000000128e-01 8.146060000000000523e-01 -1.401600000000000068e-02
2.426959999999999951e-01 -6.425809999999999578e-01 2.607729999999999770e-01
-3.193499999999999811e-02 2.969109999999999805e-01 4.347690000000000166e-01
-2.142719999999999902e-01 6.155350000000000543e-01 -3.021499999999999880e-02
-3.114580000000000126e-01 -5.361660000000000315e-01 2.155579999999999996e-01
-3.046179999999999999e-01 -2.811989999999999768e-01 1.637820000000000109e-01
1.119769999999999932e-01 -7.035479999999999512e-01 -1.773919999999999941e-01
3.212229999999999808e-01 -3.262249999999999872e-01 2.256150000000000100e-01
-2.458480000000000110e-01 7.876100000000000323e-01 -2.546370000000000022e-01
2.897950000000000248e-01 2.546629999999999727e-01 -1.811460000000000015e-01
2.383309999999999873e-01 -1.856999999999999927e-03 2.783359999999999723e-01
1.832129999999999870e-01 -6.807130000000000125e-01 1.487050000000000038e-01
2.403770000000000073e-01 5.007800000000000029e-01 -1.340870000000000117e-01
-7.078299999999999870e-02 6.479650000000000132e-01 2.103240000000000109e-01
1.782900000000000040e-01 6.517180000000000195e-01 1.730859999999999899e-01
1.081440000000000040e-01 2.219300000000000092e-02 -2.972060000000000257e-01
-3.414260000000000073e-01 1.133500000000000063e-01 -2.289380000000000026e-01
-1.540799999999999947e-01 -6.787499999999999645e-01 -3.469539999999999846e-01
2.912690000000000001e-01 -2.122239999999999960e-01 -2.599910000000000276e-01
-5.745999999999999719e-02 7.519620000000000193e-01 -2.819200000000000039e-01
3.768599999999999728e-02 4.949709999999999943e-01 3.564510000000000178e-01
-3.389719999999999955e-01 -6.742390000000000327e-01 4.007000000000000145e-02
3.557130000000000014e-01 -4.685690000000000133e-01 1.238979999999999942e-01
3.515780000000000016e-01 -1.554850000000000121e-01 -7.523100000000000620e-02
-5.255599999999999855e-02 -2.240999999999999936e-01 -2.928660000000000152e-01
2.661479999999999957e-01 -6.378310000000000368e-01 2.162840000000000040e-01
-1.884149999999999991e-01 -3.453129999999999811e-01 -2.685109999999999997e-01
1.984219999999999873e-01 -6.773540000000000116e-01 9.253100000000000214e-02
3.346390000000000198e-01 -3.889580000000000259e-01 2.016020000000000034e-01
-1.367240000000000122e-01 4.093600000000000017e-01 -2.903160000000000185e-01
-2.274319999999999953e-01 -3.435409999999999853e-01 3.457540000000000058e-01
-2.621709999999999874e-01 -5.471829999999999750e-01 3.039290000000000047e-01
2.245360000000000134e-01 4.621720000000000272e-01 2.542079999999999895e-01
3.376959999999999962e-01 -4.850200000000000344e-02 -2.172050000000000092e-01
2.566910000000000025e-01 6.159919999999999840e-01 -2.463329999999999964e-01
-3.352789999999999937e-01 -6.010250000000000314e-01 -2.823789999999999911e-01
5.466599999999999931e-02 5.345720000000000471e-01 3.823090000000000099e-01
2.033659999999999912e-01 1.020260000000000056e-01 -2.908290000000000042e-01
-2.819470000000000032e-01 -5.507859999999999978e-01 2.704079999999999817e-01
-3.044379999999999864e-01 2.551780000000000159e-01 -2.303409999999999902e-01
-1.480899999999999994e-01 8.499679999999999458e-01 -2.730589999999999962e-01
-2.697820000000000218e-01 -6.974460000000000104e-01 -2.090760000000000118e-01
2.239420000000000022e-01 1.003629999999999939e-01 -2.887629999999999919e-01
-3.731809999999999850e-01 -3.721240000000000103e-01 -7.700000000000000247e-03
7.741800000000000070e-02 4.796050000000000035e-01 3.567830000000000168e-01
3.650419999999999776e-01 -4.773749999999999938e-01 7.782200000000000228e-02
-2.968450000000000255e-01 -6.594649999999999679e-01 1.934569999999999901e-01
3.328780000000000072e-01 1.426379999999999870e-01 -2.348699999999999954e-01
-2.596749999999999892e-01 -5.153109999999999635e-01 3.096349999999999936e-01
-2.599719999999999809e-01 2.253890000000000060e-01 -2.997469999999999857e-01
3.667460000000000164e-01 -4.892850000000000255e-01 9.523000000000000215e-03
-3.748409999999999798e-01 -3.252479999999999816e-01 -1.248770000000000019e-01
1.852800000000000002e-01 -4.298120000000000274e-01 4.019460000000000255e-01
-1.776109999999999911e-01 6.824590000000000378e-01 1.260189999999999921e-01
2.571169999999999844e-01 -6.881059999999999954e-01 1.399259999999999948e-01
-2.154369999999999896e-01 5.363940000000000374e-01 -3.907200000000000256e-02
-2.143599999999999950e-01 7.679930000000000367e-01 -1.671400000000000108e-01
-3.739330000000000154e-01 -3.824770000000000114e-01 -1.903189999999999882e-01
-6.646799999999999931e-02 9.522070000000000256e-01 6.945800000000000585e-02
6.556299999999999628e-02 6.868600000000000261e-01 2.622860000000000191e-01
-1.608120000000000105e-01 3.859020000000000228e-01 3.665479999999999849e-01
2.274039999999999950e-01 7.156339999999999923e-01 4.708799999999999791e-02
2.148299999999999932e-01 3.457479999999999998e-01 2.035069999999999935e-01
-1.806760000000000033e-01 1.994879999999999987e-01 1.637800000000000089e-01
3.278079999999999883e-01 8.986199999999999743e-02 -2.605669999999999931e-01
-3.681719999999999993e-01 -2.487189999999999956e-01 -1.457249999999999934e-01
-3.222940000000000249e-01 -1.775599999999999956e-01 -2.242699999999999902e-02
2.274100000000000010e-01 4.968150000000000066e-01 2.052930000000000033e-01
3.393450000000000077e-01 -4.950350000000000028e-01 -1.716159999999999908e-01
8.456600000000000228e-02 6.708330000000000126e-01 2.330770000000000064e-01
-3.646599999999999842e-01 -2.361880000000000090e-01 -8.677999999999999603e-02
-5.274999999999999828e-02 7.455159999999999565e-01 1.257209999999999994e-01
-2.207290000000000085e-01 -6.987290000000000445e-01 -2.406139999999999946e-01
2.342789999999999873e-01 -4.252349999999999741e-01 3.591119999999999868e-01
1.459399999999999864e-01 8.508149999999999880e-01 -2.775599999999999734e-01
-3.106820000000000137e-01 -2.440400000000000069e-01 1.054950000000000054e-01
3.380949999999999789e-01 1.250099999999999996e-02 -2.001529999999999976e-01
-1.886660000000000004e-01 -4.850430000000000019e-01 3.816550000000000220e-01
2.650939999999999963e-01 -2.559420000000000028e-01 -2.627959999999999741e-01
-1.608289999999999997e-01 6.970870000000000122e-01 -2.771469999999999767e-01
-2.112799999999999956e-01 -3.941089999999999871e-01 3.656889999999999863e-01
-1.822120000000000128e-01 5.911309999999999620e-01 -2.813519999999999910e-01
2.235759999999999970e-01 7.709840000000000027e-01 8.970999999999999808e-03
-5.353800000000000225e-02 6.624299999999999633e-01 2.597889999999999922e-01
-1.632309999999999872e-01 8.947829999999999950e-01 6.944200000000000372e-02
-3.035129999999999773e-01 -5.074530000000000429e-01 -2.677999999999999825e-01
1.532969999999999888e-01 -6.833569999999999922e-01 3.120040000000000036e-01
2.304489999999999872e-01 5.953330000000000011e-01 1.315359999999999863e-01
-1.386620000000000075e-01 5.685360000000000413e-01 3.296819999999999751e-01
-3.129049999999999887e-01 -1.763500000000000068e-01 7.839100000000000235e-02
-2.089080000000000104e-01 5.633510000000000462e-01 1.707819999999999894e-01
-2.275840000000000085e-01 3.423099999999999754e-02 2.492810000000000026e-01
2.043580000000000119e-01 1.352430000000000021e-01 2.647329999999999961e-01
2.117570000000000008e-01 -6.954890000000000239e-01 -1.571940000000000004e-01
1.489360000000000128e-01 2.590140000000000220e-01 -2.910929999999999906e-01
-9.201299999999999757e-02 8.965260000000000451e-01 1.280199999999999949e-01
2.947600000000000220e-01 1.245099999999999957e-01 -2.869450000000000056e-01
1.909349999999999936e-01 -6.800119999999999498e-01 -1.422849999999999948e-01
7.082499999999999907e-02 -4.550839999999999885e-01 -3.088750000000000107e-01
2.517929999999999890e-01 7.779789999999999761e-01 -1.878460000000000130e-01
2.588809999999999722e-01 6.892709999999999670e-01 -1.844030000000000113e-01
2.240669999999999884e-01 4.326729999999999743e-01 8.069700000000000484e-02
3.613800000000000345e-02 -1.627100000000000074e-02 -3.013460000000000027e-01
-2.024660000000000071e-01 -3.264029999999999987e-01 3.688400000000000012e-01
-2.508499999999999966e-02 -6.829699999999999660e-01 1.218640000000000001e-01
-3.384840000000000071e-01 7.774300000000000654e-02 -2.713309999999999889e-01
2.133379999999999999e-01 -4.280289999999999928e-01 -2.678079999999999905e-01
4.877599999999999991e-02 6.496229999999999505e-01 3.628959999999999964e-01
-3.786590000000000233e-01 -3.692799999999999971e-01 -9.487800000000000400e-02
2.079350000000000087e-01 2.598809999999999731e-01 1.393349999999999866e-01
2.957219999999999849e-01 1.349500000000000005e-02 1.803460000000000063e-01
-3.080890000000000017e-01 -2.088569999999999871e-01 1.412559999999999927e-01
-1.949849999999999917e-01 2.264130000000000031e-01 9.744800000000000684e-02
1.389319999999999999e-01 -5.322069999999999856e-01 3.911510000000000264e-01
9.746699999999999808e-02 3.670010000000000217e-01 4.232389999999999763e-01
1.221590000000000037e-01 -6.061950000000000394e-01 -3.400250000000000217e-01
