-6.807277202606201172e-01 1.734908223152160645e-01 1.486861109733581543e-01
-6.728720664978027344e-01 1.903193742036819458e-01 1.413888931274414062e-01
-6.607910394668579102e-01 1.823236644268035889e-01 1.644789427518844604e-01
3.607653677463531494e-01 -3.038391172885894775e-01 3.285076618194580078e-01
3.492556810379028320e-01 -3.028715252876281738e-01 3.479365706443786621e-01
3.540699779987335205e-01 -2.854023873805999756e-01 3.543229699134826660e-01
3.407843708992004395e-01 -2.843039631843566895e-01 3.750991821289062500e-01
-1.931519061326980591e-02 -3.503177165985107422e-01 -6.468376517295837402e-01
-2.019958011806011200e-02 -3.560471534729003906e-01 -6.278233528137207031e-01
-3.296332433819770813e-02 -3.421992957592010498e-01 -6.482017040252685547e-01
-3.444739803671836853e-02 -3.485903441905975342e-01 -6.285157799720764160e-01
-5.970469117164611816e-01 6.459324061870574951e-02 3.334237039089202881e-01
-5.891441106796264648e-01 5.879335105419158936e-02 3.500852584838867188e-01
-5.853830575942993164e-01 7.491383701562881470e-02 3.389606475830078125e-01
-5.769752264022827148e-01 6.922622025012969971e-02 3.563031852245330811e-01
2.904379665851593018e-01 -6.664934158325195312e-01 3.665257990360260010e-02
2.808797359466552734e-01 -6.707133054733276367e-01 6.151910871267318726e-02
2.969817817211151123e-01 -6.474641561508178711e-01 5.399567633867263794e-02
2.852344512939453125e-01 -6.507796049118041992e-01 8.053551614284515381e-02
-2.561415731906890869e-01 -3.853869438171386719e-01 3.420289754867553711e-01
-2.421768307685852051e-01 -3.794632852077484131e-01 3.676143288612365723e-01
-2.659901380538940430e-01 -3.653075397014617920e-01 3.611336350440979004e-01
-2.521693408489227295e-01 -3.588344454765319824e-01 3.876482844352722168e-01
4.020226895809173584e-01 -3.965552449226379395e-01 1.969507932662963867e-01
3.887836039066314697e-01 -3.990156948566436768e-01 2.199477851390838623e-01
3.939383029937744141e-01 -3.770534992218017578e-01 2.195884585380554199e-01
3.797335624694824219e-01 -3.791879415512084961e-01 2.430033385753631592e-01
-5.386582612991333008e-01 -1.543242037296295166e-01 -3.156527876853942871e-01
-5.427248477935791016e-01 -1.619730442762374878e-01 -2.952698469161987305e-01
-5.544393062591552734e-01 -1.459153443574905396e-01 -3.063816130161285400e-01
-5.598270893096923828e-01 -1.536227911710739136e-01 -2.852979600429534912e-01
-2.353633940219879150e-01 -1.710729748010635376e-01 -6.054285764694213867e-01
-2.402241975069046021e-01 -1.766556650400161743e-01 -5.867862105369567871e-01
-2.476980984210968018e-01 -1.592106372117996216e-01 -5.939716100692749023e-01
-2.529409825801849365e-01 -1.645214855670928955e-01 -5.755461454391479492e-01
-1.829075515270233154e-01 -3.359131515026092529e-01 4.779715538024902344e-01
-1.738270819187164307e-01 -3.306462466716766357e-01 4.984600841999053955e-01
-1.831565052270889282e-01 -3.172986209392547607e-01 5.045946836471557617e-01
-1.766936928033828735e-01 -3.102409243583679199e-01 5.250889062881469727e-01
-6.323997378349304199e-01 2.735624611377716064e-01 -9.629358351230621338e-02
-6.452098488807678223e-01 2.738340198993682861e-01 -7.725221663713455200e-02
-6.344496607780456543e-01 2.917082607746124268e-01 -7.438033819198608398e-02
-6.466356515884399414e-01 2.898390591144561768e-01 -5.509553849697113037e-02
4.585484415292739868e-02 7.774081230163574219e-01 -1.768313050270080566e-01
5.614466965198516846e-02 7.896619439125061035e-01 -1.515144705772399902e-01
4.022935032844543457e-02 7.990749478340148926e-01 -1.475806385278701782e-01
5.138196423649787903e-02 8.129403591156005859e-01 -1.207205727696418762e-01
-6.135564446449279785e-01 -3.379463553428649902e-01 3.542190045118331909e-02
-6.080441474914550781e-01 -3.337179422378540039e-01 6.317214667797088623e-02
-6.242552399635314941e-01 -3.206780254840850830e-01 5.556082352995872498e-02
-6.152423024177551270e-01 -3.153393864631652832e-01 8.235432207584381104e-02
2.867251038551330566e-01 1.772532761096954346e-01 -5.466479063034057617e-01
2.925476431846618652e-01 1.819122582674026489e-01 -5.276001095771789551e-01
2.800548672676086426e-01 1.965451985597610474e-01 -5.283169150352478027e-01
2.863664031028747559e-01 2.007793337106704712e-01 -5.100313425064086914e-01
3.535802662372589111e-01 5.080177783966064453e-01 -1.534045636653900146e-01
3.618060946464538574e-01 5.145184993743896484e-01 -1.302690953016281128e-01
3.521787822246551514e-01 5.241333842277526855e-01 -1.334705948829650879e-01
3.591941297054290771e-01 5.301775932312011719e-01 -1.095312163233757019e-01
-1.349505633115768433e-01 3.573172390460968018e-01 5.081050395965576172e-01
-1.257022321224212646e-01 3.470605909824371338e-01 5.292925834655761719e-01
-1.140206754207611084e-01 3.659179806709289551e-01 5.205061435699462891e-01
-1.043717935681343079e-01 3.547778129577636719e-01 5.415868759155273438e-01
9.378900378942489624e-02 7.680450081825256348e-01 -1.475158929824829102e-01
1.016583293676376343e-01 7.786992192268371582e-01 -1.236352175474166870e-01
7.960343360900878906e-02 7.862417101860046387e-01 -1.266708821058273315e-01
8.902230113744735718e-02 7.991333007812500000e-01 -1.014498174190521240e-01
4.117169380187988281e-01 1.124848499894142151e-01 -4.793094098567962646e-01
4.187449812889099121e-01 1.177705824375152588e-01 -4.606797099113464355e-01
4.053217470645904541e-01 1.279195696115493774e-01 -4.664708375930786133e-01
4.116849899291992188e-01 1.330527514219284058e-01 -4.481814503669738770e-01
3.476546406745910645e-01 -6.207033991813659668e-01 -4.124763607978820801e-02
3.492994606494903564e-01 -6.258663535118103027e-01 -2.101036906242370605e-02
3.594588339328765869e-01 -6.079847812652587891e-01 -2.548433095216751099e-02
3.590788543224334717e-01 -6.139717102050781250e-01 -6.078002043068408966e-03
-4.162259399890899658e-01 3.486039042472839355e-01 2.329810708761215210e-01
-4.073566496372222900e-01 3.404388129711151123e-01 2.540729045867919922e-01
-4.005292356014251709e-01 3.582149446010589600e-01 2.445995956659317017e-01
-3.921086490154266357e-01 3.494939506053924561e-01 2.660384476184844971e-01
2.604172825813293457e-01 5.943824648857116699e-01 -1.517278701066970825e-01
2.670759856700897217e-01 5.980635881423950195e-01 -1.329483538866043091e-01
2.536576390266418457e-01 6.077641844749450684e-01 -1.341316550970077515e-01
2.611372768878936768e-01 6.113140583038330078e-01 -1.149418354034423828e-01
1.156770810484886169e-02 -1.634422689676284790e-01 -8.527172207832336426e-01
1.070128288120031357e-02 -1.704356670379638672e-01 -8.346321582794189453e-01
-4.980284720659255981e-04 -1.553677618503570557e-01 -8.436108231544494629e-01
-2.039309591054916382e-03 -1.617915034294128418e-01 -8.255860805511474609e-01
2.719286680221557617e-01 -8.789901435375213623e-02 -6.415790319442749023e-01
2.868377268314361572e-01 -9.932275861501693726e-02 -6.158396601676940918e-01
2.853849530220031738e-01 -7.734835147857666016e-02 -6.338182687759399414e-01
3.009792268276214600e-01 -8.839079737663269043e-02 -6.070606708526611328e-01
-2.370496839284896851e-01 6.845818758010864258e-01 7.205138355493545532e-02
-2.283830344676971436e-01 6.755629181861877441e-01 9.716010093688964844e-02
-2.192270010709762573e-01 6.916568279266357422e-01 8.742968738079071045e-02
-2.110040634870529175e-01 6.831125020980834961e-01 1.108420193195343018e-01
8.844518065452575684e-01 2.017967589199542999e-02 9.481627494096755981e-02
8.747562766075134277e-01 1.680239476263523102e-02 1.113895699381828308e-01
8.705177307128906250e-01 3.379897028207778931e-02 1.099959015846252441e-01
8.617955446243286133e-01 3.017579391598701477e-02 1.258260458707809448e-01
-3.147827386856079102e-01 4.551177844405174255e-02 6.350813508033752441e-01
-3.015447556972503662e-01 4.068756476044654846e-02 6.586080193519592285e-01
-2.952689230442047119e-01 5.990426242351531982e-02 6.471694111824035645e-01
-2.819356322288513184e-01 4.907143115997314453e-02 6.692996025085449219e-01
-4.367197155952453613e-01 3.555507957935333252e-01 -2.095252126455307007e-01
-4.485157132148742676e-01 3.553009629249572754e-01 -1.914424002170562744e-01
-4.363432824611663818e-01 3.714470863342285156e-01 -1.882962882518768311e-01
-4.484900832176208496e-01 3.717202842235565186e-01 -1.707702577114105225e-01
1.494356393814086914e-01 -6.445966958999633789e-01 -2.106615602970123291e-01
1.558236777782440186e-01 -6.496273875236511230e-01 -1.938528865575790405e-01
1.615582406520843506e-01 -6.362178921699523926e-01 -1.997496932744979858e-01
1.678514033555984497e-01 -6.419358253479003906e-01 -1.836080700159072876e-01
-3.418758809566497803e-01 1.456878334283828735e-01 5.081774592399597168e-01
-3.310672640800476074e-01 1.364248991012573242e-01 5.331525206565856934e-01
-3.272106349468231201e-01 1.509521454572677612e-01 5.219436287879943848e-01
-3.153424263000488281e-01 1.416776925325393677e-01 5.464667677879333496e-01
-2.869561612606048584e-01 2.962650060653686523e-01 4.106705188751220703e-01
-2.772858142852783203e-01 2.868378162384033203e-01 4.375351965427398682e-01
-2.693859934806823730e-01 3.059590160846710205e-01 4.262759685516357422e-01
-2.595441639423370361e-01 2.976148426532745361e-01 4.518791139125823975e-01
2.363775521516799927e-01 -5.429715514183044434e-01 -2.257291674613952637e-01
2.424407005310058594e-01 -5.491706132888793945e-01 -2.070516049861907959e-01
2.456169128417968750e-01 -5.324191451072692871e-01 -2.131415605545043945e-01
2.521487772464752197e-01 -5.389991998672485352e-01 -1.954532712697982788e-01
-3.616477847099304199e-01 -3.794153332710266113e-01 2.480749636888504028e-01
-3.596449494361877441e-01 -3.760428130626678467e-01 2.643329203128814697e-01
-3.687766492366790771e-01 -3.686922490596771240e-01 2.630299329757690430e-01
-3.663124740123748779e-01 -3.654308021068572998e-01 2.793732881546020508e-01
-4.736288785934448242e-01 -4.833944141864776611e-01 -5.531511083245277405e-02
-4.754012227058410645e-01 -4.890114068984985352e-01 -3.368703275918960571e-02
-4.887061119079589844e-01 -4.740845561027526855e-01 -4.199090600013732910e-02
-4.897021949291229248e-01 -4.785692691802978516e-01 -1.948419213294982910e-02
3.668337166309356689e-01 1.815144121646881104e-01 4.432600736618041992e-01
3.606502115726470947e-01 1.737868636846542358e-01 4.645067453384399414e-01
3.514035046100616455e-01 1.870926916599273682e-01 4.587119519710540771e-01
3.444392979145050049e-01 1.797254979610443115e-01 4.804944992065429688e-01
4.261844456195831299e-01 -4.291854798793792725e-02 5.253624320030212402e-01
4.079952836036682129e-01 -4.471228644251823425e-02 5.503130555152893066e-01
4.187487959861755371e-01 -2.433819323778152466e-02 5.438093543052673340e-01
4.034475088119506836e-01 -2.650680020451545715e-02 5.680660009384155273e-01
-3.526274114847183228e-02 5.434949994087219238e-01 4.178356528282165527e-01
-2.336434833705425262e-02 5.381255745887756348e-01 4.345323145389556885e-01
-3.013606742024421692e-02 5.548582673072814941e-01 4.185393750667572021e-01
-1.916830614209175110e-02 5.494518876075744629e-01 4.359255433082580566e-01
-2.634577155113220215e-01 4.588087797164916992e-01 2.746550738811492920e-01
-2.554675936698913574e-01 4.495210945606231689e-01 2.952321469783782959e-01
-2.476314008235931396e-01 4.668477177619934082e-01 2.876451909542083740e-01
-2.389172613620758057e-01 4.572129547595977783e-01 3.077880740165710449e-01
1.124169910326600075e-03 -4.055664241313934326e-01 -5.866643190383911133e-01
-2.989896573126316071e-03 -4.154252111911773682e-01 -5.681545734405517578e-01
-1.583511009812355042e-02 -3.965839147567749023e-01 -5.876414179801940918e-01
-1.969521492719650269e-02 -4.062145054340362549e-01 -5.682725906372070312e-01
9.327562153339385986e-02 -9.077053070068359375e-01 -4.350629635155200958e-03
8.742707222700119019e-02 -9.139145612716674805e-01 1.727551221847534180e-02
1.010406389832496643e-01 -8.982049822807312012e-01 1.101383846253156662e-02
9.486337751150131226e-02 -9.021046757698059082e-01 3.081465139985084534e-02
-3.784603178501129150e-01 -4.270660504698753357e-02 5.815374851226806641e-01
-3.648493885993957520e-01 -4.018413648009300232e-02 6.023383140563964844e-01
-3.675754666328430176e-01 -2.636820264160633087e-02 5.996442437171936035e-01
-3.537020385265350342e-01 -2.498428337275981903e-02 6.215150356292724609e-01
1.231095194816589355e-01 -5.532733798027038574e-01 3.189251720905303955e-01
1.090867668390274048e-01 -5.561927556991577148e-01 3.427148759365081787e-01
1.206984817981719971e-01 -5.358420610427856445e-01 3.407758474349975586e-01
1.044237986207008362e-01 -5.372087359428405762e-01 3.643721342086791992e-01
2.076526433229446411e-01 -5.691881179809570312e-01 -2.326428592205047607e-01
2.129791975021362305e-01 -5.741961002349853516e-01 -2.123584002256393433e-01
2.190156728029251099e-01 -5.537787079811096191e-01 -2.171012014150619507e-01
2.250542342662811279e-01 -5.591319799423217773e-01 -1.979005932807922363e-01
3.773846328258514404e-01 1.853913664817810059e-01 -4.429299533367156982e-01
3.812772929668426514e-01 1.906551569700241089e-01 -4.238595962524414062e-01
3.693366050720214844e-01 2.022814750671386719e-01 -4.294750988483428955e-01
3.734308779239654541e-01 2.076229006052017212e-01 -4.097042083740234375e-01
8.997936546802520752e-02 7.241713404655456543e-01 1.765701770782470703e-01
8.543121814727783203e-02 7.171623110771179199e-01 1.965938657522201538e-01
7.415629923343658447e-02 7.356747388839721680e-01 1.849568784236907959e-01
6.908757239580154419e-02 7.279878258705139160e-01 2.053009569644927979e-01
-2.842822670936584473e-01 6.321327090263366699e-01 -8.768162876367568970e-02
-2.953348755836486816e-01 6.322417855262756348e-01 -6.629164516925811768e-02
-2.864332199096679688e-01 6.467486023902893066e-01 -6.371767818927764893e-02
-2.972709834575653076e-01 6.454021334648132324e-01 -4.159447550773620605e-02
-2.931711673736572266e-01 -5.313675999641418457e-01 -1.924192011356353760e-01
-2.976085543632507324e-01 -5.373007059097290039e-01 -1.705532521009445190e-01
-3.128553032875061035e-01 -5.185809135437011719e-01 -1.819920390844345093e-01
-3.171909749507904053e-01 -5.249636173248291016e-01 -1.614450812339782715e-01
2.115167081356048584e-01 -7.231088280677795410e-01 4.997126013040542603e-02
1.963807940483093262e-01 -7.236878275871276855e-01 7.240897417068481445e-02
2.022528350353240967e-01 -7.055345773696899414e-01 7.841346412897109985e-02
1.872583925724029541e-01 -7.053102254867553711e-01 9.899295121431350708e-02
-7.079694867134094238e-01 2.376797050237655640e-02 2.612445950508117676e-01
-6.936857104301452637e-01 2.012775465846061707e-02 2.807299196720123291e-01
-6.933055520057678223e-01 3.974160552024841309e-02 2.662162482738494873e-01
-6.815059781074523926e-01 3.487844020128250122e-02 2.862562239170074463e-01
8.992204666137695312e-01 2.284022420644760132e-02 6.336702406406402588e-02
8.926401138305664062e-01 1.924871094524860382e-02 8.273698389530181885e-02
8.877968788146972656e-01 3.825844451785087585e-02 7.233820110559463501e-02
8.809901475906372070e-01 3.474389761686325073e-02 9.025608748197555542e-02
-1.781589686870574951e-01 -4.644075036048889160e-01 3.515875339508056641e-01
-1.721399128437042236e-01 -4.607871174812316895e-01 3.662245571613311768e-01
-1.910895556211471558e-01 -4.515088498592376709e-01 3.607231974601745605e-01
-1.848224997520446777e-01 -4.478525817394256592e-01 3.752284944057464600e-01
-5.954027771949768066e-01 3.441109061241149902e-01 5.205674469470977783e-02
-5.959200859069824219e-01 3.342179059982299805e-01 7.251884788274765015e-02
-5.800579190254211426e-01 3.532201945781707764e-01 6.655833125114440918e-02
-5.786702036857604980e-01 3.418050706386566162e-01 8.769960701465606689e-02
-2.103603631258010864e-01 7.027601599693298340e-01 8.356954157352447510e-02
-2.021584808826446533e-01 6.944212913513183594e-01 1.075438186526298523e-01
-1.912057846784591675e-01 7.104951143264770508e-01 1.010723188519477844e-01
-1.830243468284606934e-01 7.010780572891235352e-01 1.233011707663536072e-01
4.889134764671325684e-01 4.515990912914276123e-01 -6.735198944807052612e-02
4.925798177719116211e-01 4.555270075798034668e-01 -4.970636218786239624e-02
4.816066622734069824e-01 4.667461812496185303e-01 -5.214629322290420532e-02
4.848355948925018311e-01 4.706425070762634277e-01 -3.534731641411781311e-02
3.237380981445312500e-01 -4.606410562992095947e-01 2.207793444395065308e-01
3.099415302276611328e-01 -4.586075544357299805e-01 2.428053170442581177e-01
3.147495090961456299e-01 -4.424591362476348877e-01 2.527248263359069824e-01
3.013620674610137939e-01 -4.400488436222076416e-01 2.752458453178405762e-01
9.305069446563720703e-01 -2.029570564627647400e-02 4.065775871276855469e-02
9.215381145477294922e-01 -2.322784252464771271e-02 6.178110465407371521e-02
9.261952638626098633e-01 -3.622947027906775475e-03 5.892677977681159973e-02
9.177023768424987793e-01 -6.415821146219968796e-03 7.924746721982955933e-02
-2.887983918190002441e-01 5.022442936897277832e-01 2.121959924697875977e-01
-2.803776860237121582e-01 4.930193424224853516e-01 2.340775430202484131e-01
-2.706479430198669434e-01 5.106765627861022949e-01 2.192036211490631104e-01
-2.621032297611236572e-01 5.015814900398254395e-01 2.390203922986984253e-01
-9.850765019655227661e-02 2.893895208835601807e-01 -6.152277588844299316e-01
-1.136493533849716187e-01 2.898310422897338867e-01 -5.938181877136230469e-01
-1.044840812683105469e-01 3.067907392978668213e-01 -5.884910821914672852e-01
-1.199039965867996216e-01 3.073957562446594238e-01 -5.669984817504882812e-01
-4.325361922383308411e-02 -1.081808060407638550e-01 -8.595388531684875488e-01
-4.579708352684974670e-02 -1.150939837098121643e-01 -8.406341075897216797e-01
-5.593271926045417786e-02 -9.635588526725769043e-02 -8.535519838333129883e-01
-5.866180360317230225e-02 -1.038806810975074768e-01 -8.345429301261901855e-01
-1.500369161367416382e-01 -4.313910007476806641e-01 -4.293219149112701416e-01
-1.561635136604309082e-01 -4.381516277790069580e-01 -4.064540863037109375e-01
-1.655182987451553345e-01 -4.167111515998840332e-01 -4.179469347000122070e-01
-1.718547195196151733e-01 -4.234663546085357666e-01 -3.951376974582672119e-01
-1.028540059924125671e-01 6.845595240592956543e-01 -2.118301689624786377e-01
-1.168293356895446777e-01 6.853062510490417480e-01 -1.921242177486419678e-01
-1.079667285084724426e-01 7.010040879249572754e-01 -1.890091001987457275e-01
-1.222539544105529785e-01 7.021225094795227051e-01 -1.694450527429580688e-01
5.287998914718627930e-01 9.871201217174530029e-02 -3.865529298782348633e-01
5.385577082633972168e-01 1.048459112644195557e-01 -3.603436350822448730e-01
5.234463214874267578e-01 1.155776679515838623e-01 -3.710811436176300049e-01
5.328680872917175293e-01 1.214010566473007202e-01 -3.462761640548706055e-01
-1.297326833009719849e-01 -2.993009090423583984e-01 5.703797936439514160e-01
-1.216351985931396484e-01 -2.917672395706176758e-01 5.914747714996337891e-01
-1.468870788812637329e-01 -2.767951488494873047e-01 5.806553959846496582e-01
-1.374742239713668823e-01 -2.698830366134643555e-01 6.020353436470031738e-01
3.911184370517730713e-01 1.346953958272933960e-01 4.657511115074157715e-01
3.864004015922546387e-01 1.287919133901596069e-01 4.842361211776733398e-01
3.777947723865509033e-01 1.438128650188446045e-01 4.732764065265655518e-01
3.724365234375000000e-01 1.374397873878479004e-01 4.928313791751861572e-01
4.268908500671386719e-01 -3.858967125415802002e-01 -1.921684145927429199e-01
4.360886514186859131e-01 -3.944999873638153076e-01 -1.694096475839614868e-01
4.405695497989654541e-01 -3.762798011302947998e-01 -1.803920716047286987e-01
4.488293230533599854e-01 -3.853213489055633545e-01 -1.568947285413742065e-01
4.261895120143890381e-01 -2.485835701227188110e-01 3.246840834617614746e-01
4.141266047954559326e-01 -2.477347850799560547e-01 3.427613973617553711e-01
4.195996820926666260e-01 -2.340903133153915405e-01 3.471235632896423340e-01
4.074645936489105225e-01 -2.324049770832061768e-01 3.653975129127502441e-01
-4.026601016521453857e-01 -3.676535785198211670e-01 -2.398265749216079712e-01
-4.100081026554107666e-01 -3.739047348499298096e-01 -2.165759801864624023e-01
-4.182582199573516846e-01 -3.569389283657073975e-01 -2.236636281013488770e-01
-4.260330200195312500e-01 -3.629822731018066406e-01 -2.007777690887451172e-01
4.391200467944145203e-02 3.062404990196228027e-01 6.409546732902526855e-01
3.684133663773536682e-02 2.969290018081665039e-01 6.619631052017211914e-01
2.954690903425216675e-02 3.138017058372497559e-01 6.529205441474914551e-01
2.233278006315231323e-02 3.044818043708801270e-01 6.738163232803344727e-01
-6.385288238525390625e-01 -2.719577252864837646e-01 7.541441172361373901e-02
-6.286345124244689941e-01 -2.634499967098236084e-01 1.014086529612541199e-01
-6.421166658401489258e-01 -2.518929839134216309e-01 9.761512279510498047e-02
-6.329786181449890137e-01 -2.431632131338119507e-01 1.224363148212432861e-01
9.792286902666091919e-02 -1.283362209796905518e-01 7.746356129646301270e-01
8.361822366714477539e-02 -1.259937882423400879e-01 7.935449481010437012e-01
9.072595834732055664e-02 -1.044723391532897949e-01 7.982758283615112305e-01
7.830846309661865234e-02 -1.025947630405426025e-01 8.149489760398864746e-01
-1.087785735726356506e-01 3.600274324417114258e-01 -5.378280878067016602e-01
-1.230115517973899841e-01 3.612305223941802979e-01 -5.170031189918518066e-01
-1.095572859048843384e-01 3.797624409198760986e-01 -5.157614946365356445e-01
-1.223746910691261292e-01 3.817659318447113037e-01 -4.967460036277770996e-01
2.161330729722976685e-02 9.207941889762878418e-01 5.075861513614654541e-02
1.929341442883014679e-02 9.128779172897338867e-01 7.176644355058670044e-02
4.525891505181789398e-03 9.285157322883605957e-01 5.668099597096443176e-02
2.511903177946805954e-03 9.191964268684387207e-01 7.503287494182586670e-02
9.359537065029144287e-02 4.005810022354125977e-01 -5.184960961341857910e-01
1.020363643765449524e-01 4.057261943817138672e-01 -4.980143904685974121e-01
8.165886998176574707e-02 4.174709022045135498e-01 -5.079928040504455566e-01
9.099797159433364868e-02 4.227788448333740234e-01 -4.872358441352844238e-01
-2.058102637529373169e-01 8.467307686805725098e-02 -7.059313654899597168e-01
-2.195490747690200806e-01 8.817938715219497681e-02 -6.864084005355834961e-01
-2.059836983680725098e-01 1.076270192861557007e-01 -6.897116899490356445e-01
-2.198761701583862305e-01 1.107486560940742493e-01 -6.697581410408020020e-01
4.633211195468902588e-01 -3.060569465160369873e-01 -2.303655296564102173e-01
4.719621837139129639e-01 -3.122482895851135254e-01 -2.118611037731170654e-01
4.813557267189025879e-01 -2.979699671268463135e-01 -2.156761586666107178e-01
4.894450008869171143e-01 -3.042662143707275391e-01 -1.974519342184066772e-01
3.132524490356445312e-01 1.464834362268447876e-01 5.295634865760803223e-01
3.074891269207000732e-01 1.393082141876220703e-01 5.504106283187866211e-01
2.990275621414184570e-01 1.641083508729934692e-01 5.371244549751281738e-01
2.939968705177307129e-01 1.565439552068710327e-01 5.573024153709411621e-01
3.071000277996063232e-01 -4.333698153495788574e-01 2.505511045455932617e-01
2.937125861644744873e-01 -4.309595227241516113e-01 2.730721235275268555e-01
2.988411486148834229e-01 -4.130729436874389648e-01 2.818357348442077637e-01
2.852103710174560547e-01 -4.111494421958923340e-01 3.039995133876800537e-01
-8.076771348714828491e-02 7.908976823091506958e-02 8.384063839912414551e-01
-6.931594014167785645e-02 7.047383487224578857e-02 8.590614795684814453e-01
-6.631762534379959106e-02 9.188291430473327637e-02 8.465803861618041992e-01
-5.817206203937530518e-02 8.458044379949569702e-02 8.674931526184082031e-01
-2.335676252841949463e-01 2.724952399730682373e-01 4.859475195407867432e-01
-2.227689027786254883e-01 2.650112807750701904e-01 5.099009871482849121e-01
-2.134364694356918335e-01 2.818905711174011230e-01 5.020130872726440430e-01
-2.034063637256622314e-01 2.753366231918334961e-01 5.251086950302124023e-01
6.460855603218078613e-01 -1.605704724788665771e-01 -1.962409913539886475e-01
6.538264155387878418e-01 -1.678424179553985596e-01 -1.758764386177062988e-01
6.583963036537170410e-01 -1.513264924287796021e-01 -1.866579800844192505e-01
6.663513779640197754e-01 -1.589642465114593506e-01 -1.662698686122894287e-01
1.441672891378402710e-01 7.101336717605590820e-01 -1.551178991794586182e-01
1.488066613674163818e-01 7.170522809028625488e-01 -1.306500583887100220e-01
1.372972875833511353e-01 7.275853157043457031e-01 -1.378706395626068115e-01
1.432005614042282104e-01 7.357067465782165527e-01 -1.138619035482406616e-01
3.895611464977264404e-01 -4.439721405506134033e-01 -1.701833307743072510e-01
4.000599086284637451e-01 -4.541404843330383301e-01 -1.469807475805282593e-01
4.108868539333343506e-01 -4.353424012660980225e-01 -1.554823368787765503e-01
4.211597740650177002e-01 -4.448208212852478027e-01 -1.315910816192626953e-01
2.593049407005310059e-01 -2.192785739898681641e-01 -5.230671763420104980e-01
2.658630311489105225e-01 -2.249965220689773560e-01 -5.062806606292724609e-01
2.762247323989868164e-01 -2.104115188121795654e-01 -5.117064118385314941e-01
2.833349704742431641e-01 -2.170487046241760254e-01 -4.939382374286651611e-01
5.275470614433288574e-01 -1.384764015674591064e-01 -3.417579531669616699e-01
5.360545516014099121e-01 -1.460538059473037720e-01 -3.223482668399810791e-01
5.389295220375061035e-01 -1.310807764530181885e-01 -3.292327523231506348e-01
5.489025712013244629e-01 -1.387733221054077148e-01 -3.098072111606597900e-01
5.760604739189147949e-01 -2.989246845245361328e-01 -1.249054744839668274e-01
5.841058492660522461e-01 -3.073882162570953369e-01 -1.067796200513839722e-01
5.962638854980468750e-01 -2.870659530162811279e-01 -1.128095164895057678e-01
6.047571897506713867e-01 -2.953835129737854004e-01 -9.279874712228775024e-02
-5.131619572639465332e-01 -4.552338421344757080e-01 8.592295460402965546e-03
-5.116838216781616211e-01 -4.555985927581787109e-01 3.253126144409179688e-02
-5.275842547416687012e-01 -4.427061975002288818e-01 2.244762331247329712e-02
-5.249418020248413086e-01 -4.422056376934051514e-01 4.679170250892639160e-02
-3.300660550594329834e-01 3.912341892719268799e-01 -2.831069529056549072e-01
-3.435833156108856201e-01 3.913394510746002197e-01 -2.665075957775115967e-01
-3.327108621597290039e-01 4.055980741977691650e-01 -2.654849886894226074e-01
-3.465665876865386963e-01 4.057683646678924561e-01 -2.488640844821929932e-01
-4.650681912899017334e-01 -1.656680703163146973e-01 -3.795461654663085938e-01
-4.677363336086273193e-01 -1.706822663545608521e-01 -3.583369553089141846e-01
-4.845077693462371826e-01 -1.556614339351654053e-01 -3.646114468574523926e-01
-4.859522879123687744e-01 -1.608837246894836426e-01 -3.434762060642242432e-01
3.820537924766540527e-01 -4.252729713916778564e-01 1.874529868364334106e-01
3.665612041950225830e-01 -4.266414344310760498e-01 2.105492800474166870e-01
3.776558041572570801e-01 -4.046223461627960205e-01 2.154182791709899902e-01
3.615042269229888916e-01 -4.057833254337310791e-01 2.400979399681091309e-01
3.935566246509552002e-01 -1.955862045288085938e-01 4.090808331966400146e-01
3.809279501438140869e-01 -1.937065273523330688e-01 4.268752634525299072e-01
3.919240832328796387e-01 -1.779481470584869385e-01 4.331446588039398193e-01
3.776105344295501709e-01 -1.757390499114990234e-01 4.517645835876464844e-01
4.405995905399322510e-01 5.441061258316040039e-01 -2.724050544202327728e-02
4.458618462085723877e-01 5.471559166908264160e-01 -4.806771874427795410e-03
4.338758885860443115e-01 5.555094480514526367e-01 -1.175767742097377777e-02
4.396576881408691406e-01 5.574635863304138184e-01 1.099961157888174057e-02
1.987748779356479645e-02 3.198035061359405518e-01 6.519197821617126465e-01
1.210124604403972626e-02 3.083366453647613525e-01 6.724789738655090332e-01
6.198850460350513458e-03 3.323839902877807617e-01 6.582981348037719727e-01
-4.367008805274963379e-04 3.212477564811706543e-01 6.779831051826477051e-01
2.556034624576568604e-01 7.553826570510864258e-01 -2.603691816329956055e-02
2.567956447601318359e-01 7.518388032913208008e-01 -3.609138075262308121e-03
2.345366030931472778e-01 7.705590724945068359e-01 -1.506007276475429535e-02
2.369825243949890137e-01 7.683443427085876465e-01 7.717408239841461182e-03
-5.518895387649536133e-01 -4.744316264986991882e-02 -4.138916134834289551e-01
-5.623423457145690918e-01 -5.095592141151428223e-02 -3.936032056808471680e-01
-5.638542175292968750e-01 -2.785885706543922424e-02 -4.113351106643676758e-01
-5.744537115097045898e-01 -3.031382337212562561e-02 -3.916127383708953857e-01
7.077388465404510498e-02 -7.519966363906860352e-01 -1.843553185462951660e-01
7.366167753934860229e-02 -7.594332098960876465e-01 -1.651482135057449341e-01
8.560560643672943115e-02 -7.418960928916931152e-01 -1.723554879426956177e-01
9.018384665250778198e-02 -7.501494884490966797e-01 -1.537358760833740234e-01
5.357902646064758301e-01 -1.628046631813049316e-01 2.954734563827514648e-01
5.236660838127136230e-01 -1.626161187887191772e-01 3.145781159400939941e-01
5.311636924743652344e-01 -1.499931365251541138e-01 3.198700547218322754e-01
5.190075635910034180e-01 -1.491923928260803223e-01 3.378824293613433838e-01
2.003944665193557739e-01 -2.729394286870956421e-02 7.661125063896179199e-01
1.876318752765655518e-01 -2.970143035054206848e-02 7.859942913055419922e-01
1.954742223024368286e-01 -9.340646676719188690e-03 7.818325161933898926e-01
1.825952231884002686e-01 -1.200617104768753052e-02 8.024226427078247070e-01
1.181314289569854736e-01 -8.461239933967590332e-01 2.635942026972770691e-02
1.079428419470787048e-01 -8.456048369407653809e-01 4.516084119677543640e-02
1.149564683437347412e-01 -8.281277418136596680e-01 4.984420165419578552e-02
1.033860221505165100e-01 -8.270022869110107422e-01 6.890194118022918701e-02
-8.407174050807952881e-02 -4.801653623580932617e-01 -4.423742890357971191e-01
-8.944215625524520874e-02 -4.863539040088653564e-01 -4.228704869747161865e-01
-1.065461784601211548e-01 -4.693348109722137451e-01 -4.335112869739532471e-01
-1.127387732267379761e-01 -4.758775234222412109e-01 -4.118976891040802002e-01
-1.692459732294082642e-01 -1.751870810985565186e-01 6.400915980339050293e-01
-1.608629673719406128e-01 -1.682330965995788574e-01 6.632812619209289551e-01
-1.839619576930999756e-01 -1.554768979549407959e-01 6.545420289039611816e-01
-1.748935282230377197e-01 -1.485340297222137451e-01 6.782435178756713867e-01
-4.975295364856719971e-01 3.250098526477813721e-01 -1.789903193712234497e-01
-5.084457993507385254e-01 3.236536085605621338e-01 -1.611340194940567017e-01
-4.991346299648284912e-01 3.403382301330566406e-01 -1.546799093484878540e-01
-5.093666911125183105e-01 3.394559621810913086e-01 -1.368810683488845825e-01
-6.150011420249938965e-01 2.761815786361694336e-01 1.075159907341003418e-01
-6.077316403388977051e-01 2.652004361152648926e-01 1.309926211833953857e-01
-5.968300104141235352e-01 2.816330194473266602e-01 1.220008507370948792e-01
-5.885789394378662109e-01 2.705589532852172852e-01 1.444476544857025146e-01
1.337045282125473022e-01 6.758435368537902832e-01 1.831988394260406494e-01
1.273138225078582764e-01 6.719927787780761719e-01 2.026057988405227661e-01
1.152770742774009705e-01 6.911464929580688477e-01 1.863039880990982056e-01
1.093835905194282532e-01 6.858923435211181641e-01 2.065859586000442505e-01
3.647363483905792236e-01 -4.652940630912780762e-01 1.642937958240509033e-01
3.496041595935821533e-01 -4.652950465679168701e-01 1.858588308095932007e-01
3.623392283916473389e-01 -4.455916285514831543e-01 1.931661516427993774e-01
3.462770581245422363e-01 -4.461331963539123535e-01 2.160378098487854004e-01
8.452984690666198730e-01 -8.076301962137222290e-02 7.113377749919891357e-02
8.343082666397094727e-01 -8.035898953676223755e-02 8.662236481904983521e-02
8.445726633071899414e-01 -6.571937352418899536e-02 8.548996597528457642e-02
8.327946066856384277e-01 -6.604321300983428955e-02 1.011470481753349304e-01
6.659712195396423340e-01 2.001090794801712036e-01 -1.387870013713836670e-01
6.760177016258239746e-01 2.056855559349060059e-01 -1.157955154776573181e-01
6.567812561988830566e-01 2.167256325483322144e-01 -1.215241998434066772e-01
6.676654815673828125e-01 2.217478752136230469e-01 -9.804436564445495605e-02
2.306000888347625732e-01 -9.245029091835021973e-02 6.797162890434265137e-01
2.162558585405349731e-01 -9.245086461305618286e-02 6.992570161819458008e-01
2.239901423454284668e-01 -7.426173239946365356e-02 7.007582783699035645e-01
2.107749581336975098e-01 -7.407191395759582520e-02 7.191635370254516602e-01
2.018777728080749512e-01 3.609785139560699463e-01 4.269591867923736572e-01
1.968449801206588745e-01 3.536213040351867676e-01 4.514526724815368652e-01
1.845720857381820679e-01 3.713812232017517090e-01 4.458862841129302979e-01
1.803528219461441040e-01 3.644420206546783447e-01 4.701440632343292236e-01
1.092167720198631287e-01 -1.547853499650955200e-01 -7.371374368667602539e-01
1.168581843376159668e-01 -1.637010276317596436e-01 -7.183845639228820801e-01
1.201589703559875488e-01 -1.486877799034118652e-01 -7.292395234107971191e-01
1.278917044401168823e-01 -1.575143635272979736e-01 -7.096062898635864258e-01
6.029004454612731934e-01 -5.893827602267265320e-02 3.264346420764923096e-01
5.872610211372375488e-01 -5.920822545886039734e-02 3.472465276718139648e-01
5.958157777786254883e-01 -4.344801604747772217e-02 3.426472842693328857e-01
5.816556811332702637e-01 -4.481382295489311218e-02 3.642247617244720459e-01
3.007430434226989746e-01 6.702845096588134766e-01 1.016672328114509583e-02
3.008599281311035156e-01 6.635219454765319824e-01 3.176628053188323975e-02
2.927669882774353027e-01 6.762047410011291504e-01 2.580046653747558594e-02
2.911018431186676025e-01 6.696575284004211426e-01 4.633568599820137024e-02
1.923064291477203369e-01 -3.027603924274444580e-01 -5.152783989906311035e-01
1.963640749454498291e-01 -3.112138807773590088e-01 -4.913770556449890137e-01
2.034142315387725830e-01 -2.882425189018249512e-01 -5.037490725517272949e-01
2.065484225749969482e-01 -2.956548333168029785e-01 -4.820335507392883301e-01
-5.748545527458190918e-01 4.267797470092773438e-01 -2.105220407247543335e-02
-5.792589783668518066e-01 4.193221330642700195e-01 -6.004665046930313110e-04
-5.655007958412170410e-01 4.374508559703826904e-01 5.815892480313777924e-03
-5.684995651245117188e-01 4.285341501235961914e-01 2.574974298477172852e-02
-4.859213232994079590e-01 -2.021511942148208618e-01 3.022562563419342041e-01
-4.780136942863464355e-01 -1.939317733049392700e-01 3.223442435264587402e-01
-4.928693771362304688e-01 -1.861869990825653076e-01 3.190888166427612305e-01
-4.853188991546630859e-01 -1.782801598310470581e-01 3.387070000171661377e-01
3.513009548187255859e-01 2.820324301719665527e-01 -3.759877085685729980e-01
3.577528893947601318e-01 2.869626581668853760e-01 -3.598259985446929932e-01
3.436782956123352051e-01 2.986356616020202637e-01 -3.617542982101440430e-01
3.503956198692321777e-01 3.033567368984222412e-01 -3.453908264636993408e-01
-2.473124414682388306e-01 4.135214388370513916e-01 -3.444823920726776123e-01
-2.603068351745605469e-01 4.146008789539337158e-01 -3.272775113582611084e-01
-2.496834695339202881e-01 4.335782825946807861e-01 -3.212256133556365967e-01
-2.631218135356903076e-01 4.351200759410858154e-01 -3.037198185920715332e-01
1.818833798170089722e-01 3.740399181842803955e-01 -4.470099210739135742e-01
1.918873786926269531e-01 3.790222704410552979e-01 -4.261068701744079590e-01
1.677911281585693359e-01 3.943511545658111572e-01 -4.341497123241424561e-01
1.780908107757568359e-01 3.988398015499114990e-01 -4.129739701747894287e-01
-3.091278076171875000e-01 3.018367849290370941e-02 -6.627969741821289062e-01
-3.218757212162017822e-01 2.915807068347930908e-02 -6.409509778022766113e-01
-3.182352483272552490e-01 4.547423869371414185e-02 -6.411640048027038574e-01
-3.320555984973907471e-01 4.621292650699615479e-02 -6.195967197418212891e-01
6.098747719079256058e-03 -8.492200970649719238e-01 -1.500655263662338257e-01
1.573975081555545330e-03 -8.567132353782653809e-01 -1.307684183120727539e-01
-1.122090034186840057e-02 -8.446605801582336426e-01 -1.417752951383590698e-01
-1.617876999080181122e-02 -8.514299392700195312e-01 -1.220440417528152466e-01
-8.296881318092346191e-01 -1.125710979104042053e-01 4.739834740757942200e-02
-8.243447542190551758e-01 -1.065825745463371277e-01 6.718686223030090332e-02
-8.473165631294250488e-01 -9.546671062707901001e-02 5.862518399953842163e-02
-8.416353464126586914e-01 -9.031882882118225098e-02 7.889458537101745605e-02
2.868529558181762695e-01 -9.007607400417327881e-02 6.225853562355041504e-01
2.723239064216613770e-01 -9.135459363460540771e-02 6.441463232040405273e-01
2.788069248199462891e-01 -7.403549551963806152e-02 6.505601406097412109e-01
2.639537453651428223e-01 -7.512714713811874390e-02 6.715780496597290039e-01
-7.017947435379028320e-01 8.232086151838302612e-02 2.137519419193267822e-01
-6.887308359146118164e-01 7.499942183494567871e-02 2.368228286504745483e-01
-6.793953180313110352e-01 9.135237336158752441e-02 2.285107523202896118e-01
-6.675171256065368652e-01 8.416286110877990723e-02 2.499000728130340576e-01
1.080712899565696716e-01 3.612868487834930420e-01 -5.325229763984680176e-01
1.138531044125556946e-01 3.673272728919982910e-01 -5.131683945655822754e-01
9.876403957605361938e-02 3.781040012836456299e-01 -5.219091176986694336e-01
1.054939851164817810e-01 3.833389878273010254e-01 -5.028174519538879395e-01
1.424207985401153564e-01 -6.596481204032897949e-01 -2.025652825832366943e-01
1.493166238069534302e-01 -6.643518209457397461e-01 -1.847257167100906372e-01
1.554834693670272827e-01 -6.500360965728759766e-01 -1.914005279541015625e-01
1.618161052465438843e-01 -6.550232768058776855e-01 -1.739345788955688477e-01
7.852586507797241211e-01 -4.489915817975997925e-02 1.711507886648178101e-01
7.724813222885131836e-01 -4.759232327342033386e-02 1.891021579504013062e-01
7.784579992294311523e-01 -2.473349869251251221e-02 1.826166063547134399e-01
7.658700942993164062e-01 -2.817779406905174255e-02 1.997618079185485840e-01
1.355432067066431046e-02 -9.126816987991333008e-01 -8.128952980041503906e-02
9.834261611104011536e-03 -9.220904111862182617e-01 -6.220582872629165649e-02
-5.017481278628110886e-03 -9.088455438613891602e-01 -7.633794844150543213e-02
-9.140665642917156219e-03 -9.171698093414306641e-01 -5.594596266746520996e-02
1.727927774190902710e-01 9.168960899114608765e-02 -7.397872209548950195e-01
1.802600175142288208e-01 9.765184670686721802e-02 -7.180901169776916504e-01
1.659955829381942749e-01 1.074063032865524292e-01 -7.199945449829101562e-01
1.745109409093856812e-01 1.145480424165725708e-01 -6.968064904212951660e-01
-4.611370265483856201e-01 1.201707124710083008e-01 4.173757731914520264e-01
-4.509517550468444824e-01 1.105699613690376282e-01 4.390473961830139160e-01
-4.459676146507263184e-01 1.305426806211471558e-01 4.254517257213592529e-01
-4.342535734176635742e-01 1.213978305459022522e-01 4.493385553359985352e-01
-5.099254846572875977e-01 -2.904268801212310791e-01 -2.126929014921188354e-01
-5.146880149841308594e-01 -2.993303835391998291e-01 -1.860724538564682007e-01
-5.274614095687866211e-01 -2.797302305698394775e-01 -1.985463052988052368e-01
-5.323696136474609375e-01 -2.889313697814941406e-01 -1.717294007539749146e-01
3.953963220119476318e-01 4.153121709823608398e-01 1.786686331033706665e-01
3.879230022430419922e-01 4.086590409278869629e-01 2.009279429912567139e-01
3.836434483528137207e-01 4.272511899471282959e-01 1.879816353321075439e-01
3.754236400127410889e-01 4.207241833209991455e-01 2.095077782869338989e-01
1.533242911100387573e-01 -6.883438825607299805e-01 -1.691510081291198730e-01
1.590398848056793213e-01 -6.939131617546081543e-01 -1.480378508567810059e-01
1.679448336362838745e-01 -6.766382455825805664e-01 -1.562082916498184204e-01
1.735351383686065674e-01 -6.821407675743103027e-01 -1.364105492830276489e-01
-8.709630370140075684e-02 -6.416600942611694336e-01 -2.791907191276550293e-01
-9.162782132625579834e-02 -6.454890370368957520e-01 -2.622996866703033447e-01
-1.007175818085670471e-01 -6.307117342948913574e-01 -2.695021331310272217e-01
-1.051851585507392883e-01 -6.341677904129028320e-01 -2.529779076576232910e-01
-4.010538756847381592e-01 4.250075817108154297e-01 1.719162762165069580e-01
-3.915430903434753418e-01 4.173490405082702637e-01 1.918865591287612915e-01
-3.832426965236663818e-01 4.371624588966369629e-01 1.771337985992431641e-01
-3.745210766792297363e-01 4.301978945732116699e-01 1.977627724409103394e-01
3.972755074501037598e-01 3.739829361438751221e-01 2.233258485794067383e-01
3.908315896987915039e-01 3.680070936679840088e-01 2.425335198640823364e-01
3.820236325263977051e-01 3.860242068767547607e-01 2.297506481409072876e-01
3.756170272827148438e-01 3.794532120227813721e-01 2.491887509822845459e-01
8.817871212959289551e-01 -1.119256392121315002e-01 -6.994921714067459106e-04
8.778408765792846680e-01 -1.149563714861869812e-01 1.549628935754299164e-02
8.828111886978149414e-01 -1.037976294755935669e-01 1.419212669134140015e-02
8.772706985473632812e-01 -1.063719615340232849e-01 3.122032806277275085e-02
2.474049329757690430e-01 7.195574045181274414e-01 1.531284861266613007e-02
2.446609437465667725e-01 7.142512202262878418e-01 3.598218783736228943e-02
2.371670454740524292e-01 7.321797609329223633e-01 3.047690168023109436e-02
2.340966612100601196e-01 7.272516489028930664e-01 5.027491599321365356e-02
6.500808596611022949e-01 -4.707663133740425110e-02 3.033679127693176270e-01
6.349119544029235840e-01 -4.949919879436492920e-02 3.257330060005187988e-01
6.384801268577575684e-01 -3.230287134647369385e-02 3.177285194396972656e-01
6.239098310470581055e-01 -3.417889401316642761e-02 3.409125208854675293e-01
-1.956593394279479980e-01 -7.299208641052246094e-01 6.439055502414703369e-02
-1.859209090471267700e-01 -7.245931029319763184e-01 9.392569959163665771e-02
-2.079809606075286865e-01 -7.136220335960388184e-01 8.529726415872573853e-02
-1.980110406875610352e-01 -7.084144353866577148e-01 1.148495152592658997e-01
-2.144035249948501587e-01 -4.379629492759704590e-01 3.424812555313110352e-01
-2.057073265314102173e-01 -4.349539577960968018e-01 3.583196997642517090e-01
-2.199241220951080322e-01 -4.227844774723052979e-01 3.597791492938995361e-01
-2.117197960615158081e-01 -4.194965064525604248e-01 3.759728372097015381e-01
-8.674261160194873810e-03 7.838964462280273438e-01 -2.038292288780212402e-01
-2.444515004754066467e-03 7.977488040924072266e-01 -1.761041730642318726e-01
-2.997627109289169312e-02 8.082222342491149902e-01 -1.771961599588394165e-01
-2.715538442134857178e-02 8.208571672439575195e-01 -1.491918861865997314e-01
-2.014198601245880127e-01 -1.630371510982513428e-01 6.321570277214050293e-01
-1.923633217811584473e-01 -1.558892726898193359e-01 6.571412682533264160e-01
-2.063267379999160767e-01 -1.439889669418334961e-01 6.484523415565490723e-01
-1.970777511596679688e-01 -1.368415802717208862e-01 6.728600263595581055e-01
-1.844907850027084351e-01 -6.164089962840080261e-02 7.762888073921203613e-01
-1.730951517820358276e-01 -5.387305095791816711e-02 7.995861172676086426e-01
-1.913968622684478760e-01 -3.307195007801055908e-02 7.785234451293945312e-01
-1.750185936689376831e-01 -3.078779391944408417e-02 8.017426133155822754e-01
7.850202172994613647e-02 -7.790749073028564453e-01 -1.474763005971908569e-01
8.038568496704101562e-02 -7.885736227035522461e-01 -1.282365322113037109e-01
9.342973679304122925e-02 -7.700186967849731445e-01 -1.375518143177032471e-01
9.824095666408538818e-02 -7.787328362464904785e-01 -1.183179318904876709e-01
8.398614525794982910e-01 1.136252209544181824e-01 2.745340764522552490e-02
8.385211229324340820e-01 1.051216274499893188e-01 5.045000091195106506e-02
8.275253176689147949e-01 1.221830621361732483e-01 4.712508991360664368e-02
8.249481916427612305e-01 1.137383133172988892e-01 6.994569301605224609e-02
-3.412672579288482666e-01 -6.441438794136047363e-01 -3.696499764919281006e-02
-3.444086015224456787e-01 -6.493324637413024902e-01 -1.332213636487722397e-02
-3.641398549079895020e-01 -6.290130019187927246e-01 -1.855290867388248444e-02
-3.648087084293365479e-01 -6.331896781921386719e-01 6.827951408922672272e-03
4.621703028678894043e-01 -5.057175159454345703e-01 -4.304892197251319885e-02
4.665377140045166016e-01 -5.141570568084716797e-01 -2.041438780725002289e-02
4.800961017608642578e-01 -4.988286197185516357e-01 -3.029428794980049133e-02
4.775091707706451416e-01 -5.049684047698974609e-01 -7.738111540675163269e-03
-8.489549905061721802e-02 -7.586085200309753418e-01 -1.663282960653305054e-01
-9.190532565116882324e-02 -7.642069458961486816e-01 -1.445015519857406616e-01
-1.010655537247657776e-01 -7.459450960159301758e-01 -1.576779633760452271e-01
-1.073420718312263489e-01 -7.509375214576721191e-01 -1.368999034166336060e-01
-1.070537120103836060e-01 -1.836055964231491089e-01 7.058396935462951660e-01
-9.770046919584274292e-02 -1.799291372299194336e-01 7.238861918449401855e-01
-1.120749413967132568e-01 -1.712321937084197998e-01 7.227609157562255859e-01
-1.026263087987899780e-01 -1.676240265369415283e-01 7.412654161453247070e-01
1.785747855901718140e-01 -8.966423571109771729e-02 7.274035215377807617e-01
1.667668819427490234e-01 -8.891086280345916748e-02 7.443113923072814941e-01
1.686401218175888062e-01 -7.840358465909957886e-02 7.495013475418090820e-01
1.571580618619918823e-01 -7.781583815813064575e-02 7.665023207664489746e-01
4.209710657596588135e-02 -5.374724268913269043e-01 -4.597877562046051025e-01
3.504601120948791504e-02 -5.471079349517822266e-01 -4.440358579158782959e-01
2.078811451792716980e-02 -5.285523533821105957e-01 -4.580167233943939209e-01
1.328529324382543564e-02 -5.364125967025756836e-01 -4.438927173614501953e-01
1.583310514688491821e-01 -4.267197549343109131e-01 -4.123397767543792725e-01
1.694853156805038452e-01 -4.386371374130249023e-01 -3.880016803741455078e-01
1.781508177518844604e-01 -4.167812764644622803e-01 -4.018137753009796143e-01
1.884946674108505249e-01 -4.263880550861358643e-01 -3.785031139850616455e-01
-3.222880065441131592e-01 1.006797775626182556e-01 5.829267501831054688e-01
-3.110828399658203125e-01 8.929845690727233887e-02 6.054536700248718262e-01
-3.009062409400939941e-01 1.126506254076957703e-01 5.906778573989868164e-01
-2.908684611320495605e-01 1.008209437131881714e-01 6.148194670677185059e-01
5.183581262826919556e-02 -6.698051095008850098e-01 -2.794332802295684814e-01
5.916637554764747620e-02 -6.793015599250793457e-01 -2.605046629905700684e-01
6.127431988716125488e-02 -6.592440605163574219e-01 -2.767753899097442627e-01
7.056953758001327515e-02 -6.667895317077636719e-01 -2.569614648818969727e-01
-4.399904608726501465e-02 5.235620737075805664e-01 4.239104092121124268e-01
-3.280592337250709534e-02 5.180299878120422363e-01 4.422864913940429688e-01
-4.080301150679588318e-02 5.361399650573730469e-01 4.261239171028137207e-01
-2.923559211194515228e-02 5.308838486671447754e-01 4.430391490459442139e-01
3.307760655879974365e-01 -3.147063553333282471e-01 3.497614860534667969e-01
3.175863623619079590e-01 -3.139665424823760986e-01 3.700460195541381836e-01
3.305474221706390381e-01 -2.941634953022003174e-01 3.715381026268005371e-01
3.163536489009857178e-01 -2.934244275093078613e-01 3.917000889778137207e-01
-1.167913898825645447e-01 -4.371493160724639893e-01 4.375768303871154785e-01
-1.121761873364448547e-01 -4.330624341964721680e-01 4.580540955066680908e-01
-1.247881278395652771e-01 -4.192507863044738770e-01 4.523556530475616455e-01
-1.201630905270576477e-01 -4.158281087875366211e-01 4.728561937808990479e-01
2.413885295391082764e-01 1.475131213665008545e-01 -6.215333938598632812e-01
2.481561452150344849e-01 1.530340313911437988e-01 -6.014184355735778809e-01
2.325362563133239746e-01 1.633505672216415405e-01 -6.043496131896972656e-01
2.399711161851882935e-01 1.674401760101318359e-01 -5.849179625511169434e-01
-2.661584019660949707e-01 5.951126813888549805e-01 1.413373649120330811e-01
-2.572030127048492432e-01 5.829453468322753906e-01 1.649566292762756348e-01
-2.475726753473281860e-01 6.022866368293762207e-01 1.513307392597198486e-01
-2.390473932027816772e-01 5.907142758369445801e-01 1.731470972299575806e-01
