2.438559999999999894e-01 -4.407499999999999751e-01 -3.153960000000000097e-01
7.826549999999999896e-01 1.314410000000000023e-01 8.590399999999999425e-02
7.430930000000000035e-01 -1.171200000000000019e-01 1.397909999999999986e-01
-1.431489999999999985e-01 1.098900000000000050e-02 -8.458630000000000315e-01
4.420999999999999930e-02 8.868430000000000479e-01 6.894999999999999740e-02
-2.588289999999999758e-01 -4.771009999999999973e-01 -2.640719999999999734e-01
1.026829999999999965e-01 -3.755930000000000102e-01 -5.217270000000000518e-01
-2.424129999999999896e-01 1.372609999999999941e-01 -6.203279999999999905e-01
-4.824519999999999920e-01 2.068609999999999893e-01 -3.106889999999999930e-01
-2.827500000000000152e-02 3.914810000000000234e-01 5.802450000000000108e-01
4.561200000000000254e-01 -3.893179999999999974e-01 1.545640000000000069e-01
4.521640000000000104e-01 4.413639999999999786e-01 -1.064750000000000002e-01
-7.833109999999999795e-01 -1.340739999999999987e-01 8.261499999999999400e-02
5.040609999999999813e-01 3.348650000000000237e-01 -1.610759999999999970e-01
-1.126599999999999963e-01 5.165830000000000144e-01 -3.707599999999999785e-01
8.121310000000000473e-01 1.335330000000000128e-01 5.433899999999999841e-02
3.488189999999999902e-01 -4.496439999999999881e-01 2.015389999999999959e-01
7.988730000000000553e-01 -1.322010000000000129e-01 -6.892900000000000416e-02
6.679100000000000315e-02 -6.997290000000000454e-01 2.334829999999999961e-01
1.651620000000000033e-01 -2.150140000000000107e-01 6.198240000000000416e-01
-2.582840000000000136e-01 4.522499999999999853e-01 -2.894689999999999763e-01
4.834430000000000116e-01 3.182490000000000041e-01 1.983099999999999863e-01
-8.587999999999999801e-02 -4.229930000000000079e-01 4.911289999999999822e-01
-7.967100000000000570e-02 1.649849999999999928e-01 -7.553459999999999619e-01
-3.398199999999999832e-02 -1.178450000000000053e-01 8.481739999999999835e-01
-7.674459999999999615e-01 -1.102629999999999999e-01 1.222929999999999989e-01
3.491940000000000044e-01 4.790320000000000134e-01 1.717750000000000110e-01
-1.704189999999999872e-01 -7.019300000000000539e-01 -1.276549999999999907e-01
-5.336940000000000017e-01 7.731999999999999984e-02 -3.889880000000000004e-01
-3.924170000000000158e-01 5.639669999999999961e-01 4.361799999999999705e-02
-3.449420000000000264e-01 6.081400000000000139e-01 -4.692000000000000337e-02
-3.003300000000000067e-02 9.376510000000000122e-01 -3.232199999999999657e-02
-5.007200000000000539e-01 -4.119599999999999929e-01 8.732299999999999784e-02
-5.453689999999999927e-01 -1.833970000000000045e-01 2.712359999999999771e-01
-6.016880000000000006e-01 -2.920710000000000250e-01 1.062440000000000051e-01
-8.120999999999999747e-03 7.092249999999999943e-01 2.826589999999999936e-01
8.231230000000000491e-01 -1.278610000000000024e-01 4.901799999999999907e-02
1.847080000000000111e-01 4.986369999999999969e-01 -3.166570000000000218e-01
5.235579999999999679e-01 -8.243999999999999592e-03 4.682000000000000051e-01
-1.025849999999999956e-01 2.857990000000000252e-01 6.116190000000000238e-01
7.397340000000000027e-01 -3.743400000000000200e-02 -2.228350000000000053e-01
-4.556169999999999942e-01 1.497789999999999955e-01 3.946069999999999856e-01
9.853399999999999659e-02 -3.747480000000000255e-01 -5.267209999999999948e-01
-7.041889999999999539e-01 1.129079999999999945e-01 -1.829069999999999863e-01
2.077829999999999955e-01 -6.737940000000000040e-01 1.184270000000000045e-01
7.769369999999999887e-01 1.453520000000000090e-01 7.771100000000000230e-02
-2.887599999999999889e-02 -3.005530000000000146e-01 -6.705740000000000034e-01
-5.500300000000000328e-02 4.674860000000000126e-01 -4.775130000000000208e-01
2.244970000000000021e-01 -1.641549999999999954e-01 6.113490000000000313e-01
-8.512490000000000334e-01 -2.570599999999999968e-02 1.230460000000000026e-01
1.265529999999999988e-01 -8.115219999999999656e-01 -6.192899999999999794e-02
6.392000000000000112e-03 6.280409999999999604e-01 3.655689999999999773e-01
2.644130000000000091e-01 4.658999999999999947e-02 -6.889999999999999458e-01
-6.552109999999999879e-01 7.778999999999999804e-02 -2.670020000000000171e-01
3.371190000000000020e-01 -2.218729999999999869e-01 4.410100000000000131e-01
-7.403899999999999371e-02 4.561720000000000219e-01 4.697910000000000141e-01
3.386609999999999898e-01 -4.044740000000000002e-01 2.568670000000000120e-01
-4.128229999999999955e-01 7.467999999999999639e-02 5.124999999999999556e-01
-2.711459999999999981e-01 5.852270000000000527e-01 -1.436280000000000057e-01
4.132330000000000170e-01 4.405149999999999899e-01 -1.462539999999999951e-01
-7.205660000000000398e-01 -4.717799999999999772e-02 -2.322609999999999952e-01
1.900299999999999906e-02 7.296300000000000008e-01 -2.513710000000000111e-01
-5.388290000000000024e-01 3.418829999999999925e-01 -1.192909999999999943e-01
-5.551639999999999908e-01 3.889730000000000132e-01 -5.586399999999999699e-02
3.694129999999999914e-01 1.891609999999999958e-01 -4.414279999999999871e-01
2.056129999999999902e-01 -6.298099999999999532e-02 -7.314089999999999758e-01
5.721899999999999903e-02 5.336699999999999777e-01 4.091119999999999757e-01
1.018229999999999968e-01 -1.452849999999999975e-01 7.528949999999999809e-01
-4.485089999999999910e-01 -2.459419999999999940e-01 -3.055510000000000170e-01
4.180789999999999784e-01 3.890919999999999934e-01 -1.928310000000000024e-01
-1.245389999999999969e-01 -5.717609999999999637e-01 -3.037030000000000007e-01
1.055190000000000017e-01 -7.400400000000000034e-02 -8.204810000000000159e-01
1.464620000000000088e-01 -5.878719999999999501e-01 2.656680000000000152e-01
2.009620000000000017e-01 6.932369999999999921e-01 1.058039999999999953e-01
5.517530000000000490e-01 -1.865479999999999916e-01 2.616999999999999882e-01
1.040859999999999980e-01 -6.318690000000000140e-01 2.640480000000000049e-01
3.966009999999999813e-01 4.040440000000000142e-01 -1.993570000000000064e-01
-1.320099999999999885e-01 1.899790000000000090e-01 6.780140000000000056e-01
-2.363790000000000058e-01 -3.777960000000000207e-01 -3.858269999999999755e-01
-3.922889999999999988e-01 -1.313310000000000033e-01 -4.763830000000000009e-01
-1.908769999999999911e-01 -1.096420000000000033e-01 6.994850000000000234e-01
-8.005959999999999743e-01 2.719299999999999842e-02 1.722120000000000040e-01
3.766200000000000103e-02 -5.824740000000000473e-01 3.798659999999999815e-01
1.080070000000000058e-01 -3.808799999999999963e-01 -5.111160000000000148e-01
6.099099999999999661e-02 6.831230000000000357e-01 2.558880000000000043e-01
8.291520000000000001e-01 2.965399999999999980e-02 1.411959999999999882e-01
4.706569999999999920e-01 -2.165350000000000052e-01 -3.128099999999999770e-01
9.413820000000000521e-01 2.788900000000000060e-02 -3.073400000000000090e-02
1.945200000000000054e-02 -3.746539999999999870e-01 -6.058949999999999614e-01
-8.144930000000000225e-01 -1.379049999999999998e-01 4.760500000000000148e-02
-7.687099999999999489e-02 2.762939999999999841e-01 6.468380000000000241e-01
-4.227850000000000219e-01 2.843700000000000117e-01 -2.928479999999999972e-01
1.935780000000000001e-01 2.800380000000000091e-01 -5.263860000000000205e-01
-5.113760000000000527e-01 -3.575389999999999957e-01 -1.310870000000000091e-01
7.759150000000000214e-01 -1.349549999999999916e-01 -8.913100000000000189e-02
7.803949999999999498e-01 1.499890000000000112e-01 -6.961499999999999633e-02
-5.557549999999999990e-01 1.727180000000000104e-01 -2.715290000000000203e-01
1.114990000000000009e-01 5.336450000000000360e-01 3.548589999999999800e-01
-1.677170000000000050e-01 7.754739999999999966e-01 -5.680899999999999839e-02
2.897930000000000228e-01 -4.404730000000000034e-01 2.697359999999999758e-01
-1.074660000000000060e-01 8.814560000000000173e-01 -1.108199999999999984e-02
-7.465300000000000269e-01 7.164600000000000135e-02 -1.818259999999999876e-01
-1.434779999999999944e-01 -6.824289999999999523e-01 -1.740949999999999998e-01
-1.109519999999999951e-01 -6.689119999999999511e-01 -2.201390000000000013e-01
-1.764030000000000042e-01 -4.361869999999999914e-01 3.874119999999999786e-01
5.989870000000000472e-01 -2.722260000000000235e-01 1.287889999999999868e-01
2.758100000000000135e-02 -2.796460000000000057e-01 -6.927769999999999762e-01
1.142439999999999983e-01 -6.889880000000000448e-01 -1.967710000000000015e-01
-2.006310000000000038e-01 1.923640000000000072e-01 6.070060000000000455e-01
-8.908740000000000547e-01 -3.478699999999999848e-02 7.434300000000000630e-02
-1.167979999999999990e-01 -6.017519999999999536e-01 2.814530000000000087e-01
5.238429999999999476e-01 -8.753299999999999970e-02 3.886279999999999735e-01
3.208110000000000128e-01 -2.126629999999999909e-01 4.665279999999999982e-01
-4.009719999999999951e-01 7.092700000000000393e-02 -5.281029999999999891e-01
-3.857610000000000205e-01 -1.274119999999999975e-01 -4.868299999999999850e-01
-5.947310000000000096e-01 8.633599999999999608e-02 3.189359999999999973e-01
-1.930270000000000041e-01 1.574029999999999874e-01 6.495710000000000095e-01
-1.704120000000000079e-01 -8.667099999999999804e-02 7.429200000000000248e-01
1.190660000000000052e-01 8.365129999999999511e-01 4.442200000000000315e-02
-1.433349999999999902e-01 -2.972230000000000150e-01 -5.594440000000000524e-01
2.446830000000000116e-01 -5.577910000000000368e-01 1.975270000000000081e-01
3.115020000000000011e-01 4.186110000000000109e-01 2.698900000000000188e-01
-5.813900000000000318e-02 -7.859859999999999625e-01 1.558740000000000125e-01
-1.178999999999999927e-03 -4.963750000000000107e-01 5.024480000000000057e-01
-6.262750000000000261e-01 -3.397669999999999857e-01 -3.395999999999999713e-02
4.126199999999999868e-01 2.930960000000000232e-01 -2.942870000000000208e-01
-2.885369999999999879e-01 -5.946489999999999831e-01 -1.168180000000000052e-01
7.227879999999999860e-01 1.979799999999999893e-01 -7.923700000000000188e-02
-2.144830000000000070e-01 1.696409999999999862e-01 -6.158770000000000078e-01
5.384619999999999962e-01 1.890000000000000013e-01 2.725389999999999757e-01
-2.968140000000000223e-01 6.045709999999999695e-01 -9.861799999999999733e-02
1.566420000000000035e-01 -6.716950000000000420e-01 1.716650000000000120e-01
-5.000520000000000520e-01 -2.229400000000000132e-02 4.776560000000000250e-01
-2.842600000000000127e-01 -6.027660000000000240e-01 -1.129769999999999941e-01
-9.486099999999999532e-01 -9.702999999999999819e-03 -4.169300000000000089e-02
-4.301320000000000143e-01 3.417060000000000097e-01 2.281640000000000057e-01
6.552980000000000471e-01 2.670130000000000003e-01 7.769199999999999717e-02
2.155599999999999877e-02 9.295069999999999721e-01 -4.894099999999999839e-02
-2.662530000000000174e-01 -1.166839999999999961e-01 6.170649999999999746e-01
-1.332659999999999956e-01 -3.095240000000000213e-01 -5.572139999999999871e-01
-7.327559999999999629e-01 -2.479449999999999987e-01 1.930199999999999971e-02
-7.309130000000000349e-01 1.396989999999999899e-01 -1.293930000000000080e-01
2.034999999999999917e-03 -4.819780000000000175e-01 5.159880000000000022e-01
1.192850000000000021e-01 -4.462300000000000294e-02 8.360940000000000039e-01
9.027060000000000084e-01 7.290699999999999958e-02 -2.438999999999999849e-02
-5.751239999999999686e-01 -3.632739999999999858e-01 6.160399999999999904e-02
4.114990000000000037e-01 -3.913110000000000199e-01 -1.971920000000000062e-01
5.065969999999999640e-01 1.177379999999999954e-01 -3.756669999999999732e-01
1.170920000000000016e-01 4.531410000000000160e-01 4.297710000000000141e-01
1.940840000000000065e-01 -7.722199999999999898e-02 -7.286989999999999856e-01
-3.010769999999999835e-01 6.577370000000000161e-01 -4.118800000000000239e-02
-8.736779999999999546e-01 5.981999999999999817e-02 6.650599999999999568e-02
6.413029999999999564e-01 -1.419930000000000081e-01 -2.167060000000000097e-01
1.058270000000000044e-01 7.097010000000000263e-01 -1.844770000000000021e-01
6.615400000000000447e-02 -5.567990000000000439e-01 3.770490000000000230e-01
2.679019999999999735e-01 1.470229999999999870e-01 -5.850769999999999582e-01
4.123479999999999923e-01 -4.732910000000000172e-01 1.143639999999999934e-01
4.745599999999999818e-02 6.732939999999999481e-01 -2.792529999999999735e-01
-6.525000000000000418e-03 5.669450000000000323e-01 -4.265320000000000222e-01
-2.414669999999999872e-01 1.397730000000000083e-01 6.187610000000000054e-01
1.697619999999999962e-01 6.915860000000000340e-01 1.386550000000000005e-01
-3.908110000000000195e-01 2.089900000000000091e-02 -5.882920000000000371e-01
-1.208390000000000020e-01 -3.450050000000000061e-01 5.341590000000000504e-01
3.839420000000000055e-01 1.527280000000000026e-01 4.633329999999999949e-01
-5.053799999999999959e-02 7.984830000000000538e-01 1.509810000000000041e-01
2.126049999999999884e-01 -5.249899999999999567e-01 2.624059999999999726e-01
-2.937279999999999891e-01 4.134600000000000081e-02 -6.649289999999999923e-01
-3.409600000000000131e-02 5.147859999999999658e-01 4.511200000000000210e-01
5.054000000000000159e-02 -7.705269999999999619e-01 -1.789330000000000087e-01
5.821250000000000036e-01 -1.517809999999999993e-01 2.660950000000000260e-01
6.797999999999999876e-02 5.705099999999999616e-01 -3.615120000000000000e-01
-4.322389999999999843e-01 -6.201600000000000168e-02 5.057469999999999466e-01
-3.647399999999999948e-02 3.293590000000000129e-01 -6.341700000000000115e-01
-1.871899999999999953e-02 -3.404320000000000124e-01 6.408519999999999772e-01
5.639600000000000168e-02 -4.185459999999999736e-01 5.250599999999999712e-01
-5.720669999999999922e-01 3.763099999999999778e-02 3.903039999999999843e-01
4.702629999999999866e-01 8.024799999999999989e-02 4.494920000000000027e-01
-6.499000000000000610e-02 1.347760000000000069e-01 8.002369999999999761e-01
3.026400000000000201e-01 -1.579190000000000038e-01 -5.394430000000000058e-01
1.790899999999999992e-01 4.762819999999999832e-01 -3.446299999999999919e-01
5.900500000000000189e-02 5.171219999999999706e-01 -4.238750000000000018e-01
3.148119999999999807e-01 3.084000000000000075e-01 -3.767900000000000138e-01
1.739620000000000055e-01 2.953189999999999982e-01 -5.307209999999999983e-01
8.340480000000000116e-01 -1.128740000000000021e-01 -5.308000000000000218e-02
2.604270000000000196e-01 -2.462300000000000044e-01 4.933440000000000047e-01
2.431830000000000103e-01 -4.206529999999999991e-01 -3.361660000000000204e-01
3.694649999999999879e-01 -4.847080000000000277e-01 1.458289999999999864e-01
2.653380000000000183e-01 -2.147900000000000156e-02 7.131880000000000441e-01
5.349469999999999503e-01 2.187790000000000012e-01 2.462749999999999939e-01
-1.956469999999999876e-01 6.847029999999999506e-01 -1.196529999999999955e-01
-4.569929999999999826e-01 -2.012120000000000020e-01 -3.417970000000000175e-01
-6.838100000000000289e-01 -2.196309999999999929e-01 -9.656199999999999506e-02
2.497399999999999898e-01 7.249649999999999705e-01 -2.529899999999999857e-02
-1.251019999999999910e-01 6.676800000000000512e-01 2.072209999999999885e-01
-1.396950000000000136e-01 -2.034809999999999952e-01 -6.568260000000000209e-01
-3.908699999999999952e-01 3.798889999999999767e-01 -2.292440000000000033e-01
-5.139900000000000024e-02 6.329019999999999646e-01 3.157010000000000094e-01
3.319920000000000093e-01 5.171710000000000473e-01 -1.508390000000000009e-01
2.061240000000000017e-01 5.133839999999999515e-01 2.804940000000000211e-01
-4.887639999999999763e-01 -3.399249999999999772e-01 -1.713129999999999931e-01
-2.315780000000000061e-01 -7.280250000000000332e-01 4.040099999999999941e-02
2.200600000000000125e-02 6.413140000000000507e-01 -3.366830000000000100e-01
5.003699999999999815e-02 6.193099999999999994e-02 8.880350000000000188e-01
4.482909999999999950e-01 1.796310000000000129e-01 -3.720800000000000218e-01
6.493999999999999773e-02 3.220270000000000077e-01 -6.130349999999999966e-01
-4.456809999999999938e-01 -3.979610000000000092e-01 1.563599999999999990e-01
7.858700000000000407e-02 5.146230000000000526e-01 4.067930000000000157e-01
-1.334299999999999931e-01 -7.822400000000000186e-02 -7.883470000000000200e-01
-6.913099999999999801e-02 4.870030000000000192e-01 4.438690000000000135e-01
-7.867000000000000381e-02 -5.429640000000000022e-01 -3.783690000000000109e-01
-1.922470000000000012e-01 -5.227429999999999577e-01 -2.850119999999999876e-01
6.701600000000000612e-02 7.397920000000000051e-01 -1.931950000000000056e-01
-1.435740000000000072e-01 6.795780000000000154e-01 -1.768500000000000072e-01
2.790170000000000150e-01 2.507039999999999824e-01 4.702819999999999778e-01
5.553120000000000278e-01 5.991599999999999704e-02 -3.847729999999999762e-01
4.425470000000000237e-01 -1.715059999999999918e-01 -3.859489999999999865e-01
-3.303409999999999958e-01 -6.430360000000000520e-01 2.662499999999999936e-02
-1.845549999999999968e-01 3.084600000000000120e-01 5.069869999999999655e-01
3.602850000000000219e-01 2.507889999999999842e-01 -3.889279999999999959e-01
4.279990000000000183e-01 1.146739999999999982e-01 -4.573289999999999855e-01
4.487970000000000015e-01 -4.977449999999999930e-01 5.346000000000000058e-02
6.239510000000000334e-01 1.397220000000000129e-01 2.363290000000000113e-01
-2.094949999999999868e-01 6.442440000000000389e-01 1.462630000000000041e-01
2.021600000000000064e-01 -6.052779999999999827e-01 -1.925620000000000109e-01
1.248289999999999955e-01 -2.002379999999999993e-01 -6.749359999999999804e-01
3.693750000000000089e-01 -5.454870000000000552e-01 8.513999999999999346e-02
-2.177699999999999914e-01 2.889249999999999874e-01 4.933069999999999955e-01
-3.516070000000000029e-01 -4.462490000000000068e-01 2.021459999999999924e-01
1.941060000000000008e-01 -5.838440000000000296e-01 -2.220509999999999984e-01
-7.309109999999999774e-01 2.878599999999999909e-02 -2.403059999999999918e-01
-5.444839999999999680e-01 -3.674999999999999881e-03 4.518429999999999946e-01
3.721630000000000216e-01 -4.737109999999999932e-01 1.541289999999999882e-01
-4.132129999999999970e-01 -4.014490000000000003e-01 -1.853390000000000037e-01
5.855620000000000269e-01 4.821999999999999897e-02 3.662199999999999900e-01
3.289739999999999887e-01 3.746720000000000050e-01 2.963560000000000083e-01
-9.670199999999999629e-02 1.705450000000000021e-01 7.327580000000000204e-01
-3.599399999999999822e-01 3.762000000000000153e-03 6.362999999999999767e-01
8.767660000000000453e-01 8.437300000000000355e-02 -3.886599999999999777e-02
-7.429440000000000488e-01 1.549280000000000102e-01 1.021320000000000006e-01
-2.424779999999999991e-01 -3.642659999999999787e-01 -3.932579999999999965e-01
-2.426180000000000003e-01 6.101659999999999862e-01 -1.472169999999999868e-01
4.165070000000000161e-01 -5.433210000000000539e-01 -4.017400000000000138e-02
2.166250000000000120e-01 -3.596690000000000165e-01 4.237079999999999735e-01
-8.578900000000000414e-02 -6.309390000000000276e-01 -2.832759999999999723e-01
6.379359999999999475e-01 -3.411969999999999725e-01 -2.086999999999999966e-02
2.746910000000000185e-01 4.326380000000000225e-01 -2.926730000000000165e-01
-3.366810000000000080e-01 4.377119999999999900e-01 2.256090000000000040e-01
-1.932949999999999946e-01 -6.351470000000000171e-01 1.715589999999999893e-01
-1.634569999999999912e-01 4.250689999999999746e-01 -4.114760000000000084e-01
2.308369999999999866e-01 4.682649999999999868e-01 3.009000000000000008e-01
1.454759999999999942e-01 -2.812870000000000092e-01 -5.732399999999999718e-01
-8.584089999999999776e-01 -6.464200000000000501e-02 7.695200000000000651e-02
5.168469999999999454e-01 1.874059999999999893e-01 -2.957480000000000109e-01
-2.106590000000000129e-01 -1.321829999999999949e-01 6.571599999999999664e-01
1.004779999999999979e-01 -1.902939999999999909e-01 -7.092330000000000023e-01
-2.724679999999999880e-01 -2.351299999999999918e-02 -7.040239999999999831e-01
-4.632549999999999724e-01 4.681989999999999763e-01 -6.854899999999999882e-02
-1.336960000000000093e-01 -4.415399999999999880e-01 -4.247670000000000057e-01
-3.817389999999999950e-01 -4.110240000000000005e-01 2.072390000000000065e-01
-6.044110000000000316e-01 -3.729959999999999942e-01 -2.259500000000000050e-02
-2.127580000000000027e-01 -2.336070000000000091e-01 5.536360000000000170e-01
-1.095529999999999976e-01 -2.736230000000000051e-01 -6.168270000000000142e-01
-1.536700000000000010e-01 7.734560000000000324e-01 -7.287499999999999534e-02
8.789449999999999763e-01 -9.821699999999999875e-02 2.284200000000000119e-02
-3.998900000000000232e-01 -4.650000000000000270e-04 5.996470000000000411e-01
-6.339860000000000495e-01 -2.537320000000000131e-01 -1.122849999999999959e-01
1.117579999999999962e-01 3.543000000000000038e-01 5.339450000000000029e-01
6.436600000000000099e-01 -9.894999999999999282e-03 -3.464470000000000049e-01
-6.189900000000000263e-02 -6.122980000000000089e-01 -3.258050000000000113e-01
-3.282100000000000295e-02 -7.361199999999999688e-02 -8.935699999999999754e-01
-1.462199999999999889e-01 -1.229549999999999949e-01 -7.308310000000000084e-01
8.680699999999999528e-02 -3.323690000000000255e-01 5.808269999999999822e-01
3.133119999999999794e-01 1.489099999999999868e-01 -5.377800000000000358e-01
4.796949999999999825e-01 2.612209999999999810e-01 2.590850000000000097e-01
8.349299999999999777e-02 7.639890000000000292e-01 -1.525189999999999879e-01
2.728630000000000222e-01 -2.773669999999999747e-01 4.497729999999999784e-01
6.258160000000000389e-01 -2.010200000000000042e-01 1.731650000000000134e-01
-5.523679999999999701e-01 3.331979999999999942e-01 1.144369999999999971e-01
-2.390559999999999907e-01 -1.827000000000000065e-03 7.591179999999999595e-01
-1.980619999999999881e-01 6.521259999999999835e-01 1.498140000000000027e-01
3.038959999999999995e-01 -5.447959999999999470e-01 -1.513100000000000001e-01
-9.069399999999999684e-02 9.158600000000000074e-02 8.177240000000000064e-01
-1.767789999999999917e-01 6.861429999999999474e-01 1.370800000000000074e-01
2.054680000000000117e-01 -5.939780000000000060e-01 2.005550000000000110e-01
-8.706599999999999895e-01 -8.968700000000000283e-02 -3.965799999999999881e-02
-2.298630000000000118e-01 5.082750000000000323e-01 2.618630000000000124e-01
-1.916879999999999973e-01 9.747599999999999321e-02 7.108409999999999451e-01
5.557149999999999590e-01 4.424060000000000215e-01 1.879999999999999944e-03
-7.361149999999999638e-01 -7.748399999999999732e-02 -1.864049999999999874e-01
1.055640000000000051e-01 4.262299999999999978e-01 4.682089999999999863e-01
-2.022799999999999945e-02 -1.174980000000000052e-01 -8.622769999999999602e-01
1.530150000000000121e-01 8.267550000000000177e-01 2.023199999999999998e-02
-3.274230000000000196e-01 4.938670000000000004e-01 1.787120000000000097e-01
2.501970000000000027e-01 1.577310000000000101e-01 5.920729999999999604e-01
-1.529439999999999966e-01 -5.697710000000000274e-01 -2.772870000000000057e-01
-5.135830000000000117e-01 1.704890000000000017e-01 3.159290000000000154e-01
2.916469999999999896e-01 3.563939999999999886e-01 3.519619999999999971e-01
4.517800000000000288e-02 4.375850000000000017e-01 5.172390000000000043e-01
-5.872299999999999742e-02 -5.073910000000000364e-01 4.338879999999999959e-01
-5.275279999999999969e-01 -2.653519999999999768e-01 -2.071220000000000006e-01
-3.334800000000000264e-02 -7.320400000000000518e-02 8.934509999999999952e-01
-2.491480000000000083e-01 3.236589999999999745e-01 -4.271949999999999914e-01
2.784590000000000121e-01 6.946339999999999737e-01 2.690999999999999989e-02
-3.294520000000000226e-01 9.492000000000000437e-03 -6.610589999999999522e-01
-1.050019999999999981e-01 8.585829999999999851e-01 3.641799999999999898e-02
-2.966799999999999993e-02 -7.994069999999999787e-01 1.709269999999999956e-01
-7.640000000000000306e-04 8.893910000000000426e-01 1.098490000000000022e-01
5.353299999999999725e-01 2.582160000000000011e-01 2.064539999999999986e-01
7.476429999999999465e-01 2.442739999999999911e-01 -8.085999999999999438e-03
-4.645639999999999770e-01 -4.566859999999999808e-01 -7.875200000000000256e-02
-3.484380000000000255e-01 -2.104900000000000104e-01 -4.410740000000000216e-01
6.745670000000000277e-01 -1.172279999999999989e-01 2.082070000000000032e-01
-1.577729999999999966e-01 -4.048619999999999997e-01 4.373670000000000058e-01
-4.037319999999999798e-01 4.298429999999999751e-01 1.664279999999999926e-01
-1.424249999999999960e-01 7.675250000000000128e-01 -9.005100000000000604e-02
2.049970000000000125e-01 5.722570000000000157e-01 2.227459999999999996e-01
-4.365629999999999789e-01 -5.519899999999999807e-02 5.082400000000000251e-01
3.873360000000000136e-01 -1.523999999999999964e-03 6.111429999999999918e-01
-5.422620000000000218e-01 2.482370000000000132e-01 -2.095009999999999928e-01
-5.208270000000000399e-01 -1.216030000000000028e-01 3.575729999999999742e-01
-2.026189999999999936e-01 -5.889710000000000223e-01 2.084110000000000129e-01
-1.798999999999999905e-02 6.051959999999999562e-01 -3.768159999999999843e-01
-1.679910000000000014e-01 4.319180000000000241e-01 -4.000929999999999764e-01
-7.131830000000000114e-01 1.404680000000000095e-01 -1.463540000000000119e-01
-5.581200000000000050e-02 7.777420000000000444e-01 -1.664450000000000096e-01
7.065289999999999626e-01 -1.599049999999999916e-01 -1.335699999999999943e-01
-5.009999999999999870e-02 -4.388810000000000211e-01 5.110209999999999475e-01
-2.557969999999999966e-01 -7.189419999999999700e-01 -2.526600000000000026e-02
-4.492949999999999999e-01 1.227840000000000042e-01 -4.279249999999999998e-01
3.192519999999999802e-01 4.095440000000000191e-01 2.712080000000000046e-01
-1.253029999999999977e-01 -8.453340000000000298e-01 2.936300000000000021e-02
8.351400000000000490e-02 -8.958490000000000064e-01 -2.063999999999999863e-02
7.012110000000000287e-01 2.402930000000000066e-01 -5.849900000000000239e-02
5.052039999999999864e-01 1.893779999999999908e-01 -3.054200000000000248e-01
-1.197740000000000055e-01 -3.778599999999999737e-01 5.023680000000000367e-01
-2.591789999999999927e-01 1.740079999999999960e-01 5.668140000000000400e-01
-1.471500000000000065e-02 4.732600000000000001e-02 -9.379650000000000487e-01
3.713850000000000207e-01 5.399420000000000330e-01 -8.867600000000000482e-02
-3.171359999999999735e-01 3.967800000000000216e-01 2.860869999999999802e-01
-7.186169999999999503e-01 3.749600000000000155e-02 2.438919999999999977e-01
-1.483970000000000011e-01 -8.012329999999999730e-01 -5.037200000000000011e-02
3.492020000000000124e-01 -3.079379999999999895e-01 3.428640000000000021e-01
-2.598000000000000049e-03 -7.912040000000000184e-01 2.061979999999999924e-01
-2.443800000000000139e-02 6.104399999999999826e-01 3.651240000000000041e-01
9.724199999999999511e-02 5.984899999999999665e-01 3.042710000000000137e-01
8.949200000000000210e-02 -7.624419999999999531e-01 1.480680000000000052e-01
-1.858569999999999944e-01 1.108679999999999943e-01 -7.032789999999999875e-01
-6.309299999999999908e-01 -1.917699999999999960e-01 -1.773009999999999864e-01
1.608630000000000060e-01 4.430310000000000081e-01 -3.961080000000000156e-01
3.420329999999999759e-01 -6.297340000000000160e-01 2.823499999999999968e-02
9.237720000000000375e-01 6.611200000000000410e-02 1.012099999999999979e-02
-2.201770000000000116e-01 4.353009999999999935e-01 -3.445239999999999969e-01
1.821199999999999902e-02 -4.947090000000000098e-01 4.870809999999999862e-01
-2.681100000000000150e-02 2.799209999999999754e-01 -6.932709999999999706e-01
-2.639199999999999879e-02 1.920109999999999872e-01 7.815959999999999575e-01
4.052020000000000066e-01 -2.823160000000000114e-01 -3.124850000000000128e-01
-6.434609999999999497e-01 3.131840000000000179e-01 4.335699999999999971e-02
-1.385419999999999985e-01 -5.003149999999999542e-01 3.611460000000000226e-01
8.287660000000000027e-01 4.678199999999999720e-02 1.244539999999999952e-01
-6.870800000000000518e-02 -8.602400000000000324e-02 -8.452690000000000481e-01
2.091900000000000009e-02 -5.883969999999999478e-01 -3.906859999999999777e-01
-5.343489999999999629e-01 9.921199999999999464e-02 3.664410000000000167e-01
-1.235470000000000040e-01 1.000439999999999940e-01 -7.764109999999999623e-01
-4.000290000000000235e-01 2.331399999999999861e-01 -3.668339999999999934e-01
3.177249999999999797e-01 2.683159999999999989e-01 4.139610000000000234e-01
-4.455439999999999956e-01 3.854259999999999908e-01 -1.690319999999999878e-01
-1.054400000000000059e-01 -3.498370000000000091e-01 5.447260000000000435e-01
2.817700000000000066e-02 -4.581560000000000077e-01 5.136699999999999600e-01
-3.723509999999999875e-01 -1.909140000000000004e-01 -4.367369999999999863e-01
3.994550000000000045e-01 4.136000000000000232e-01 1.869470000000000021e-01
-4.433000000000000135e-02 -4.431620000000000004e-01 5.125100000000000211e-01
3.742249999999999743e-01 -5.602610000000000090e-01 -6.551700000000000579e-02
-4.392579999999999818e-01 -2.789630000000000165e-01 2.817819999999999769e-01
-6.837250000000000272e-01 -3.627400000000000069e-02 -2.800039999999999751e-01
-6.271700000000000053e-01 4.736599999999999838e-02 3.254659999999999775e-01
5.617010000000000058e-01 -3.609799999999999814e-02 -4.022029999999999772e-01
-8.153000000000000524e-02 1.512120000000000131e-01 7.672590000000000243e-01
2.859920000000000240e-01 -5.461939999999999573e-01 -1.678159999999999930e-01
-7.662700000000000067e-02 -4.666640000000000232e-01 -4.567109999999999781e-01
-3.928180000000000005e-01 4.708590000000000275e-01 1.363260000000000027e-01
-6.631580000000000252e-01 -4.029499999999999749e-02 -2.965499999999999803e-01
-7.447420000000000151e-01 -1.554949999999999943e-01 -9.976699999999999458e-02
1.185790000000000038e-01 -1.578330000000000011e-01 7.235930000000000417e-01
2.454210000000000003e-01 -3.305989999999999762e-01 -4.239809999999999968e-01
1.549169999999999991e-01 -5.723219999999999974e-01 2.727629999999999777e-01
-4.958279999999999910e-01 -4.176509999999999945e-01 8.652400000000000369e-02
-6.081699999999999884e-01 3.126639999999999975e-01 7.916800000000000226e-02
-6.482449999999999601e-01 4.878299999999999997e-02 -3.029749999999999943e-01
-3.270069999999999921e-01 -5.855799999999999894e-02 6.144370000000000109e-01
-6.739060000000000050e-01 -4.516200000000000075e-02 2.809349999999999903e-01
3.984100000000000141e-02 -7.254869999999999930e-01 2.346759999999999957e-01
4.593999999999999993e-03 4.250619999999999954e-01 5.703460000000000196e-01
-1.165540000000000048e-01 3.796359999999999735e-01 5.038129999999999553e-01
-2.796069999999999944e-01 -2.638000000000000067e-02 6.940169999999999950e-01
5.737409999999999455e-01 5.153400000000000342e-02 -3.747260000000000035e-01
5.494689999999999852e-01 2.687590000000000257e-01 1.817739999999999911e-01
-5.296239999999999837e-01 4.599500000000000255e-01 1.042799999999999977e-02
2.868499999999999869e-02 3.452859999999999818e-01 6.260310000000000041e-01
8.685650000000000315e-01 9.818999999999999950e-02 -3.324900000000000078e-02
2.132400000000000129e-01 5.729800000000000171e-02 -7.294659999999999478e-01
1.232720000000000066e-01 -7.008250000000000313e-01 1.759080000000000088e-01
-4.722890000000000144e-01 1.198359999999999981e-01 -4.078780000000000183e-01
1.790210000000000135e-01 -5.037120000000000486e-01 -3.172690000000000232e-01
-5.430800000000000211e-02 4.333040000000000225e-01 5.123910000000000409e-01
3.706400000000000250e-01 3.472379999999999911e-01 2.821250000000000147e-01
6.844230000000000036e-01 -1.895499999999999963e-01 1.260310000000000041e-01
-2.624000000000000030e-03 2.856589999999999963e-01 -7.117219999999999658e-01
1.417090000000000016e-01 2.265900000000000136e-01 -6.317019999999999857e-01
3.720930000000000071e-01 -8.820100000000000162e-02 5.397089999999999943e-01
2.080170000000000075e-01 -3.732779999999999987e-01 -4.187069999999999959e-01
-2.197149999999999936e-01 -6.629960000000000298e-01 -1.172919999999999935e-01
-3.131699999999999762e-02 -3.308400000000000230e-02 -9.356039999999999912e-01
-4.243319999999999870e-01 -3.036550000000000082e-01 -2.720150000000000068e-01
1.354049999999999976e-01 -7.344499999999999640e-02 7.911510000000000487e-01
1.286229999999999873e-01 1.416350000000000109e-01 -7.297479999999999523e-01
6.171200000000000296e-02 -2.749519999999999742e-01 -6.633390000000000120e-01
5.129839999999999955e-01 3.132980000000000209e-01 1.737200000000000133e-01
-1.396729999999999916e-01 -7.141950000000000243e-01 1.461379999999999901e-01
-4.826889999999999792e-01 -1.900340000000000085e-01 -3.272789999999999866e-01
-1.053000000000000047e-01 7.055090000000000527e-01 -1.891950000000000021e-01
-7.707129999999999814e-01 -1.688500000000000070e-02 2.124020000000000075e-01
-7.783520000000000438e-01 -1.382359999999999978e-01 8.341200000000000003e-02
-1.863000000000000073e-03 -1.506949999999999956e-01 -8.474429999999999463e-01
-8.451300000000000479e-02 -8.526270000000000238e-01 -6.286200000000000121e-02
-5.220920000000000005e-01 -3.591739999999999933e-01 -1.187369999999999953e-01
-1.599999999999999928e-05 -6.376279999999999726e-01 -3.623589999999999867e-01
6.460599999999999676e-02 -1.067049999999999943e-01 -8.286919999999999842e-01
2.765190000000000148e-01 -5.457769999999999566e-01 1.777060000000000028e-01
-3.182170000000000276e-01 -1.985299999999999912e-02 6.619329999999999936e-01
-3.438200000000000284e-02 2.319279999999999953e-01 -7.336939999999999573e-01
-2.410599999999999896e-02 -7.146599999999999620e-01 2.612389999999999990e-01
-7.628009999999999513e-01 1.267729999999999968e-01 -1.104289999999999994e-01
8.325499999999999567e-02 8.040770000000000417e-01 1.126709999999999934e-01
-3.450960000000000139e-01 -4.619170000000000220e-01 1.929899999999999949e-01
-2.782870000000000066e-01 2.142660000000000120e-01 5.074490000000000389e-01
-3.097799999999999859e-02 -9.586099999999999621e-01 1.041599999999999991e-02
6.427709999999999813e-01 1.357349999999999945e-01 -2.214959999999999984e-01
1.907500000000000029e-01 5.826069999999999860e-01 -2.266430000000000111e-01
4.333899999999999975e-01 4.958710000000000062e-01 -7.074199999999999933e-02
4.494200000000000278e-02 8.452460000000000528e-01 1.098139999999999949e-01
1.375879999999999881e-01 -3.350150000000000072e-01 5.273999999999999799e-01
-3.218739999999999934e-01 -2.922830000000000150e-01 3.858460000000000223e-01
-1.661549999999999971e-01 -7.334549999999999681e-01 -1.003949999999999981e-01
-6.957879999999999621e-01 -3.282999999999999894e-03 3.009330000000000060e-01
6.486739999999999728e-01 -1.385619999999999907e-01 -2.127660000000000107e-01
-3.420710000000000139e-01 7.643899999999999306e-02 5.814920000000000089e-01
-3.433359999999999745e-01 3.466670000000000029e-01 3.099999999999999978e-01
-1.653459999999999930e-01 1.894099999999999950e-02 -8.157149999999999679e-01
7.381400000000000461e-02 1.533319999999999961e-01 7.728540000000000409e-01
9.141000000000000514e-02 -7.283589999999999787e-01 1.802360000000000073e-01
7.219320000000000181e-01 1.255499999999999949e-01 1.525229999999999919e-01
-9.360699999999999577e-02 -7.100170000000000092e-01 1.963810000000000000e-01
-3.309719999999999884e-01 -4.780429999999999957e-01 1.909869999999999901e-01
3.012130000000000085e-01 1.581889999999999963e-01 -5.405999999999999694e-01
4.048030000000000239e-01 -3.032360000000000055e-01 2.919640000000000013e-01
7.029590000000000005e-01 -1.578769999999999896e-01 -1.391679999999999862e-01
-2.359980000000000133e-01 4.572220000000000173e-01 -3.067819999999999991e-01
-5.596919999999999673e-01 -8.958399999999999697e-02 3.507270000000000110e-01
3.992899999999999783e-01 4.597859999999999725e-01 -1.409269999999999967e-01
7.127759999999999652e-01 -2.965000000000000187e-03 -2.842649999999999899e-01
-5.903399999999999759e-01 2.926170000000000160e-01 1.170459999999999973e-01
-3.179440000000000044e-01 2.027960000000000040e-01 4.792620000000000213e-01
4.779379999999999740e-01 -2.081129999999999924e-01 3.139520000000000088e-01
-1.450720000000000065e-01 4.253569999999999851e-01 -4.295729999999999826e-01
-7.742899999999999783e-02 5.922370000000000134e-01 3.303369999999999918e-01
9.896200000000000552e-01 -1.037800000000000007e-02 3.000000000000000076e-06
-3.823949999999999849e-01 3.215480000000000005e-01 -2.960599999999999898e-01
8.623000000000000109e-02 -2.490739999999999899e-01 -6.646990000000000398e-01
3.531110000000000082e-01 4.974729999999999985e-01 1.494179999999999953e-01
-3.840000000000000080e-01 2.932270000000000154e-01 -3.227749999999999786e-01
-4.931300000000000128e-01 -7.989599999999999480e-02 4.269760000000000222e-01
1.598420000000000119e-01 4.563599999999999879e-01 -3.837999999999999745e-01
-6.750650000000000261e-01 2.881210000000000160e-01 -3.681799999999999656e-02
1.013300000000000034e-01 8.256229999999999958e-01 7.305000000000000382e-02
-7.499550000000000383e-01 -7.058599999999999597e-02 1.794610000000000094e-01
-4.083799999999999930e-02 2.749380000000000157e-01 6.842270000000000296e-01
6.078280000000000349e-01 2.288000000000000034e-01 1.633729999999999905e-01
-6.493470000000000075e-01 -1.167419999999999985e-01 2.339130000000000098e-01
-8.906469999999999665e-01 -9.324000000000000690e-03 -1.000329999999999969e-01
5.419800000000000312e-02 2.596000000000000044e-02 9.198450000000000237e-01
-1.602490000000000026e-01 -5.622400000000000314e-02 -7.835269999999999735e-01
-8.934929999999999817e-01 9.098399999999999543e-02 -1.552599999999999987e-02
5.330319999999999503e-01 -4.022439999999999904e-01 6.472600000000000575e-02
-1.378310000000000091e-01 7.598850000000000326e-01 -1.022860000000000019e-01
-5.954350000000000476e-01 -2.413349999999999940e-01 -1.632309999999999872e-01
-6.112220000000000431e-01 1.840509999999999924e-01 -2.047279999999999933e-01
-3.335029999999999939e-01 2.700230000000000130e-01 -3.964770000000000238e-01
-6.773700000000000554e-02 -7.862879999999999869e-01 -1.459749999999999936e-01
-2.487820000000000031e-01 -5.078409999999999869e-01 -2.433780000000000110e-01
3.269099999999999784e-01 5.350669999999999593e-01 -1.380260000000000098e-01
4.982480000000000242e-01 -1.653419999999999890e-01 -3.364130000000000176e-01
-1.742839999999999945e-01 5.049339999999999939e-01 -3.207840000000000136e-01
-1.300860000000000072e-01 5.979090000000000238e-01 -2.720069999999999988e-01
-1.147959999999999953e-01 5.339460000000000317e-01 3.512620000000000187e-01
-2.697129999999999805e-01 -5.458629999999999871e-01 1.844260000000000066e-01
4.620029999999999970e-01 -2.910940000000000194e-01 2.469059999999999866e-01
2.878330000000000055e-01 3.194440000000000057e-01 -3.927260000000000195e-01
3.991560000000000108e-01 -2.072610000000000008e-01 -3.935850000000000182e-01
-5.285429999999999851e-01 4.622669999999999835e-01 9.192000000000000517e-03
-8.587770000000000126e-01 -1.028479999999999950e-01 3.837700000000000139e-02
-5.930790000000000228e-01 3.947899999999999743e-01 1.213299999999999969e-02
4.834459999999999869e-01 2.212979999999999947e-01 -2.952580000000000204e-01
3.861899999999999777e-01 -5.295849999999999724e-01 -8.422699999999999632e-02
-3.486299999999999955e-01 -3.852619999999999933e-01 2.661109999999999864e-01
3.003739999999999744e-01 2.255649999999999877e-01 4.740639999999999854e-01
4.340470000000000161e-01 -1.593940000000000079e-01 -4.065610000000000057e-01
-3.301339999999999830e-01 5.686999999999999833e-01 -1.011689999999999950e-01
-5.459110000000000351e-01 4.289819999999999744e-01 2.510899999999999938e-02
3.639799999999999980e-02 1.123350000000000043e-01 8.512690000000000534e-01
-8.380619999999999736e-01 -1.282770000000000021e-01 3.366299999999999848e-02
2.745139999999999803e-01 2.788809999999999900e-01 4.466080000000000050e-01
3.152110000000000190e-01 -1.131790000000000018e-01 5.716130000000000377e-01
-4.073629999999999751e-01 3.401759999999999784e-01 -2.524629999999999930e-01
5.224159999999999915e-01 -2.052350000000000008e-01 -2.723510000000000097e-01
1.825849999999999973e-01 -3.200600000000000112e-01 4.973560000000000203e-01
7.203829999999999956e-01 2.010200000000000042e-01 -7.860200000000000520e-02
1.787700000000000122e-01 -1.059110000000000051e-01 -7.153249999999999886e-01
-5.369800000000000267e-02 -7.337200000000000666e-02 -8.729339999999999877e-01
2.729329999999999812e-01 -5.772829999999999906e-01 1.497860000000000025e-01
-9.579130000000000145e-01 6.317999999999999831e-03 -3.577299999999999924e-02
-4.759709999999999774e-01 -3.780330000000000079e-01 -1.459979999999999889e-01
-1.751250000000000029e-01 5.941210000000000102e-01 2.307559999999999889e-01
-6.663800000000000279e-02 -5.884489999999999998e-01 3.449150000000000271e-01
-2.298240000000000005e-01 9.965999999999999165e-03 -7.602109999999999701e-01
-4.311860000000000137e-01 5.546990000000000531e-01 -1.411699999999999934e-02
-4.878089999999999926e-01 3.333340000000000192e-01 -1.788589999999999902e-01
-3.575500000000000206e-02 6.731279999999999486e-01 -2.911199999999999899e-01
-3.678989999999999760e-01 -1.702359999999999984e-01 -4.618680000000000008e-01
4.723000000000000115e-02 -4.879379999999999828e-01 4.648340000000000249e-01
-3.447770000000000001e-01 -4.021839999999999860e-01 -2.530419999999999892e-01
6.223070000000000546e-01 3.369899999999999979e-02 3.439949999999999952e-01
-3.305290000000000172e-01 2.071179999999999966e-01 -4.623550000000000160e-01
1.812759999999999927e-01 -1.225659999999999944e-01 -6.961619999999999475e-01
-1.100909999999999944e-01 -6.252609999999999557e-01 2.646499999999999964e-01
-5.960140000000000438e-01 4.873000000000000248e-02 -3.552580000000000182e-01
-5.664540000000000131e-01 7.364700000000000413e-02 3.599010000000000264e-01
-1.677460000000000062e-01 -6.104239999999999666e-01 -2.218310000000000004e-01
-3.981459999999999999e-01 3.393129999999999757e-01 -2.625430000000000264e-01
-2.817689999999999917e-01 2.248829999999999996e-01 -4.933500000000000107e-01
1.349219999999999864e-01 6.430019999999999625e-01 -2.220779999999999976e-01
-1.980850000000000111e-01 5.763669999999999627e-01 2.255489999999999995e-01
6.107449999999999823e-01 -3.501619999999999733e-01 3.909499999999999781e-02
-6.940699999999999648e-02 -2.905249999999999777e-01 -6.400709999999999456e-01
2.002829999999999888e-01 -4.073510000000000186e-01 3.923679999999999946e-01
2.141609999999999903e-01 -2.792140000000000177e-01 5.066270000000000495e-01
3.079049999999999843e-01 5.649180000000000312e-01 -1.271799999999999875e-01
3.756169999999999787e-01 -4.041499999999999954e-02 -5.839699999999999891e-01
-5.368349999999999511e-01 2.013189999999999980e-01 2.618469999999999964e-01
6.504300000000000359e-02 2.448059999999999958e-01 6.901530000000000165e-01
3.242979999999999752e-01 2.640399999999999969e-01 -4.116639999999999744e-01
-3.657599999999999740e-02 1.341249999999999942e-01 -8.293019999999999836e-01
2.679509999999999947e-01 -8.056000000000000660e-03 -7.239980000000000304e-01
-4.039389999999999925e-01 6.190999999999999975e-02 5.341540000000000177e-01
-1.612069999999999892e-01 5.723730000000000206e-01 2.664219999999999922e-01
-2.884070000000000245e-01 -3.071400000000000172e-02 -6.808830000000000160e-01
-4.604559999999999764e-01 -4.813189999999999968e-01 -5.822700000000000098e-02
2.419010000000000049e-01 -2.139260000000000050e-01 5.441740000000000466e-01
5.295099999999999807e-02 5.913829999999999920e-01 -3.556679999999999842e-01
3.513100000000000112e-01 -4.801059999999999772e-01 -1.685860000000000136e-01
8.590680000000000538e-01 -3.527799999999999686e-02 -1.056570000000000009e-01
4.785780000000000034e-01 -2.006050000000000055e-01 -3.208190000000000208e-01
3.537080000000000224e-01 7.169200000000000572e-02 -5.746019999999999461e-01
-8.851399999999999546e-02 6.116850000000000342e-01 2.998040000000000149e-01
-2.170179999999999887e-01 1.063290000000000068e-01 6.766560000000000352e-01
1.962230000000000085e-01 -4.906499999999999750e-01 3.131289999999999907e-01
5.653690000000000104e-01 -1.675260000000000082e-01 2.671069999999999833e-01
1.776230000000000031e-01 5.200129999999999475e-01 -3.023660000000000236e-01
-6.448600000000000165e-02 5.138040000000000385e-01 -4.217119999999999758e-01
4.891949999999999910e-01 -6.004500000000000115e-02 -4.507610000000000228e-01
-3.615840000000000165e-01 5.173029999999999573e-01 -1.211170000000000024e-01
2.190969999999999862e-01 6.863920000000000021e-01 9.451500000000000179e-02
-5.942220000000000280e-01 -2.273469999999999935e-01 1.784320000000000073e-01
-5.661370000000000013e-01 2.391780000000000017e-01 1.946869999999999989e-01
2.513460000000000139e-01 -4.196779999999999955e-01 -3.289790000000000214e-01
2.981920000000000126e-01 -5.694550000000000445e-01 -1.323560000000000014e-01
5.549859999999999793e-01 -4.045050000000000034e-01 -4.051099999999999840e-02
-3.207929999999999948e-01 -1.543699999999999933e-02 6.637729999999999464e-01
-8.564599999999999991e-02 -2.665330000000000199e-01 6.478239999999999554e-01
4.654409999999999936e-01 2.957969999999999766e-01 -2.387640000000000040e-01
-5.772639999999999993e-01 1.826879999999999893e-01 -2.400490000000000124e-01
1.628799999999999970e-01 -2.017819999999999891e-01 -6.353389999999999871e-01
3.863899999999999973e-02 -2.693999999999999867e-02 9.344270000000000076e-01
8.529399999999999482e-02 6.617210000000000036e-01 2.529879999999999907e-01
-6.799800000000000288e-02 6.926139999999999519e-01 -2.393909999999999927e-01
1.907999999999999974e-01 1.855080000000000062e-01 -6.236930000000000529e-01
-1.183700000000000030e-02 -5.345220000000000526e-01 -4.536430000000000184e-01
4.766520000000000201e-01 -8.895100000000000229e-02 4.343989999999999796e-01
-6.860479999999999912e-01 2.931529999999999969e-01 2.080200000000000105e-02
-8.337430000000000119e-01 -1.092380000000000018e-01 -5.702100000000000224e-02
-1.628529999999999978e-01 -6.886449999999999516e-01 -1.485049999999999981e-01
4.941000000000000079e-03 -1.641060000000000019e-01 8.309539999999999704e-01
-3.500600000000000239e-02 3.590419999999999723e-01 -6.059539999999999926e-01
8.356800000000000339e-02 1.074279999999999957e-01 8.090079999999999494e-01
-2.721680000000000210e-01 -1.824099999999999888e-01 5.454240000000000199e-01
-5.182790000000000452e-01 -5.225599999999999690e-02 -4.294669999999999876e-01
6.392139999999999489e-01 -1.789360000000000117e-01 -1.818520000000000136e-01
1.853239999999999887e-01 6.556100000000000261e-01 1.590679999999999872e-01
-3.082849999999999757e-01 -4.086359999999999992e-01 -2.830820000000000003e-01
-2.467669999999999864e-01 -5.365900000000000114e-01 -2.166440000000000032e-01
4.302250000000000241e-01 -1.198909999999999976e-01 -4.498869999999999814e-01
5.858619999999999939e-01 -2.514719999999999733e-01 -1.626670000000000060e-01
4.431339999999999724e-01 -1.804400000000000101e-02 -5.388239999999999696e-01
3.205509999999999748e-01 3.700109999999999788e-01 3.094410000000000216e-01
3.672489999999999921e-01 -3.300850000000000173e-01 -3.026690000000000214e-01
2.792450000000000210e-01 -5.129799999999999915e-01 -2.077769999999999895e-01
-1.635209999999999997e-01 -2.948830000000000062e-01 5.415980000000000238e-01
7.480520000000000502e-01 2.098500000000000087e-01 -4.209999999999999853e-02
-1.053079999999999988e-01 -8.507999999999999938e-03 8.861890000000000045e-01
3.091450000000000031e-01 5.364499999999999824e-02 -6.372130000000000294e-01
-5.048059999999999770e-01 1.769499999999999962e-01 3.182470000000000021e-01
-5.730079999999999618e-01 2.024479999999999891e-01 2.245459999999999956e-01
-3.059100000000000152e-01 -4.500040000000000151e-01 2.440890000000000004e-01
-3.273750000000000271e-01 5.470519999999999827e-01 1.255759999999999932e-01
-1.676360000000000072e-01 -4.253040000000000154e-01 4.070619999999999794e-01
2.638730000000000242e-01 6.111269999999999758e-01 -1.250030000000000030e-01
7.616249999999999964e-01 2.150200000000000028e-02 2.168740000000000112e-01
-5.172090000000000298e-01 2.927759999999999807e-01 1.900159999999999905e-01
-3.326549999999999785e-01 6.307169999999999721e-01 3.663000000000000284e-02
-7.546199999999999575e-01 1.273880000000000012e-01 -1.179960000000000037e-01
7.336099999999999566e-02 -7.179599999999999871e-02 8.548449999999999660e-01
-1.119330000000000047e-01 -2.066489999999999994e-01 6.814219999999999722e-01
-6.919459999999999500e-01 2.959620000000000029e-01 -1.209600000000000085e-02
2.157360000000000111e-01 -5.836050000000000404e-01 -2.006600000000000050e-01
1.115980000000000028e-01 -5.076509999999999634e-01 -3.807539999999999814e-01
-8.217700000000000005e-02 -4.238029999999999853e-01 -4.940229999999999899e-01
-1.924510000000000109e-01 -8.615799999999999847e-02 -7.213969999999999549e-01
4.994419999999999971e-01 -3.303459999999999730e-01 -1.702150000000000052e-01
