-2.742095589637756348e-01 -2.957955300807952881e-01 6.094294190406799316e-01
-2.802562415599822998e-01 -2.840925753116607666e-01 6.062969565391540527e-01
-2.809818685054779053e-01 -2.850418984889984131e-01 6.229580640792846680e-01
2.586252987384796143e-01 -1.126436218619346619e-01 2.858792841434478760e-01
2.571484744548797607e-01 -1.162606179714202881e-01 3.021821379661560059e-01
2.557529509067535400e-01 -1.030334234237670898e-01 2.998767495155334473e-01
2.545364797115325928e-01 -1.072422713041305542e-01 3.169724941253662109e-01
2.501865327358245850e-01 -3.039301931858062744e-01 7.281244993209838867e-01
2.447291016578674316e-01 -3.055205941200256348e-01 7.441180944442749023e-01
2.478946894407272339e-01 -2.921212017536163330e-01 7.416759729385375977e-01
2.426640540361404419e-01 -2.926048934459686279e-01 7.584394812583923340e-01
-1.509774625301361084e-01 2.457226216793060303e-01 -2.941037416458129883e-01
-1.511792689561843872e-01 2.398830354213714600e-01 -2.826671004295349121e-01
-1.470298171043395996e-01 2.451843917369842529e-01 -2.772508263587951660e-01
-1.468298435211181641e-01 2.391692250967025757e-01 -2.640600204467773438e-01
2.422235012054443359e-01 -2.267137467861175537e-01 2.792547047138214111e-01
2.403377443552017212e-01 -2.293754965066909790e-01 2.943931818008422852e-01
2.424903512001037598e-01 -2.147818654775619507e-01 2.897705137729644775e-01
2.407409995794296265e-01 -2.179223895072937012e-01 3.064697682857513428e-01
-1.946192532777786255e-01 -1.671382635831832886e-01 -3.082983791828155518e-01
-1.918746083974838257e-01 -1.674638092517852783e-01 -2.892475128173828125e-01
-2.017711102962493896e-01 -1.625615507364273071e-01 -2.948961555957794189e-01
-1.984312087297439575e-01 -1.620049029588699341e-01 -2.770440280437469482e-01
-9.948810189962387085e-02 -1.958197206258773804e-01 -3.691378235816955566e-01
-9.997716546058654785e-02 -1.999660134315490723e-01 -3.532427251338958740e-01
-1.119571179151535034e-01 -1.932243853807449341e-01 -3.609038293361663818e-01
-1.121593713760375977e-01 -1.967507004737854004e-01 -3.451685011386871338e-01
1.397214531898498535e-01 -3.861683905124664307e-01 7.899692654609680176e-01
1.345113813877105713e-01 -3.826141655445098877e-01 8.037783503532409668e-01
1.269282698631286621e-01 -3.767968416213989258e-01 8.158102631568908691e-01
1.219940632581710815e-01 -3.720237910747528076e-01 8.298295736312866211e-01
-9.792428463697433472e-03 2.692241072654724121e-01 -4.692091345787048340e-01
-3.886436112225055695e-03 2.701153159141540527e-01 -4.540486931800842285e-01
-1.766259223222732544e-02 2.708343565464019775e-01 -4.535374343395233154e-01
-1.227941643446683884e-02 2.718008756637573242e-01 -4.382840991020202637e-01
2.418109327554702759e-01 -2.490843981504440308e-01 4.103662967681884766e-01
2.405548691749572754e-01 -2.551221549510955811e-01 4.313067793846130371e-01
2.474011480808258057e-01 -2.385326474905014038e-01 4.289230108261108398e-01
2.468574941158294678e-01 -2.445415258407592773e-01 4.496501088142395020e-01
2.364177256822586060e-01 1.248070523142814636e-01 -3.392473608255386353e-02
2.465711534023284912e-01 1.222928836941719055e-01 -2.581832185387611389e-02
2.355462163686752319e-01 1.366808861494064331e-01 -3.674513474106788635e-02
2.458939403295516968e-01 1.338193118572235107e-01 -2.789040841162204742e-02
-2.443875186145305634e-02 -3.406320810317993164e-01 -1.464564353227615356e-01
-2.350821532309055328e-02 -3.456142544746398926e-01 -1.306511163711547852e-01
-3.836429491639137268e-02 -3.390026986598968506e-01 -1.412693262100219727e-01
-3.728156536817550659e-02 -3.448230326175689697e-01 -1.252792626619338989e-01
5.757942795753479004e-02 1.988745629787445068e-01 -6.541078444570302963e-03
6.207300722599029541e-02 1.982937008142471313e-01 9.177614003419876099e-03
4.995821043848991394e-02 2.012421339750289917e-01 6.837575696408748627e-03
5.310546234250068665e-02 2.010631859302520752e-01 2.176443114876747131e-02
-1.871035099029541016e-01 7.161337137222290039e-02 3.954612910747528076e-01
-1.916256695985794067e-01 6.720694899559020996e-02 4.129923582077026367e-01
-1.871254444122314453e-01 8.127242326736450195e-02 4.098104834556579590e-01
-1.944049894809722900e-01 7.615553587675094604e-02 4.263498187065124512e-01
8.566672354936599731e-02 1.916583478450775146e-01 -6.083250045776367188e-01
9.963381290435791016e-02 1.916629523038864136e-01 -5.950216650962829590e-01
9.062181413173675537e-02 2.056312859058380127e-01 -5.971712470054626465e-01
1.021671518683433533e-01 2.064428925514221191e-01 -5.837635397911071777e-01
-7.509554922580718994e-02 1.596946567296981812e-01 4.135338664054870605e-01
-6.762157380580902100e-02 1.619163751602172852e-01 4.325877428054809570e-01
-8.460576832294464111e-02 1.666736602783203125e-01 4.271850883960723877e-01
-7.802229374647140503e-02 1.692296564579010010e-01 4.447491466999053955e-01
3.729397058486938477e-02 -3.648737072944641113e-01 -1.008913367986679077e-01
3.954858332872390747e-02 -3.710752427577972412e-01 -8.472523838281631470e-02
2.024196833372116089e-02 -3.641729950904846191e-01 -9.219612926244735718e-02
2.220788039267063141e-02 -3.695806264877319336e-01 -7.759436964988708496e-02
-2.253109961748123169e-01 -4.605656489729881287e-03 -3.525017946958541870e-02
-2.326765954494476318e-01 -7.407948840409517288e-03 -1.646874099969863892e-02
-2.246180027723312378e-01 1.205674372613430023e-02 -2.426925674080848694e-02
-2.316277772188186646e-01 9.005850180983543396e-03 -5.503457039594650269e-03
-2.751742005348205566e-01 -1.700539290904998779e-01 4.539508521556854248e-01
-2.791222035884857178e-01 -1.715966612100601196e-01 4.702889323234558105e-01
-2.790805697441101074e-01 -1.583494395017623901e-01 4.667140245437622070e-01
-2.829421460628509521e-01 -1.599933356046676636e-01 4.824588596820831299e-01
-2.503649592399597168e-01 -6.470307707786560059e-02 2.732131183147430420e-01
-2.503989636898040771e-01 -6.854851543903350830e-02 2.922182083129882812e-01
-2.517235279083251953e-01 -5.098322778940200806e-02 2.892152070999145508e-01
-2.518577575683593750e-01 -5.534871295094490051e-02 3.075923919677734375e-01
3.330763280391693115e-01 -1.520969718694686890e-01 -3.660307526588439941e-01
3.370835185050964355e-01 -1.524537950754165649e-01 -3.518076837062835693e-01
3.306829333305358887e-01 -1.433642953634262085e-01 -3.508941233158111572e-01
3.323621451854705811e-01 -1.426271051168441772e-01 -3.354166448116302490e-01
-8.973360061645507812e-02 1.916793882846832275e-01 -3.165310993790626526e-02
-8.305369317531585693e-02 1.913754642009735107e-01 -1.239816378802061081e-02
-9.831221401691436768e-02 1.963339596986770630e-01 -6.881591863930225372e-03
-9.261506050825119019e-02 1.961918771266937256e-01 1.335400622338056564e-02
2.733849883079528809e-01 -1.794512420892715454e-01 4.532968401908874512e-01
2.771326601505279541e-01 -1.828137934207916260e-01 4.707007706165313721e-01
2.750354111194610596e-01 -1.674971580505371094e-01 4.644120633602142334e-01
2.788100838661193848e-01 -1.710810959339141846e-01 4.830706715583801270e-01
-1.970432549715042114e-01 -8.788900077342987061e-02 -1.792971342802047729e-01
-1.953419595956802368e-01 -9.183055907487869263e-02 -1.627893596887588501e-01
-2.018567025661468506e-01 -8.025150001049041748e-02 -1.667650043964385986e-01
-2.003555446863174438e-01 -8.433464914560317993e-02 -1.498497128486633301e-01
-5.560640618205070496e-02 -2.746365070343017578e-01 9.486099481582641602e-01
-5.949524044990539551e-02 -2.784483432769775391e-01 9.541225433349609375e-01
-6.306476145982742310e-02 -2.603297233581542969e-01 9.527006745338439941e-01
-7.276085764169692993e-02 -2.687763571739196777e-01 9.571629762649536133e-01
-2.911987155675888062e-02 -4.368901550769805908e-01 2.506481111049652100e-01
-2.544373646378517151e-02 -4.366942644119262695e-01 2.662865221500396729e-01
-3.886603191494941711e-02 -4.335611462593078613e-01 2.620537281036376953e-01
-3.602349385619163513e-02 -4.338945746421813965e-01 2.780478298664093018e-01
-1.142044663429260254e-01 -4.502383768558502197e-01 4.987236857414245605e-01
-1.136474460363388062e-01 -4.508557021617889404e-01 5.153754949569702148e-01
-1.261748969554901123e-01 -4.430556595325469971e-01 5.098792910575866699e-01
-1.253948658704757690e-01 -4.441917538642883301e-01 5.261708498001098633e-01
-2.746606767177581787e-01 -1.546517163515090942e-01 1.201249882578849792e-01
-2.748589813709259033e-01 -1.572423279285430908e-01 1.419176757335662842e-01
-2.798733711242675781e-01 -1.434501260519027710e-01 1.347456127405166626e-01
-2.796654701232910156e-01 -1.460029780864715576e-01 1.564803272485733032e-01
-2.097488790750503540e-01 -9.482949227094650269e-02 -5.768049508333206177e-02
-2.161609679460525513e-01 -9.769992530345916748e-02 -3.984507918357849121e-02
-2.169220447540283203e-01 -8.596987277269363403e-02 -4.429510608315467834e-02
-2.241074293851852417e-01 -8.859957009553909302e-02 -2.589672431349754333e-02
-2.500787675380706787e-01 -3.699526190757751465e-02 7.950990200042724609e-01
-2.420986145734786987e-01 -4.072611778974533081e-02 8.096812963485717773e-01
-2.429725676774978638e-01 -2.788427285850048065e-02 8.026836514472961426e-01
-2.343534380197525024e-01 -3.311973810195922852e-02 8.167272210121154785e-01
2.186624854803085327e-01 -2.004113942384719849e-01 8.617361187934875488e-01
2.097343951463699341e-01 -2.016453593969345093e-01 8.763231039047241211e-01
2.100208699703216553e-01 -1.865070760250091553e-01 8.738468289375305176e-01
2.008150070905685425e-01 -1.873352825641632080e-01 8.880423307418823242e-01
-3.442814350128173828e-01 -1.030622646212577820e-01 -4.515365064144134521e-01
-3.386898934841156006e-01 -1.024927422404289246e-01 -4.353467226028442383e-01
-3.544526100158691406e-01 -1.001129150390625000e-01 -4.311884343624114990e-01
-3.489181697368621826e-01 -1.001493334770202637e-01 -4.153054356575012207e-01
2.841878831386566162e-01 5.863270163536071777e-02 6.922155618667602539e-02
2.848303914070129395e-01 5.604141205549240112e-02 8.609884232282638550e-02
2.828301489353179932e-01 6.965183466672897339e-02 8.223153650760650635e-02
2.827984094619750977e-01 6.668122112751007080e-02 9.843993186950683594e-02
2.667068541049957275e-01 5.490685626864433289e-02 1.478906571865081787e-01
2.635388672351837158e-01 5.300046131014823914e-02 1.629878580570220947e-01
2.600222229957580566e-01 7.130727171897888184e-02 1.536653190851211548e-01
2.571241259574890137e-01 6.874459981918334961e-02 1.682454645633697510e-01
2.511819899082183838e-01 -1.947168409824371338e-01 1.937271654605865479e-01
2.484243959188461304e-01 -1.978935897350311279e-01 2.100270539522171021e-01
2.537796795368194580e-01 -1.820421814918518066e-01 2.098955363035202026e-01
2.506732344627380371e-01 -1.856082528829574585e-01 2.269395291805267334e-01
2.869234085083007812e-01 1.138924360275268555e-01 9.773610532283782959e-02
2.844324111938476562e-01 1.110710427165031433e-01 1.141228452324867249e-01
2.773858904838562012e-01 1.246595010161399841e-01 1.110836416482925415e-01
2.741940021514892578e-01 1.222324818372726440e-01 1.266796886920928955e-01
2.342988401651382446e-01 1.944637484848499298e-02 -2.033354640007019043e-01
2.311295717954635620e-01 1.706425100564956665e-02 -1.884116381406784058e-01
2.332303822040557861e-01 2.901427261531352997e-02 -1.889600902795791626e-01
2.299963533878326416e-01 2.674023993313312531e-02 -1.743046939373016357e-01
1.898413598537445068e-01 -1.435978412628173828e-01 -2.107415348291397095e-01
1.842417418956756592e-01 -1.466170549392700195e-01 -1.925064027309417725e-01
1.873859614133834839e-01 -1.349844932556152344e-01 -1.965276002883911133e-01
1.811438500881195068e-01 -1.379979997873306274e-01 -1.761041879653930664e-01
-4.686385020613670349e-02 1.934066414833068848e-01 1.698171943426132202e-01
-3.694727271795272827e-02 1.915626823902130127e-01 1.893921494483947754e-01
-5.999031290411949158e-02 1.921085119247436523e-01 1.854675561189651489e-01
-4.907702654600143433e-02 1.894329190254211426e-01 2.058391124010086060e-01
2.309888601303100586e-02 -1.063684001564979553e-01 9.240124225616455078e-01
1.395352557301521301e-02 -1.211030408740043640e-01 9.310379028320312500e-01
1.101662497967481613e-02 -9.364195913076400757e-02 9.228324294090270996e-01
1.417804509401321411e-03 -1.077498272061347961e-01 9.301114082336425781e-01
3.722445964813232422e-01 -7.370353490114212036e-02 -3.569377064704895020e-01
3.742016255855560303e-01 -7.212751358747482300e-02 -3.443950116634368896e-01
3.642207086086273193e-01 -6.580418348312377930e-02 -3.474025726318359375e-01
3.669950067996978760e-01 -6.399450451135635376e-02 -3.340732753276824951e-01
-4.750818759202957153e-02 -3.832406699657440186e-01 -3.624013066291809082e-02
-4.809683188796043396e-02 -3.861060738563537598e-01 -1.821954548358917236e-02
-5.887169018387794495e-02 -3.824311494827270508e-01 -2.293141558766365051e-02
-5.926025658845901489e-02 -3.854981362819671631e-01 -4.548842087388038635e-03
-2.240180522203445435e-01 -1.515880525112152100e-01 8.634873032569885254e-01
-2.139963805675506592e-01 -1.528855264186859131e-01 8.765696287155151367e-01
-2.217269241809844971e-01 -1.376202553510665894e-01 8.694444298744201660e-01
-2.113645672798156738e-01 -1.385806053876876831e-01 8.824432492256164551e-01
-3.915316462516784668e-01 -9.915757924318313599e-02 -3.757539987564086914e-01
-3.951074182987213135e-01 -1.059705168008804321e-01 -3.597859740257263184e-01
-3.966943621635437012e-01 -8.970826864242553711e-02 -3.628542423248291016e-01
-3.998764753341674805e-01 -9.665641933679580688e-02 -3.463849723339080811e-01
-9.169815480709075928e-02 -3.776811957359313965e-01 3.810520283877849579e-03
-8.901159465312957764e-02 -3.824438750743865967e-01 2.250618115067481995e-02
-1.037097126245498657e-01 -3.734554350376129150e-01 1.721187867224216461e-02
-1.007178947329521179e-01 -3.780394196510314941e-01 3.607143089175224304e-02
-2.166542559862136841e-01 2.416073530912399292e-02 3.957786262035369873e-01
-2.201226204633712769e-01 2.083228901028633118e-02 4.140326082706451416e-01
-2.168174833059310913e-01 3.517905250191688538e-02 4.133033752441406250e-01
-2.210039049386978149e-01 3.251390531659126282e-02 4.316307902336120605e-01
-2.310563176870346069e-01 5.341977626085281372e-02 7.456721067428588867e-01
-2.238640189170837402e-01 4.721311107277870178e-02 7.577306032180786133e-01
-2.336359024047851562e-01 6.431479752063751221e-02 7.413315773010253906e-01
-2.256724387407302856e-01 5.808562040328979492e-02 7.535892724990844727e-01
2.038812339305877686e-01 -1.429227590560913086e-01 -2.697435021400451660e-01
1.979473531246185303e-01 -1.448060274124145508e-01 -2.559729218482971191e-01
2.045952975749969482e-01 -1.317564994096755981e-01 -2.560511827468872070e-01
1.989322304725646973e-01 -1.343215703964233398e-01 -2.418638169765472412e-01
-6.912934780120849609e-02 -4.674195051193237305e-01 6.023484468460083008e-01
-6.608883291482925415e-02 -4.678714275360107422e-01 6.205173730850219727e-01
-7.781812548637390137e-02 -4.630324244499206543e-01 6.166105270385742188e-01
-7.453277707099914551e-02 -4.632254838943481445e-01 6.338310837745666504e-01
1.503838300704956055e-01 1.388977169990539551e-01 -5.071123838424682617e-01
1.622469872236251831e-01 1.389332711696624756e-01 -4.967207312583923340e-01
1.447242796421051025e-01 1.541313230991363525e-01 -5.171308517456054688e-01
1.558934152126312256e-01 1.557206809520721436e-01 -5.057426095008850098e-01
-1.545616984367370605e-01 -1.764184534549713135e-01 -3.940970003604888916e-01
-1.529475450515747070e-01 -1.805438697338104248e-01 -3.777989149093627930e-01
-1.645231246948242188e-01 -1.737261265516281128e-01 -3.835221827030181885e-01
-1.624508053064346313e-01 -1.767363548278808594e-01 -3.666925430297851562e-01
-1.450188159942626953e-01 1.602468937635421753e-01 -1.227986365556716919e-01
-1.463964879512786865e-01 1.551594883203506470e-01 -1.106258407235145569e-01
-1.391462981700897217e-01 1.624667346477508545e-01 -1.132951080799102783e-01
-1.411876380443572998e-01 1.577391028404235840e-01 -1.007432565093040466e-01
-2.375278025865554810e-01 -2.245259135961532593e-01 3.870310783386230469e-01
-2.389152348041534424e-01 -2.281802147626876831e-01 4.053768217563629150e-01
-2.420692145824432373e-01 -2.155678719282150269e-01 3.987703323364257812e-01
-2.443614155054092407e-01 -2.189632803201675415e-01 4.164401590824127197e-01
-4.171797335147857666e-01 -1.273285150527954102e-01 -4.673424065113067627e-01
-4.203789830207824707e-01 -1.338132321834564209e-01 -4.469857215881347656e-01
-4.310554265975952148e-01 -1.208378225564956665e-01 -4.528659880161285400e-01
-4.332277774810791016e-01 -1.268341392278671265e-01 -4.314227998256683350e-01
-2.180081903934478760e-01 3.280258178710937500e-02 2.917173206806182861e-01
-2.205148637294769287e-01 2.920449525117874146e-02 3.122609257698059082e-01
-2.173109501600265503e-01 4.307477921247482300e-02 3.078074157238006592e-01
-2.191530019044876099e-01 3.957067057490348816e-02 3.262923359870910645e-01
2.987871468067169189e-01 -2.056333124637603760e-01 6.892712712287902832e-01
2.952973246574401855e-01 -2.083059847354888916e-01 7.074788808822631836e-01
2.944931983947753906e-01 -1.936718374490737915e-01 7.031896710395812988e-01
2.908807992935180664e-01 -1.959912329912185669e-01 7.219036817550659180e-01
-1.792480945587158203e-01 -3.478538244962692261e-02 -4.677456617355346680e-01
-1.841655671596527100e-01 -3.751325979828834534e-02 -4.527558386325836182e-01
-1.881182789802551270e-01 -2.541038207709789276e-02 -4.551106989383697510e-01
-1.935438960790634155e-01 -2.807429246604442596e-02 -4.399044513702392578e-01
1.622882485389709473e-01 -3.999998867511749268e-01 3.980378508567810059e-01
1.567922383546829224e-01 -4.064250588417053223e-01 4.152864515781402588e-01
1.669063419103622437e-01 -3.942943811416625977e-01 4.156999289989471436e-01
1.619914621114730835e-01 -4.004963040351867676e-01 4.328117072582244873e-01
8.353133499622344971e-02 -2.699936330318450928e-01 -2.297582030296325684e-01
8.064408600330352783e-02 -2.772608399391174316e-01 -2.154815644025802612e-01
9.587495028972625732e-02 -2.664342820644378662e-01 -2.144469171762466431e-01
9.283089637756347656e-02 -2.735358774662017822e-01 -2.001484930515289307e-01
1.885899603366851807e-01 -3.581835329532623291e-01 3.747047185897827148e-01
1.857568621635437012e-01 -3.655871450901031494e-01 3.953926563262939453e-01
1.938710957765579224e-01 -3.453395068645477295e-01 3.889681696891784668e-01
1.927168518304824829e-01 -3.525989055633544922e-01 4.094496071338653564e-01
-2.595826983451843262e-01 5.772257596254348755e-02 7.139614224433898926e-01
-2.503886520862579346e-01 5.350332334637641907e-02 7.273150086402893066e-01
-2.598093748092651367e-01 7.232405990362167358e-02 7.104708552360534668e-01
-2.497830241918563843e-01 6.798925995826721191e-02 7.233008742332458496e-01
2.036631256341934204e-01 -8.317091502249240875e-03 8.170343637466430664e-01
1.974084675312042236e-01 -1.487233489751815796e-02 8.344492316246032715e-01
1.924430429935455322e-01 1.373243518173694611e-03 8.267852663993835449e-01
1.853010356426239014e-01 -4.651803523302078247e-03 8.440933823585510254e-01
-2.461798638105392456e-01 2.227073907852172852e-01 5.918059945106506348e-01
-2.440979331731796265e-01 2.151234149932861328e-01 6.063502430915832520e-01
-2.403094023466110229e-01 2.283834069967269897e-01 6.025519371032714844e-01
-2.384198457002639771e-01 2.206045240163803101e-01 6.174373030662536621e-01
2.318861037492752075e-01 1.534404009580612183e-01 6.664494872093200684e-01
2.263695895671844482e-01 1.457204222679138184e-01 6.801539659500122070e-01
2.188518941402435303e-01 1.524402797222137451e-01 6.733539104461669922e-01
2.133029252290725708e-01 1.449003815650939941e-01 6.871278882026672363e-01
-1.665888130664825439e-01 -3.994916975498199463e-01 6.839366555213928223e-01
-1.665515303611755371e-01 -3.987052142620086670e-01 6.998259425163269043e-01
-1.791362017393112183e-01 -3.887448906898498535e-01 6.947782039642333984e-01
-1.783590316772460938e-01 -3.879269659519195557e-01 7.110667228698730469e-01
1.898005753755569458e-01 -3.860478699207305908e-01 4.517109096050262451e-01
1.866499781608581543e-01 -3.923631310462951660e-01 4.699381887912750244e-01
1.966234743595123291e-01 -3.826527595520019531e-01 4.699160754680633545e-01
1.934853345155715942e-01 -3.884674906730651855e-01 4.880902767181396484e-01
-2.381190210580825806e-01 -2.042960934340953827e-02 2.759164273738861084e-01
-2.398600280284881592e-01 -2.357449941337108612e-02 2.981039881706237793e-01
-2.394137084484100342e-01 -1.070283260196447372e-02 2.931652069091796875e-01
-2.413946241140365601e-01 -1.375519763678312302e-02 3.148539364337921143e-01
1.436678320169448853e-01 -3.334627300500869751e-02 -4.969523251056671143e-01
1.559295952320098877e-01 -3.557240962982177734e-02 -4.858263432979583740e-01
1.487534493207931519e-01 -1.824216544628143311e-02 -4.927191138267517090e-01
1.605826318264007568e-01 -2.053575590252876282e-02 -4.825752675533294678e-01
-3.049574196338653564e-01 -1.761322766542434692e-01 5.742025971412658691e-01
-3.074392378330230713e-01 -1.780969649553298950e-01 5.916603803634643555e-01
-3.095415234565734863e-01 -1.621922999620437622e-01 5.822794437408447266e-01
-3.117246925830841064e-01 -1.642448455095291138e-01 5.995640158653259277e-01
-2.408135831356048584e-01 -1.618717163801193237e-01 8.374368548393249512e-01
-2.332056462764739990e-01 -1.623548269271850586e-01 8.516338467597961426e-01
-2.435011118650436401e-01 -1.482385247945785522e-01 8.405919075012207031e-01
-2.355782836675643921e-01 -1.495819389820098877e-01 8.546088933944702148e-01
-2.027878612279891968e-01 2.274189591407775879e-01 -4.061319828033447266e-01
-2.055758386850357056e-01 2.251606434583663940e-01 -3.927138447761535645e-01
-1.985153853893280029e-01 2.340009510517120361e-01 -3.853904902935028076e-01
-2.021823525428771973e-01 2.315725982189178467e-01 -3.718394041061401367e-01
-1.955969184637069702e-01 -1.521083265542984009e-01 -8.674651384353637695e-02
-1.993681639432907104e-01 -1.526426374912261963e-01 -7.222492247819900513e-02
-2.028262019157409668e-01 -1.413792520761489868e-01 -7.670189440250396729e-02
-2.074940651655197144e-01 -1.428255885839462280e-01 -6.093001365661621094e-02
-1.222049891948699951e-01 2.038935869932174683e-01 -1.564557664096355438e-03
-1.174287125468254089e-01 2.038368433713912964e-01 1.866927370429039001e-02
-1.305381655693054199e-01 2.114258855581283569e-01 1.668706536293029785e-02
-1.254465281963348389e-01 2.111093997955322266e-01 3.730787336826324463e-02
-2.550570964813232422e-01 -3.122614324092864990e-01 5.015396475791931152e-01
-2.564586699008941650e-01 -3.157055974006652832e-01 5.179646015167236328e-01
-2.619242668151855469e-01 -2.994101643562316895e-01 5.095324516296386719e-01
-2.626159787178039551e-01 -3.030877709388732910e-01 5.259041190147399902e-01
-2.563899457454681396e-01 7.667136937379837036e-02 -2.413002252578735352e-01
-2.520914077758789062e-01 7.347295433282852173e-02 -2.227070629596710205e-01
-2.533871531486511230e-01 8.995389193296432495e-02 -2.296714484691619873e-01
-2.484874874353408813e-01 8.571676164865493774e-02 -2.119083553552627563e-01
4.990386962890625000e-02 -4.153769314289093018e-01 8.160843253135681152e-01
4.495127126574516296e-02 -4.112460613250732422e-01 8.294785022735595703e-01
3.836593031883239746e-02 -4.049625992774963379e-01 8.410814404487609863e-01
3.517398610711097717e-02 -4.000340700149536133e-01 8.555569052696228027e-01
-2.195495963096618652e-01 -1.328899115324020386e-01 8.630890250205993652e-01
-2.094622850418090820e-01 -1.340116262435913086e-01 8.764696121215820312e-01
-2.198645025491714478e-01 -1.197438463568687439e-01 8.683617115020751953e-01
-2.091522663831710815e-01 -1.212056502699851990e-01 8.814551234245300293e-01
2.029115110635757446e-01 1.387961953878402710e-01 -4.852430522441864014e-01
2.159185558557510376e-01 1.389306485652923584e-01 -4.730234444141387939e-01
2.051118016242980957e-01 1.564488857984542847e-01 -4.864040017127990723e-01
2.160697281360626221e-01 1.584024876356124878e-01 -4.753617346286773682e-01
2.471757531166076660e-01 6.071577966213226318e-02 4.832213819026947021e-01
2.527262568473815918e-01 5.848376452922821045e-02 4.981762766838073730e-01
2.525429427623748779e-01 6.956911087036132812e-02 4.912289977073669434e-01
2.580474019050598145e-01 6.604770570993423462e-02 5.070540308952331543e-01
-2.454419285058975220e-01 -2.271395362913608551e-02 -2.466541901230812073e-02
-2.523998320102691650e-01 -2.584919705986976624e-02 -6.411080248653888702e-03
-2.545297443866729736e-01 -1.395837031304836273e-02 -1.042642816901206970e-02
-2.617359459400177002e-01 -1.739101856946945190e-02 7.817653939127922058e-03
-5.610010400414466858e-02 2.278034240007400513e-01 -1.615361571311950684e-01
-4.703257232904434204e-02 2.264493554830551147e-01 -1.469023227691650391e-01
-6.210682913661003113e-02 2.238584607839584351e-01 -1.499206870794296265e-01
-5.323695391416549683e-02 2.224947214126586914e-01 -1.352303028106689453e-01
-3.046267628669738770e-01 -1.929703652858734131e-01 5.822812914848327637e-01
-3.062561452388763428e-01 -1.952255368232727051e-01 5.996587872505187988e-01
-3.089129924774169922e-01 -1.797290742397308350e-01 5.960718393325805664e-01
-3.103645741939544678e-01 -1.815976649522781372e-01 6.124895811080932617e-01
1.118033453822135925e-01 -2.193392217159271240e-01 -2.859679162502288818e-01
1.106824502348899841e-01 -2.272373437881469727e-01 -2.693711519241333008e-01
1.214360371232032776e-01 -2.145575731992721558e-01 -2.723560333251953125e-01
1.201281696557998657e-01 -2.214708030223846436e-01 -2.558385431766510010e-01
-3.302023559808731079e-02 1.930766999721527100e-01 2.267456650733947754e-01
-2.401554957032203674e-02 1.924664229154586792e-01 2.456014007329940796e-01
-3.591465577483177185e-02 1.907633244991302490e-01 2.527500689029693604e-01
-2.801003307104110718e-02 1.904788762331008911e-01 2.704873979091644287e-01
-2.074982225894927979e-01 3.446172922849655151e-02 4.286890625953674316e-01
-2.125303298234939575e-01 3.194910287857055664e-02 4.463080167770385742e-01
-2.104691267013549805e-01 4.608437791466712952e-02 4.369865953922271729e-01
-2.166471630334854126e-01 4.351313784718513489e-02 4.514674544334411621e-01
-2.516134679317474365e-01 -3.751836344599723816e-02 4.660372734069824219e-01
-2.567860186100006104e-01 -3.803105652332305908e-02 4.847334027290344238e-01
-2.540496289730072021e-01 -2.107222005724906921e-02 4.774259328842163086e-01
-2.597016692161560059e-01 -2.298101410269737244e-02 4.952926635742187500e-01
-1.007143929600715637e-01 -3.452683091163635254e-01 8.864548802375793457e-01
-9.562713652849197388e-02 -3.418621718883514404e-01 8.982882499694824219e-01
-1.047941669821739197e-01 -3.345855772495269775e-01 8.973336219787597656e-01
-9.979886561632156372e-02 -3.317693173885345459e-01 9.092413187026977539e-01
2.900188267230987549e-01 7.365449517965316772e-02 9.257784485816955566e-02
2.889755070209503174e-01 7.108424603939056396e-02 1.084275990724563599e-01
2.871600389480590820e-01 9.060861170291900635e-02 1.018081605434417725e-01
2.855031192302703857e-01 8.780845999717712402e-02 1.176749765872955322e-01
-1.217247396707534790e-01 -8.121578022837638855e-03 8.605964779853820801e-01
-1.245993822813034058e-01 -1.643564738333225250e-02 8.697019815444946289e-01
-1.344104558229446411e-01 -1.013837289065122604e-02 8.609695434570312500e-01
-1.379193365573883057e-01 -1.839442364871501923e-02 8.703152537345886230e-01
-3.427942283451557159e-03 -3.930974006652832031e-01 8.739106059074401855e-01
1.650099642574787140e-03 -3.859797716140747070e-01 8.871476650238037109e-01
-1.572527736425399780e-02 -3.838535547256469727e-01 8.864325284957885742e-01
-1.027659885585308075e-02 -3.764728903770446777e-01 8.988391757011413574e-01
2.466216497123241425e-02 -2.465631216764450073e-01 -3.313177227973937988e-01
2.686443179845809937e-02 -2.521830499172210693e-01 -3.133500516414642334e-01
1.157591491937637329e-02 -2.509792745113372803e-01 -3.217748999595642090e-01
1.291316002607345581e-02 -2.566334307193756104e-01 -3.036030232906341553e-01
8.412294089794158936e-02 -4.457402825355529785e-01 7.114486694335937500e-01
7.643365114927291870e-02 -4.463764131069183350e-01 7.300518751144409180e-01
7.178638875484466553e-02 -4.434079825878143311e-01 7.423974871635437012e-01
6.670699268579483032e-02 -4.425518810749053955e-01 7.587499022483825684e-01
-8.502985537052154541e-02 -4.057503640651702881e-01 8.144923448562622070e-01
-8.035141974687576294e-02 -4.025185406208038330e-01 8.280144333839416504e-01
-8.933315426111221313e-02 -3.983921408653259277e-01 8.257407546043395996e-01
-8.493018150329589844e-02 -3.949242234230041504e-01 8.386073708534240723e-01
-1.067632734775543213e-01 -4.013586938381195068e-01 1.918330341577529907e-01
-1.052338853478431702e-01 -4.038370251655578613e-01 2.085783183574676514e-01
-1.145870685577392578e-01 -3.961010575294494629e-01 2.002795636653900146e-01
-1.132552027702331543e-01 -3.991026282310485840e-01 2.164903581142425537e-01
-2.745825797319412231e-02 2.283817976713180542e-01 -5.962890386581420898e-01
-2.304881811141967773e-02 2.323270738124847412e-01 -5.820128321647644043e-01
-3.220991045236587524e-02 2.372072935104370117e-01 -5.757647156715393066e-01
-2.792714908719062805e-02 2.411903738975524902e-01 -5.613198876380920410e-01
-2.328649461269378662e-01 -2.492036372423171997e-01 2.787441015243530273e-01
-2.341885864734649658e-01 -2.494610548019409180e-01 3.000820279121398926e-01
-2.364175766706466675e-01 -2.374409884214401245e-01 2.915547192096710205e-01
-2.383887022733688354e-01 -2.374652177095413208e-01 3.135393857955932617e-01
-7.253805547952651978e-02 -4.416222870349884033e-01 3.459637761116027832e-01
-7.067707180976867676e-02 -4.426242113113403320e-01 3.646817505359649658e-01
-8.028385788202285767e-02 -4.393009841442108154e-01 3.606507778167724609e-01
-7.835397124290466309e-02 -4.402582347393035889e-01 3.795969784259796143e-01
2.406194508075714111e-01 5.039878934621810913e-02 -1.492043957114219666e-02
2.524910271167755127e-01 5.076600238680839539e-02 -2.422820776700973511e-03
2.417894899845123291e-01 6.071710959076881409e-02 -9.157060645520687103e-03
2.529836297035217285e-01 5.996984988451004028e-02 4.255543462932109833e-03
1.265971213579177856e-01 -3.782954216003417969e-01 1.192762479186058044e-01
1.215216517448425293e-01 -3.831480741500854492e-01 1.350009143352508545e-01
1.322554349899291992e-01 -3.751057386398315430e-01 1.366211026906967163e-01
1.271416693925857544e-01 -3.794461190700531006e-01 1.525874882936477661e-01
-1.397987455129623413e-01 2.151416391134262085e-01 -5.171419382095336914e-01
-1.469074338674545288e-01 2.168014496564865112e-01 -5.058801770210266113e-01
-1.417297571897506714e-01 2.271663695573806763e-01 -5.025877952575683594e-01
-1.476181745529174805e-01 2.291702479124069214e-01 -4.906896948814392090e-01
2.403952926397323608e-01 -6.774949375540018082e-03 2.547246813774108887e-01
2.406949847936630249e-01 -9.246864356100559235e-03 2.691782414913177490e-01
2.360029369592666626e-01 -4.372312687337398529e-04 2.677174210548400879e-01
2.363068610429763794e-01 -2.936544828116893768e-03 2.825547158718109131e-01
7.174896448850631714e-02 2.636967599391937256e-01 -3.348164260387420654e-01
7.650207728147506714e-02 2.632195651531219482e-01 -3.167848587036132812e-01
6.166875362396240234e-02 2.662854790687561035e-01 -3.220144510269165039e-01
6.643623113632202148e-02 2.657330930233001709e-01 -3.050266802310943604e-01
-2.842560708522796631e-01 -7.580984383821487427e-02 5.136864185333251953e-01
-2.897327840328216553e-01 -7.653790712356567383e-02 5.310313105583190918e-01
-2.870372235774993896e-01 -6.347742676734924316e-02 5.242242813110351562e-01
-2.924259603023529053e-01 -6.464073807001113892e-02 5.414984822273254395e-01
-1.312863826751708984e-01 -9.292270243167877197e-02 -4.811329841613769531e-01
-1.397931426763534546e-01 -9.939862787723541260e-02 -4.691542088985443115e-01
-1.424434632062911987e-01 -8.870064467191696167e-02 -4.753066003322601318e-01
-1.516049057245254517e-01 -9.484130889177322388e-02 -4.630392491817474365e-01
-7.148965448141098022e-02 -2.898690104484558105e-01 -2.230024039745330811e-01
-7.239423692226409912e-02 -2.928942739963531494e-01 -2.067588567733764648e-01
-8.039745688438415527e-02 -2.846432328224182129e-01 -2.151072025299072266e-01
-8.084530383348464966e-02 -2.875553369522094727e-01 -1.987653076648712158e-01
-1.051235049962997437e-01 3.156367316842079163e-02 -5.111238956451416016e-01
-1.164392605423927307e-01 2.898455038666725159e-02 -5.006133913993835449e-01
-1.166966557502746582e-01 4.101375490427017212e-02 -4.993435442447662354e-01
-1.274980008602142334e-01 3.796937316656112671e-02 -4.860692918300628662e-01
-1.401312500238418579e-01 -4.212341308593750000e-01 4.065418541431427002e-01
-1.388104259967803955e-01 -4.229761660099029541e-01 4.216974973678588867e-01
-1.502124369144439697e-01 -4.131931662559509277e-01 4.183295965194702148e-01
-1.484247744083404541e-01 -4.154422581195831299e-01 4.342685341835021973e-01
-7.834259420633316040e-02 9.458348155021667480e-02 7.283908724784851074e-01
-7.982525229454040527e-02 8.691684901714324951e-02 7.436965703964233398e-01
-9.542855620384216309e-02 9.527893364429473877e-02 7.324955463409423828e-01
-9.699095040559768677e-02 8.681171387434005737e-02 7.459931373596191406e-01
-1.225735768675804138e-01 -1.028556004166603088e-01 -4.755522608757019043e-01
-1.303270012140274048e-01 -1.094806790351867676e-01 -4.631124138832092285e-01
-1.353597193956375122e-01 -1.002764478325843811e-01 -4.696543812751770020e-01
-1.433951109647750854e-01 -1.070052608847618103e-01 -4.572332203388214111e-01
-1.529519110918045044e-01 -1.850023865699768066e-01 -3.347920775413513184e-01
-1.520490795373916626e-01 -1.867688298225402832e-01 -3.156832158565521240e-01
-1.639508903026580811e-01 -1.802837997674942017e-01 -3.190796673297882080e-01
-1.626481562852859497e-01 -1.816318929195404053e-01 -2.994543015956878662e-01
-2.875653803348541260e-01 -1.464087963104248047e-01 7.468087673187255859e-01
-2.837522625923156738e-01 -1.483299434185028076e-01 7.639564871788024902e-01
-2.879195213317871094e-01 -1.331675648689270020e-01 7.561330199241638184e-01
-2.857615053653717041e-01 -1.355638653039932251e-01 7.736256718635559082e-01
-5.662637576460838318e-02 -1.401306316256523132e-02 -5.165047645568847656e-01
-6.488443911075592041e-02 -2.365813031792640686e-02 -5.149365663528442383e-01
-6.049805879592895508e-02 -9.887809865176677704e-04 -5.153675079345703125e-01
-6.903713196516036987e-02 -1.067959703505039215e-02 -5.138714909553527832e-01
2.327954024076461792e-01 2.973136305809020996e-02 4.729220569133758545e-01
2.353833466768264771e-01 3.010283038020133972e-02 4.889820516109466553e-01
2.301552593708038330e-01 4.204469546675682068e-02 4.822856485843658447e-01
2.334464043378829956e-01 4.224846512079238892e-02 4.979888200759887695e-01
-3.457404673099517822e-02 -1.439765840768814087e-01 -4.760472476482391357e-01
-4.182882979512214661e-02 -1.521349400281906128e-01 -4.654442369937896729e-01
-4.784383252263069153e-02 -1.398841291666030884e-01 -4.770703017711639404e-01
-5.556360632181167603e-02 -1.474949270486831665e-01 -4.660105109214782715e-01
1.106052547693252563e-01 1.468733847141265869e-01 6.387058496475219727e-01
1.158589646220207214e-01 1.450762450695037842e-01 6.535016298294067383e-01
9.651013463735580444e-02 1.418007016181945801e-01 6.481595039367675781e-01
1.017121151089668274e-01 1.397195309400558472e-01 6.630008816719055176e-01
-2.465690858662128448e-02 1.041844487190246582e-02 8.352877497673034668e-01
-2.856600284576416016e-02 2.637989819049835205e-04 8.489103317260742188e-01
-3.905845433473587036e-02 8.813058026134967804e-03 8.416492938995361328e-01
-4.271531850099563599e-02 -1.160454005002975464e-03 8.556971549987792969e-01
-1.712816655635833740e-01 1.062100529670715332e-01 -4.833596050739288330e-01
-1.814055442810058594e-01 9.878376871347427368e-02 -4.716852605342864990e-01
-1.845162361860275269e-01 1.170054376125335693e-01 -4.805231690406799316e-01
-1.947956681251525879e-01 1.110533997416496277e-01 -4.701157808303833008e-01
-5.265753716230392456e-04 -4.238993525505065918e-01 8.484713733196258545e-02
8.572957478463649750e-03 -4.223346412181854248e-01 1.043427214026451111e-01
-5.483412183821201324e-03 -4.245075285434722900e-01 1.068562120199203491e-01
3.278221702203154564e-03 -4.229748547077178955e-01 1.263726502656936646e-01
-2.986750900745391846e-01 -4.617397114634513855e-02 5.962532162666320801e-01
-3.000939190387725830e-01 -4.909607768058776855e-02 6.149956583976745605e-01
-3.002278208732604980e-01 -2.910829707980155945e-02 6.088717579841613770e-01
-3.012981414794921875e-01 -3.157314285635948181e-02 6.270246505737304688e-01
2.556692957878112793e-01 5.032643303275108337e-02 -2.479512393474578857e-01
2.541812360286712646e-01 4.845536500215530396e-02 -2.293902337551116943e-01
2.521744072437286377e-01 6.670276820659637451e-02 -2.359784543514251709e-01
2.505433857440948486e-01 6.500115990638732910e-02 -2.184861153364181519e-01
-2.503977119922637939e-01 2.774458192288875580e-02 7.384684681892395020e-01
-2.424385696649551392e-01 2.248972840607166290e-02 7.511701583862304688e-01
-2.486185431480407715e-01 3.978706523776054382e-02 7.379055619239807129e-01
-2.400895655155181885e-01 3.426758944988250732e-02 7.503997087478637695e-01
-1.121842041611671448e-01 1.774257570505142212e-01 -1.039992272853851318e-01
-1.168120726943016052e-01 1.725310683250427246e-01 -9.041743725538253784e-02
-1.092930808663368225e-01 1.832190304994583130e-01 -9.028732031583786011e-02
-1.156990006566047668e-01 1.780027449131011963e-01 -7.564629614353179932e-02
-7.237657904624938965e-02 -4.670557081699371338e-01 5.240346789360046387e-01
-6.940837949514389038e-02 -4.685526192188262939e-01 5.438556075096130371e-01
-8.564410358667373657e-02 -4.615337550640106201e-01 5.403662919998168945e-01
-8.235482126474380493e-02 -4.636393785476684570e-01 5.618604421615600586e-01
9.195633232593536377e-02 1.441942602396011353e-01 6.302965879440307617e-01
9.785958379507064819e-02 1.426247805356979370e-01 6.449009180068969727e-01
8.081590384244918823e-02 1.401702165603637695e-01 6.405609846115112305e-01
8.692125976085662842e-02 1.378681212663650513e-01 6.550110578536987305e-01
-1.509377658367156982e-01 1.721429079771041870e-01 1.399667114019393921e-01
-1.528743207454681396e-01 1.657604426145553589e-01 1.536285877227783203e-01
-1.645240485668182373e-01 1.751833707094192505e-01 1.424515843391418457e-01
-1.662784665822982788e-01 1.677903234958648682e-01 1.561485677957534790e-01
-1.825882196426391602e-01 -3.815495073795318604e-01 7.184779644012451172e-01
-1.802155226469039917e-01 -3.800556361675262451e-01 7.364233136177062988e-01
-1.887867301702499390e-01 -3.723593652248382568e-01 7.358093857765197754e-01
-1.855743229389190674e-01 -3.708539009094238281e-01 7.549394369125366211e-01
5.810996517539024353e-02 1.949275285005569458e-01 7.578510046005249023e-02
6.109753996133804321e-02 1.948303282260894775e-01 9.220912307500839233e-02
5.059540644288063049e-02 1.997603178024291992e-01 8.893580734729766846e-02
5.426595732569694519e-02 1.996106654405593872e-01 1.046453565359115601e-01
-2.704744040966033936e-01 1.371350139379501343e-01 -3.649675846099853516e-01
-2.725657820701599121e-01 1.338380128145217896e-01 -3.463579714298248291e-01
-2.728714346885681152e-01 1.479224264621734619e-01 -3.514941930770874023e-01
-2.748914659023284912e-01 1.449911743402481079e-01 -3.327049314975738525e-01
9.669413417577743530e-02 1.762043237686157227e-01 5.315071344375610352e-01
9.578985720872879028e-02 1.715056449174880981e-01 5.471175909042358398e-01
1.054602414369583130e-01 1.807587295770645142e-01 5.507487058639526367e-01
1.009803414344787598e-01 1.739775985479354858e-01 5.647681951522827148e-01
2.670331001281738281e-01 2.902501728385686874e-03 1.668854951858520508e-01
2.626024484634399414e-01 2.706615021452307701e-03 1.846049129962921143e-01
2.609078884124755859e-01 1.339796278625726700e-02 1.797296851873397827e-01
2.569910585880279541e-01 1.213165186345577240e-02 1.963829100131988525e-01
1.129863485693931580e-01 6.978504359722137451e-02 7.654649615287780762e-01
1.113711521029472351e-01 6.298631429672241211e-02 7.813454866409301758e-01
1.007395982742309570e-01 6.784410029649734497e-02 7.718658447265625000e-01
1.003701984882354736e-01 6.131120398640632629e-02 7.861377596855163574e-01
-1.906738132238388062e-01 -3.541216552257537842e-01 3.765163719654083252e-01
-1.901728957891464233e-01 -3.562765717506408691e-01 3.934828042984008789e-01
-1.963158547878265381e-01 -3.453288376331329346e-01 3.897071778774261475e-01
-1.963711529970169067e-01 -3.469270169734954834e-01 4.065049290657043457e-01
2.724682390689849854e-01 -2.105354815721511841e-01 4.689618945121765137e-01
2.756182253360748291e-01 -2.159033119678497314e-01 4.872495532035827637e-01
2.764796614646911621e-01 -1.990119218826293945e-01 4.838452637195587158e-01
2.803981900215148926e-01 -2.042228728532791138e-01 5.029987096786499023e-01
2.862571179866790771e-01 2.045487165451049805e-01 2.938855439424514771e-02
2.858365476131439209e-01 2.044693678617477417e-01 4.932300373911857605e-02
2.761539518833160400e-01 2.236607670783996582e-01 3.766945004463195801e-02
2.754855453968048096e-01 2.220628857612609863e-01 5.726426094770431519e-02
-2.576268613338470459e-01 -7.516090571880340576e-02 4.524880647659301758e-01
-2.618806064128875732e-01 -7.555722445249557495e-02 4.689956009387969971e-01
-2.587222754955291748e-01 -5.971641093492507935e-02 4.629206955432891846e-01
-2.640683054924011230e-01 -6.012556701898574829e-02 4.808371365070343018e-01
-2.801740355789661407e-02 8.076571673154830933e-02 -5.451855659484863281e-01
-3.870949149131774902e-02 7.392071187496185303e-02 -5.359270572662353516e-01
-4.228616505861282349e-02 8.737484365701675415e-02 -5.413483977317810059e-01
-5.264292657375335693e-02 8.094418048858642578e-02 -5.316241383552551270e-01
-1.830058917403221130e-02 -4.189017117023468018e-01 6.534530967473983765e-02
-1.081253867596387863e-02 -4.191214740276336670e-01 8.361200988292694092e-02
-2.760631963610649109e-02 -4.167659580707550049e-01 8.246903121471405029e-02
-2.102454379200935364e-02 -4.173188507556915283e-01 1.015743166208267212e-01
9.816215932369232178e-02 -2.751934230327606201e-01 9.328490495681762695e-01
8.418688178062438965e-02 -2.791537642478942871e-01 9.458584189414978027e-01
9.571570903062820435e-02 -2.560802400112152100e-01 9.433035850524902344e-01
8.264851570129394531e-02 -2.637969553470611572e-01 9.528308510780334473e-01
2.434988766908645630e-01 -7.559170573949813843e-02 -2.365692704916000366e-02
2.533589005470275879e-01 -7.633730024099349976e-02 -1.098158676177263260e-02
2.429143339395523071e-01 -6.205015257000923157e-02 -1.645792089402675629e-02
2.520384490489959717e-01 -6.222029402852058411e-02 -3.632654435932636261e-03
8.118975907564163208e-02 -3.693138808012008667e-02 8.824523091316223145e-01
7.443226873874664307e-02 -4.949941486120223999e-02 8.948982954025268555e-01
6.469807773828506470e-02 -3.203352540731430054e-02 8.823632597923278809e-01
5.816724151372909546e-02 -4.482433199882507324e-02 8.950076103210449219e-01
-2.213787138462066650e-01 -2.863048017024993896e-01 3.051264584064483643e-01
-2.208789288997650146e-01 -2.881269752979278564e-01 3.205634951591491699e-01
-2.249608486890792847e-01 -2.736982107162475586e-01 3.136707246303558350e-01
-2.249541133642196655e-01 -2.747516036033630371e-01 3.297007679939270020e-01
-2.828463315963745117e-01 -2.450826764106750488e-01 5.285524725914001465e-01
-2.863883376121520996e-01 -2.478801459074020386e-01 5.486080050468444824e-01
-2.912892699241638184e-01 -2.304483950138092041e-01 5.423461198806762695e-01
-2.953208088874816895e-01 -2.330480366945266724e-01 5.628341436386108398e-01
3.580464720726013184e-01 -5.890328437089920044e-02 -3.383569419384002686e-01
3.615347146987915039e-01 -5.677315592765808105e-02 -3.241993188858032227e-01
3.532750010490417480e-01 -4.923192784190177917e-02 -3.280887007713317871e-01
3.576695322990417480e-01 -4.794516414403915405e-02 -3.123229742050170898e-01
-2.934103608131408691e-01 1.533935964107513428e-01 4.315441846847534180e-01
-2.956253290176391602e-01 1.498735696077346802e-01 4.538859128952026367e-01
-3.014472723007202148e-01 1.678000688552856445e-01 4.444011151790618896e-01
-3.026399910449981689e-01 1.649883836507797241e-01 4.686078429222106934e-01
-5.147355794906616211e-02 -1.411011517047882080e-01 -4.657975435256958008e-01
-5.873658135533332825e-02 -1.491141021251678467e-01 -4.529773294925689697e-01
-6.589572131633758545e-02 -1.369577944278717041e-01 -4.606982469558715820e-01
-7.390160858631134033e-02 -1.459292322397232056e-01 -4.463892281055450439e-01
-2.472360432147979736e-01 -8.409405499696731567e-02 3.642479181289672852e-01
-2.488400787115097046e-01 -8.729103207588195801e-02 3.810344338417053223e-01
-2.483604699373245239e-01 -7.144603133201599121e-02 3.768597245216369629e-01
-2.506017088890075684e-01 -7.515241950750350952e-02 3.946745395660400391e-01
-3.119188547134399414e-01 -1.373424679040908813e-01 5.909179449081420898e-01
-3.133934438228607178e-01 -1.402425765991210938e-01 6.083430051803588867e-01
-3.156076967716217041e-01 -1.232464462518692017e-01 6.000655889511108398e-01
-3.169053792953491211e-01 -1.266325265169143677e-01 6.179368495941162109e-01
1.852395087480545044e-01 9.918884932994842529e-02 -1.194300279021263123e-01
1.851992011070251465e-01 9.623125940561294556e-02 -1.057322174310684204e-01
1.805707514286041260e-01 1.047116070985794067e-01 -1.111001595854759216e-01
1.800322681665420532e-01 1.023706123232841492e-01 -9.670180082321166992e-02
-1.052766479551792145e-02 -4.849751591682434082e-01 5.934271216392517090e-01
-6.328230723738670349e-03 -4.831498861312866211e-01 6.092101335525512695e-01
-2.031928673386573792e-02 -4.793891012668609619e-01 6.037077903747558594e-01
-1.624237559735774994e-02 -4.780772030353546143e-01 6.195479035377502441e-01
-9.658893197774887085e-02 -1.085731759667396545e-01 -4.813374578952789307e-01
-1.046053394675254822e-01 -1.160491332411766052e-01 -4.683959782123565674e-01
-1.136617511510848999e-01 -1.036545559763908386e-01 -4.756146371364593506e-01
-1.212289929389953613e-01 -1.103417649865150452e-01 -4.629286825656890869e-01
4.818423464894294739e-02 -3.511333465576171875e-01 -1.111844554543495178e-01
4.905258491635322571e-02 -3.580484390258789062e-01 -9.522631764411926270e-02
4.615432024002075195e-02 -3.504252731800079346e-01 -1.018062531948089600e-01
4.722672700881958008e-02 -3.571812808513641357e-01 -8.570441603660583496e-02
2.758190631866455078e-01 -1.093665361404418945e-01 -4.911406934261322021e-01
2.823175489902496338e-01 -1.048573404550552368e-01 -4.763105511665344238e-01
2.655097842216491699e-01 -9.724055230617523193e-02 -4.771594703197479248e-01
2.722097635269165039e-01 -9.243663400411605835e-02 -4.615563750267028809e-01
3.636690787971019745e-03 2.448547929525375366e-01 -5.770577192306518555e-01
5.941925570368766785e-03 2.482294589281082153e-01 -5.646014213562011719e-01
-3.397565102204680443e-03 2.540100812911987305e-01 -5.583716034889221191e-01
-1.272557768970727921e-03 2.574737071990966797e-01 -5.457292199134826660e-01
-2.049310207366943359e-01 -3.324633464217185974e-02 -7.376383244991302490e-02
-2.086556404829025269e-01 -3.603048250079154968e-02 -5.512628704309463501e-02
-2.053361386060714722e-01 -2.348972856998443604e-02 -5.788841843605041504e-02
-2.100506424903869629e-01 -2.655563689768314362e-02 -3.928750008344650269e-02
-2.951564788818359375e-01 -8.442866057157516479e-02 7.109308838844299316e-01
-2.945592701435089111e-01 -8.799815922975540161e-02 7.282028794288635254e-01
-2.960729598999023438e-01 -7.414325326681137085e-02 7.232042551040649414e-01
-2.951442897319793701e-01 -7.775551825761795044e-02 7.403507232666015625e-01
-2.452611178159713745e-01 3.761790227144956589e-03 -4.005376398563385010e-01
-2.512102127075195312e-01 1.993683166801929474e-03 -3.875789642333984375e-01
-2.515942752361297607e-01 1.356404833495616913e-02 -3.911391794681549072e-01
-2.576859295368194580e-01 1.192329358309507370e-02 -3.779326677322387695e-01
3.652122318744659424e-01 -9.806723892688751221e-02 -3.947462737560272217e-01
3.669849932193756104e-01 -9.623187780380249023e-02 -3.843810856342315674e-01
3.596490323543548584e-01 -9.374983608722686768e-02 -3.830581605434417725e-01
