-2.798470000000000124e-01 -1.426699999999999913e-01 7.694029999999999481e-01
-6.143599999999999756e-02 -1.401200000000000015e-02 -5.157760000000000122e-01
2.275030000000000108e-01 3.370299999999999685e-02 4.792750000000000066e-01
-3.506499999999999895e-02 -1.371600000000000041e-01 -4.765800000000000036e-01
1.065399999999999958e-01 1.408300000000000107e-01 6.548509999999999609e-01
-3.874299999999999966e-02 1.210800000000000071e-02 8.401859999999999884e-01
-1.733449999999999991e-01 1.173710000000000031e-01 -4.837719999999999798e-01
1.840299999999999922e-02 -4.208470000000000266e-01 1.086089999999999972e-01
-2.969499999999999917e-01 -2.515500000000000028e-02 6.056629999999999514e-01
2.567679999999999962e-01 4.982700000000000323e-02 -2.403740000000000043e-01
-2.401510000000000034e-01 3.514400000000000163e-02 7.463389999999999747e-01
-1.153629999999999933e-01 1.742080000000000017e-01 -9.154800000000000437e-02
-7.055599999999999372e-02 -4.674940000000000206e-01 5.473139999999999672e-01
9.230299999999999616e-02 1.376620000000000066e-01 6.505549999999999944e-01
-1.590429999999999899e-01 1.758299999999999863e-01 1.442640000000000033e-01
-1.811760000000000037e-01 -3.756510000000000127e-01 7.368069999999999897e-01
5.463799999999999907e-02 1.984219999999999873e-01 8.444000000000000117e-02
-2.755719999999999836e-01 1.245980000000000004e-01 -3.411699999999999733e-01
1.114839999999999998e-01 1.870789999999999953e-01 5.461819999999999453e-01
2.622590000000000199e-01 4.930999999999999620e-03 1.847189999999999943e-01
9.012399999999999578e-02 6.255199999999999649e-02 7.780719999999999859e-01
-1.970230000000000037e-01 -3.458280000000000243e-01 3.886780000000000235e-01
2.795770000000000199e-01 -2.013860000000000094e-01 4.827290000000000192e-01
2.857279999999999820e-01 2.150229999999999919e-01 4.267599999999999866e-02
-2.594449999999999812e-01 -7.241699999999999526e-02 4.651730000000000032e-01
-4.764299999999999785e-02 8.456600000000000228e-02 -5.392550000000000399e-01
-2.410500000000000143e-02 -4.167199999999999793e-01 8.445099999999999829e-02
9.933899999999999675e-02 -2.645939999999999959e-01 9.414879999999999916e-01
2.407320000000000015e-01 -6.044299999999999673e-02 -1.787899999999999906e-02
7.248899999999999788e-02 -4.620799999999999907e-02 8.948399999999999688e-01
-2.183499999999999885e-01 -2.898209999999999953e-01 3.152300000000000102e-01
-2.862560000000000104e-01 -2.423609999999999931e-01 5.402190000000000047e-01
3.559780000000000166e-01 -5.325799999999999979e-02 -3.270080000000000209e-01
-2.989209999999999923e-01 1.593420000000000114e-01 4.520660000000000234e-01
-7.635699999999999432e-02 -1.448029999999999873e-01 -4.534199999999999897e-01
-2.451619999999999910e-01 -6.540200000000000180e-02 3.731189999999999785e-01
-3.125709999999999877e-01 -1.375359999999999916e-01 6.034559999999999924e-01
1.859669999999999934e-01 9.304700000000000470e-02 -1.064400000000000068e-01
-8.224999999999999672e-03 -4.821380000000000110e-01 6.083469999999999711e-01
-1.040630000000000027e-01 -1.185319999999999985e-01 -4.670030000000000014e-01
4.918999999999999762e-02 -3.475010000000000043e-01 -1.076379999999999976e-01
2.771750000000000047e-01 -1.032529999999999976e-01 -4.774379999999999735e-01
4.838000000000000286e-03 2.508520000000000194e-01 -5.626290000000000457e-01
-2.039380000000000082e-01 -2.148200000000000109e-02 -6.310399999999999343e-02
-2.922469999999999790e-01 -8.742400000000000171e-02 7.308090000000000419e-01
-2.450690000000000091e-01 1.250800000000000002e-02 -3.942390000000000061e-01
3.571349999999999802e-01 -9.651700000000000557e-02 -3.843269999999999742e-01
-1.161699999999999955e-01 1.477719999999999867e-01 3.409110000000000196e-01
1.331170000000000131e-01 1.880020000000000024e-01 1.120830000000000021e-01
2.480660000000000087e-01 -1.745160000000000045e-01 -3.715840000000000254e-01
2.537079999999999891e-01 -8.061999999999999722e-02 2.778999999999999804e-01
3.706000000000000266e-02 2.628559999999999786e-01 -2.809820000000000095e-01
-2.610179999999999723e-01 5.101900000000000185e-02 -2.532809999999999784e-01
-1.684519999999999906e-01 -2.046600000000000155e-02 -4.806250000000000244e-01
-2.691999999999999948e-02 -2.414930000000000132e-01 -3.351529999999999787e-01
-1.982299999999999895e-01 -7.179000000000000659e-02 -1.154889999999999944e-01
2.269960000000000033e-01 2.049960000000000115e-01 1.219319999999999987e-01
2.421540000000000081e-01 1.674710000000000087e-01 -4.535339999999999927e-01
-2.211370000000000002e-01 -3.680249999999999910e-01 6.274309999999999610e-01
2.337990000000000068e-01 -2.433150000000000035e-01 2.703169999999999740e-01
2.570100000000000162e-01 -1.044370000000000021e-01 4.421370000000000022e-01
1.291710000000000080e-01 -2.130370000000000041e-01 -2.629529999999999923e-01
-5.183800000000000213e-02 2.396330000000000127e-01 -1.936509999999999898e-01
-2.358699999999999963e-01 7.263600000000000612e-02 -4.346579999999999888e-01
-2.413200000000000067e-02 -4.681350000000000233e-01 7.047949999999999493e-01
8.428099999999999481e-02 -3.880830000000000113e-01 3.740399999999999975e-02
-1.316950000000000065e-01 -4.120249999999999746e-01 3.400869999999999727e-01
2.348059999999999869e-01 9.833999999999999686e-02 -2.243200000000000055e-02
3.248240000000000016e-01 -9.461600000000000565e-02 -3.140100000000000113e-01
7.240000000000000602e-02 -2.836489999999999845e-01 -2.158640000000000003e-01
-2.127699999999999869e-01 1.984999999999999785e-03 -1.521430000000000005e-01
5.639000000000000262e-02 1.551810000000000134e-01 5.665200000000000236e-01
5.081299999999999706e-02 2.659349999999999770e-01 -4.547740000000000116e-01
-1.417970000000000064e-01 -3.961370000000000169e-01 2.997589999999999977e-01
-4.797400000000000275e-02 1.211829999999999991e-01 6.764550000000000285e-01
1.833299999999999930e-01 9.438399999999999568e-02 3.062739999999999907e-01
1.239259999999999945e-01 -4.085420000000000162e-01 2.893540000000000001e-01
2.237139999999999962e-01 -5.785900000000000071e-02 -3.049299999999999927e-02
2.001620000000000066e-01 -8.018000000000000127e-02 -1.105339999999999934e-01
2.838999999999999857e-02 1.951950000000000074e-01 -6.161649999999999627e-01
-3.885700000000000265e-02 2.417459999999999887e-01 -1.969039999999999957e-01
-1.249590000000000006e-01 2.046620000000000106e-01 -3.378199999999999953e-02
2.757580000000000031e-01 -1.310540000000000038e-01 7.831230000000000135e-01
1.313239999999999963e-01 -3.964630000000000098e-01 7.804680000000000506e-01
2.744550000000000045e-01 -2.676680000000000170e-01 5.238040000000000473e-01
-8.935400000000000287e-02 2.274210000000000120e-01 -1.899399999999999977e-01
4.105600000000000221e-02 2.654050000000000020e-01 -5.121059999999999501e-01
-2.828280000000000238e-01 -1.015210000000000001e-01 1.465430000000000066e-01
-2.705549999999999899e-01 -1.390200000000000047e-01 4.552950000000000053e-01
2.163400000000000045e-01 1.900949999999999862e-01 -2.529580000000000162e-01
-2.250969999999999915e-01 5.503299999999999859e-02 -1.710329999999999906e-01
-2.623039999999999816e-01 1.349839999999999929e-01 -2.038600000000000134e-02
-1.807040000000000035e-01 -3.292740000000000111e-01 1.687170000000000059e-01
-2.540169999999999928e-01 -2.720400000000000040e-01 7.587660000000000515e-01
2.727220000000000200e-01 8.871999999999999678e-03 3.125800000000000106e-02
-1.642499999999999863e-02 2.021080000000000099e-01 1.155660000000000021e-01
2.472310000000000063e-01 9.717499999999999749e-02 7.084120000000000417e-01
-2.531829999999999914e-01 1.123070000000000040e-01 4.495239999999999791e-01
-3.034689999999999888e-01 -2.073240000000000083e-01 6.391299999999999759e-01
-8.751200000000000645e-02 1.646410000000000096e-01 5.931459999999999511e-01
2.804170000000000273e-01 -8.826000000000000512e-02 5.545900000000000135e-02
1.746749999999999969e-01 -1.665590000000000126e-01 -2.296130000000000115e-01
-2.906770000000000187e-01 -1.865500000000000144e-02 5.690979999999999928e-01
-3.338519999999999821e-01 -4.455400000000000332e-02 -3.300600000000000200e-01
2.855880000000000085e-01 1.936019999999999963e-01 5.711580000000000545e-01
8.951000000000000623e-02 1.578910000000000036e-01 4.145190000000000263e-01
3.596900000000000097e-02 1.998280000000000056e-01 1.132060000000000011e-01
3.313590000000000146e-01 -3.647899999999999754e-02 -3.139669999999999961e-01
-1.349980000000000069e-01 -3.961959999999999926e-01 7.754330000000000389e-01
-7.401099999999999346e-02 1.757150000000000101e-01 2.675390000000000268e-01
2.226619999999999988e-01 -3.605389999999999984e-01 6.549359999999999626e-01
-3.453300000000000120e-02 2.465970000000000106e-01 -2.133980000000000044e-01
7.213300000000000267e-02 -2.575459999999999972e-01 -2.679349999999999787e-01
3.387109999999999843e-01 -7.040200000000000624e-02 -3.580369999999999941e-01
-2.571749999999999869e-01 -1.806399999999999950e-01 4.237130000000000063e-01
4.807000000000000162e-02 -1.518400000000000027e-01 9.406900000000000261e-01
1.885930000000000106e-01 4.556899999999999840e-02 -4.023999999999999799e-02
2.427189999999999903e-01 -5.245999999999999969e-02 3.645249999999999879e-01
-8.777799999999999492e-02 -3.901299999999999907e-02 8.916990000000000194e-01
1.360639999999999905e-01 -3.692280000000000006e-01 1.141350000000000003e-01
-1.768899999999999917e-01 9.730500000000000260e-02 -7.729300000000000059e-02
1.385230000000000072e-01 -3.875359999999999916e-01 2.448180000000000078e-01
-2.802569999999999784e-01 9.743999999999999190e-03 4.349700000000000094e-02
-1.610020000000000062e-01 -6.815400000000000624e-02 8.944659999999999833e-01
-1.961829999999999963e-01 2.132500000000000021e-02 -9.040600000000000025e-02
2.042309999999999959e-01 7.098200000000000343e-02 2.781139999999999723e-01
2.196770000000000111e-01 1.935520000000000018e-01 -2.619449999999999834e-01
-2.498289999999999955e-01 -2.221589999999999954e-01 6.724199999999999622e-02
1.148990000000000011e-01 -3.811890000000000001e-01 8.370299999999999963e-02
-3.766999999999999949e-03 1.948000000000000009e-01 2.982620000000000271e-01
6.282999999999999696e-02 -4.204249999999999932e-01 2.052049999999999985e-01
-1.660609999999999864e-01 -3.727610000000000090e-01 2.860260000000000025e-01
1.676229999999999942e-01 -2.094590000000000063e-01 -1.345339999999999869e-01
-7.554299999999999904e-02 1.964750000000000107e-01 9.440600000000000380e-02
1.305500000000000063e-02 2.399380000000000124e-01 -5.725479999999999459e-01
1.060099999999999931e-02 -4.707129999999999925e-01 6.965479999999999450e-01
2.268400000000000138e-01 -3.334799999999999986e-01 7.246510000000000451e-01
1.975919999999999899e-01 8.860300000000000120e-02 7.354079999999999506e-01
-1.365359999999999907e-01 1.391290000000000027e-01 3.048440000000000039e-01
2.227989999999999970e-01 1.063700000000000062e-02 4.419489999999999807e-01
-2.350510000000000099e-01 6.564000000000000390e-03 -1.970429999999999959e-01
-1.448830000000000118e-01 1.434779999999999944e-01 -8.513800000000000534e-02
-3.680999999999999810e-03 2.542900000000000160e-01 -2.308149999999999924e-01
2.333969999999999934e-01 -2.491549999999999876e-01 3.252410000000000023e-01
3.770899999999999946e-02 1.640729999999999966e-01 -6.186049999999999605e-01
-2.933660000000000156e-01 -1.864299999999999985e-02 5.871170000000000000e-01
-4.633099999999999719e-02 1.311710000000000098e-01 -5.812249999999999917e-01
2.599489999999999856e-01 -1.915139999999999898e-01 5.272799999999999709e-02
2.893959999999999866e-01 -2.127330000000000054e-01 5.189850000000000296e-01
3.651599999999999985e-02 1.951340000000000019e-01 2.209510000000000085e-01
-2.344559999999999977e-01 -9.284999999999999851e-03 7.923759999999999692e-01
6.894999999999999740e-02 -2.629509999999999903e-01 -2.621669999999999834e-01
-9.135000000000000064e-02 2.650560000000000138e-01 -3.877260000000000151e-01
1.930089999999999861e-01 3.975599999999999967e-02 -4.719670000000000254e-01
3.152559999999999807e-01 -1.337500000000000078e-01 6.351940000000000364e-01
-2.910409999999999942e-01 1.301400000000000057e-01 5.605860000000000287e-01
1.094989999999999991e-01 2.421230000000000049e-01 -4.971550000000000136e-01
-2.777599999999999861e-02 -4.368279999999999941e-01 7.941209999999999658e-01
-2.796420000000000017e-01 1.483859999999999901e-01 4.300329999999999986e-01
5.926800000000000124e-02 2.647229999999999861e-01 -4.463400000000000145e-01
-6.018300000000000038e-02 -2.114050000000000096e-01 -3.689020000000000077e-01
-4.308200000000000224e-02 -4.464080000000000270e-01 3.469679999999999986e-01
-9.713199999999999612e-02 8.839500000000000135e-02 -4.993960000000000066e-01
1.937580000000000136e-01 -2.010770000000000057e-01 -7.452999999999999903e-02
-1.068439999999999945e-01 2.365319999999999923e-01 -5.291219999999999812e-01
2.669119999999999826e-01 1.526139999999999997e-01 -4.038240000000000163e-01
2.682300000000000240e-01 -1.102179999999999965e-01 7.976069999999999549e-01
2.109050000000000091e-01 -1.244770000000000043e-01 8.771740000000000093e-01
-1.989769999999999872e-01 1.963949999999999863e-01 -4.865999999999999770e-01
-1.784749999999999948e-01 2.038270000000000082e-01 -7.077999999999999570e-02
2.921460000000000168e-01 -2.526240000000000152e-01 6.025160000000000515e-01
2.034019999999999995e-01 1.979999999999999881e-04 -1.175370000000000026e-01
-2.948509999999999742e-01 -2.367400000000000060e-02 5.901699999999999724e-01
-2.380549999999999888e-01 -1.750770000000000104e-01 -4.146489999999999898e-01
-1.125199999999999950e-01 1.791300000000000114e-01 -5.568990000000000329e-01
-3.768400000000000222e-02 1.270000000000000018e-01 6.614079999999999959e-01
-2.824800000000000089e-01 -5.084700000000000331e-02 7.336249999999999716e-01
2.398550000000000126e-01 9.237199999999999578e-02 1.760480000000000100e-01
1.475750000000000117e-01 1.532290000000000041e-01 -1.023939999999999989e-01
1.940830000000000055e-01 -3.096800000000000108e-01 1.931609999999999994e-01
-2.286299999999999999e-01 -1.690580000000000138e-01 -4.328890000000000238e-01
2.348190000000000000e-01 -2.444959999999999911e-01 3.293070000000000164e-01
-2.224629999999999941e-01 6.847599999999999520e-02 -4.464799999999999880e-01
-2.571240000000000192e-01 -3.154390000000000249e-01 6.718100000000000183e-01
1.864010000000000111e-01 1.359680000000000055e-01 1.874119999999999953e-01
2.117020000000000013e-01 -2.248199999999999851e-02 -1.518160000000000065e-01
-1.493960000000000010e-01 -2.066369999999999874e-01 9.250829999999999886e-01
-2.626950000000000118e-01 -1.625560000000000060e-01 3.422000000000000042e-02
-3.051699999999999899e-02 9.644199999999999995e-02 -5.529659999999999576e-01
-2.664460000000000162e-01 8.897199999999999553e-02 -2.733709999999999751e-01
-1.484419999999999906e-01 -1.770000000000000046e-02 8.657099999999999795e-01
1.238270000000000065e-01 2.517389999999999906e-01 -2.786100000000000243e-01
2.410499999999999865e-01 1.949009999999999909e-01 -3.051889999999999881e-01
-2.408959999999999990e-01 1.080969999999999986e-01 1.638120000000000132e-01
2.696459999999999968e-01 3.812700000000000117e-02 -3.328079999999999927e-01
2.221599999999999964e-01 -3.454260000000000108e-01 7.085409999999999764e-01
-2.609000000000000208e-01 -1.509749999999999981e-01 1.961249999999999938e-01
-2.697620000000000018e-01 -1.419610000000000039e-01 7.905330000000000412e-01
-2.371959999999999902e-01 1.500499999999999889e-01 -2.382630000000000026e-01
-1.832390000000000130e-01 -1.504540000000000044e-01 -1.974069999999999991e-01
2.299509999999999887e-01 -1.772900000000000170e-02 4.154740000000000100e-01
-1.626720000000000110e-01 -3.657199999999999895e-01 2.374709999999999877e-01
5.557800000000000240e-02 -3.022460000000000147e-01 9.458870000000000333e-01
1.805340000000000000e-01 -3.424969999999999959e-01 2.648369999999999891e-01
-1.647319999999999895e-01 2.301729999999999887e-01 -4.690079999999999805e-01
-4.839000000000000246e-02 -1.982559999999999878e-01 -3.956529999999999769e-01
-1.524040000000000117e-01 -3.776590000000000225e-01 2.486599999999999921e-01
8.033999999999999475e-03 -1.306049999999999989e-01 9.349089999999999900e-01
1.648679999999999868e-01 1.960060000000000136e-01 -6.657100000000000517e-02
-1.279039999999999899e-01 1.918559999999999988e-01 -1.526679999999999982e-01
2.615330000000000155e-01 5.359099999999999975e-02 -2.547139999999999960e-01
2.326459999999999917e-01 -2.423569999999999891e-01 1.968610000000000082e-01
-1.625749999999999973e-01 -2.139580000000000093e-01 -1.368449999999999944e-01
-7.556499999999999329e-02 1.710109999999999963e-01 3.108230000000000159e-01
2.883129999999999860e-01 -2.637470000000000092e-01 5.961980000000000057e-01
3.675160000000000093e-01 -7.897700000000000553e-02 -3.568399999999999905e-01
2.979289999999999994e-01 1.448440000000000005e-01 5.034129999999999994e-01
-2.023880000000000123e-01 5.987000000000000134e-03 -3.752099999999999880e-02
2.189820000000000100e-01 -8.907700000000000340e-02 -4.496410000000000129e-01
2.802000000000000046e-01 -9.128899999999999515e-02 7.644119999999999804e-01
8.023000000000000617e-03 -4.289760000000000240e-01 1.775390000000000024e-01
-1.325250000000000039e-01 -2.960019999999999873e-01 -8.418699999999999795e-02
2.301399999999999973e-02 2.591660000000000075e-01 -2.574790000000000134e-01
-2.913890000000000091e-01 1.213990000000000069e-01 5.164659999999999807e-01
-6.496100000000000485e-02 -3.045479999999999854e-01 9.433829999999999716e-01
1.340820000000000067e-01 -2.393780000000000074e-01 -1.889589999999999881e-01
-1.665989999999999971e-01 2.227230000000000043e-01 -4.812469999999999803e-01
-2.360240000000000116e-01 1.257000000000000062e-01 6.996820000000000261e-01
-1.132050000000000001e-01 -3.664899999999999824e-01 1.416700000000000077e-02
4.278900000000000065e-02 -4.456089999999999773e-01 3.390130000000000088e-01
-5.840900000000000258e-02 -4.597519999999999940e-01 7.043420000000000236e-01
2.537800000000000056e-01 -2.151230000000000087e-01 8.052600000000000036e-02
-2.594910000000000272e-01 1.222209999999999963e-01 -4.278710000000000013e-01
1.049830000000000069e-01 -4.380799999999999972e-02 -5.116990000000000149e-01
-1.463369999999999949e-01 -3.710189999999999877e-01 8.056670000000000220e-01
-7.694700000000000151e-02 -2.546829999999999927e-01 9.509020000000000250e-01
3.372599999999999903e-02 2.579850000000000199e-01 -2.537050000000000138e-01
3.293200000000000016e-01 -5.459699999999999970e-02 -3.486079999999999735e-01
-1.047840000000000021e-01 -4.294109999999999872e-01 3.639760000000000217e-01
1.976789999999999936e-01 6.848899999999999433e-02 -1.297270000000000090e-01
2.962020000000000208e-01 -2.378250000000000086e-01 6.013100000000000112e-01
2.526930000000000009e-01 -1.285060000000000091e-01 4.059699999999999975e-01
-3.981300000000000117e-02 1.103880000000000000e-01 -5.617259999999999476e-01
-1.048540000000000028e-01 1.771870000000000112e-01 1.505930000000000046e-01
2.138220000000000121e-01 -9.679799999999999516e-02 -4.699500000000000205e-02
-1.506149999999999989e-01 -2.469870000000000121e-01 9.146680000000000366e-01
-8.725600000000000023e-02 1.421580000000000066e-01 -5.543409999999999727e-01
2.415980000000000072e-01 -2.246219999999999883e-01 4.027680000000000149e-01
1.720240000000000102e-01 -3.124419999999999975e-01 1.868200000000000069e-02
2.650429999999999731e-01 -4.987099999999999866e-02 1.888690000000000091e-01
3.517839999999999856e-01 -1.599460000000000048e-01 -3.925589999999999913e-01
-1.713679999999999926e-01 -3.907229999999999870e-01 4.084320000000000173e-01
1.980369999999999908e-01 -3.034830000000000028e-01 1.961120000000000085e-01
2.402459999999999873e-01 -2.712979999999999836e-01 4.349259999999999793e-01
8.099199999999999455e-02 2.649750000000000161e-01 -3.506719999999999837e-01
-2.459890000000000132e-01 -2.489560000000000106e-01 4.332759999999999945e-01
3.038099999999999828e-02 2.024819999999999953e-01 6.162900000000000322e-02
1.691779999999999951e-01 -3.970460000000000100e-01 4.308150000000000035e-01
-2.143899999999999972e-02 -1.140860000000000068e-01 -4.954549999999999788e-01
-4.264020000000000032e-01 -1.401260000000000006e-01 -4.542289999999999939e-01
-1.055409999999999959e-01 1.566609999999999947e-01 3.205239999999999756e-01
-2.393440000000000012e-01 -2.288709999999999911e-01 8.195580000000000087e-01
7.399100000000000121e-02 -4.023349999999999982e-01 8.802000000000000102e-02
-2.472749999999999948e-01 -1.000240000000000018e-01 4.037399999999999878e-01
-2.663789999999999769e-01 1.430819999999999870e-01 -2.260300000000000156e-02
-2.764449999999999963e-01 1.104450000000000015e-01 -3.516130000000000089e-01
-2.172310000000000074e-01 2.252379999999999938e-01 -3.708080000000000265e-01
2.356139999999999901e-01 -1.379039999999999988e-01 -2.911199999999999899e-02
-2.515580000000000038e-01 7.699400000000000688e-02 1.717130000000000045e-01
-1.293710000000000138e-01 1.922850000000000115e-01 -5.379650000000000265e-01
1.563890000000000002e-01 1.185269999999999935e-01 3.386480000000000046e-01
2.722570000000000268e-01 8.471700000000000064e-02 -3.139950000000000241e-01
4.167699999999999877e-02 -4.305430000000000090e-01 2.470070000000000043e-01
-9.146999999999999575e-02 -4.402170000000000250e-01 7.317339999999999955e-01
2.864720000000000044e-01 3.123899999999999941e-02 6.334450000000000358e-01
2.094330000000000080e-01 -2.566900000000000084e-02 -1.466709999999999958e-01
-2.546019999999999950e-01 -1.160329999999999973e-01 2.909809999999999897e-01
9.156499999999999362e-02 -1.552820000000000034e-01 -4.351630000000000220e-01
3.772600000000000259e-02 -2.033079999999999887e-01 9.489379999999999482e-01
-3.248670000000000169e-01 -6.848300000000000221e-02 -3.094239999999999768e-01
-2.601559999999999984e-01 1.462219999999999909e-01 -2.835550000000000015e-01
-2.620350000000000179e-01 2.359999999999999902e-04 2.758000000000000035e-03
-7.220799999999999441e-02 -3.631139999999999923e-01 -4.958699999999999913e-02
-2.666220000000000256e-01 1.422990000000000088e-01 6.577290000000000081e-01
8.328599999999999892e-02 -2.871259999999999923e-01 -1.921799999999999897e-01
2.950639999999999930e-01 1.981839999999999991e-01 -1.923199999999999910e-02
1.182809999999999973e-01 1.349499999999999866e-01 6.747149999999999537e-01
-6.180999999999999862e-03 2.465009999999999979e-01 -2.038470000000000004e-01
2.482240000000000002e-01 -4.804300000000000237e-02 -2.538300000000000001e-01
-1.783730000000000038e-01 1.353860000000000063e-01 1.850509999999999933e-01
-4.909899999999999681e-02 -2.434199999999999905e-02 -5.154889999999999750e-01
2.167129999999999890e-01 -3.337019999999999986e-01 7.533689999999999554e-01
2.802990000000000204e-01 -2.581160000000000121e-01 7.002049999999999663e-01
-6.304400000000000281e-02 2.689230000000000231e-01 -3.848520000000000274e-01
-2.161760000000000070e-01 2.101800000000000057e-01 6.221299999999999608e-01
-2.882339999999999902e-01 1.787169999999999870e-01 -8.125999999999999543e-03
2.325000000000000122e-01 -2.637099999999999861e-02 4.093220000000000192e-01
2.902420000000000000e-01 -3.172799999999999926e-02 9.990200000000000469e-02
-3.096690000000000276e-01 1.866279999999999883e-01 4.256440000000000223e-01
2.562260000000000093e-01 -1.860630000000000062e-01 1.708179999999999976e-01
1.980729999999999991e-01 5.194900000000000212e-02 -1.099030000000000007e-01
1.601940000000000031e-01 1.350619999999999876e-01 -4.991399999999999726e-01
1.497380000000000100e-01 -3.698640000000000261e-01 8.055940000000000323e-01
2.140900000000000095e-02 -4.804160000000000097e-01 5.534069999999999823e-01
-2.775270000000000237e-01 -1.211060000000000053e-01 5.480600000000000055e-02
-1.064999999999999974e-03 -2.934329999999999994e-01 -2.475980000000000125e-01
-2.748349999999999960e-01 7.666199999999999404e-02 3.471799999999999886e-02
-2.381429999999999936e-01 -9.235599999999999365e-02 -4.507070000000000243e-01
3.177800000000000069e-02 -4.459179999999999811e-01 3.361649999999999916e-01
-3.590840000000000143e-01 -1.570689999999999864e-01 -4.029659999999999909e-01
-2.503299999999999970e-02 2.390919999999999990e-01 -5.737360000000000237e-01
-2.300590000000000135e-01 -1.477449999999999875e-01 8.550729999999999720e-01
2.054719999999999880e-01 -2.736160000000000259e-01 3.063000000000000098e-02
-2.913629999999999831e-01 1.200620000000000021e-01 5.589870000000000116e-01
-1.697809999999999875e-01 -1.604019999999999890e-01 -4.289589999999999792e-01
2.495350000000000068e-01 -4.101400000000000184e-02 4.727720000000000256e-01
-2.829800000000000024e-02 -3.794299999999999756e-02 -5.142440000000000344e-01
-2.693010000000000126e-01 1.345200000000000007e-01 4.359040000000000137e-01
3.249000000000000152e-03 -4.827310000000000212e-01 5.891340000000000465e-01
-2.071600000000000108e-01 2.238779999999999937e-01 -4.210800000000000098e-01
-7.501599999999999935e-02 -4.009579999999999811e-01 8.331150000000000500e-01
-9.383000000000000715e-03 -4.673069999999999724e-01 7.147059999999999524e-01
-4.236499999999999988e-02 -4.289959999999999885e-01 8.050180000000000113e-01
-1.258450000000000124e-01 -2.232979999999999965e-01 9.380650000000000377e-01
1.166630000000000028e-01 -6.847599999999999520e-02 9.075980000000000159e-01
6.971700000000000119e-02 -3.400859999999999994e-01 9.187889999999999668e-01
-2.391890000000000127e-01 -2.274710000000000065e-01 3.505050000000000110e-01
-1.362289999999999890e-01 -2.258850000000000025e-01 9.309330000000000105e-01
-1.758460000000000023e-01 -1.695540000000000103e-01 -1.766149999999999942e-01
-1.275129999999999875e-01 -1.703030000000000099e-01 -4.026730000000000032e-01
3.668980000000000019e-01 -8.485499999999999987e-02 -3.193610000000000060e-01
-9.755700000000000482e-02 1.783099999999999963e-01 5.203870000000000440e-01
-2.692550000000000221e-01 -7.912900000000000489e-02 -3.831430000000000113e-01
1.989130000000000065e-01 3.679000000000000326e-02 -9.957399999999999585e-02
1.206430000000000002e-01 -3.922030000000000238e-01 8.012629999999999475e-01
-8.770799999999999430e-02 2.555999999999999939e-01 -4.811000000000000276e-01
8.260199999999999487e-02 -4.110389999999999877e-01 8.070819999999999661e-01
-3.937399999999999928e-02 1.316029999999999978e-01 -5.846869999999999568e-01
-9.119700000000000029e-02 1.376060000000000061e-01 6.559160000000000545e-01
1.649319999999999953e-01 -3.555150000000000254e-01 2.190840000000000010e-01
-2.674449999999999883e-01 1.531689999999999996e-01 -3.225810000000000066e-01
-2.649420000000000108e-01 1.273839999999999972e-01 6.714759999999999618e-01
-1.246909999999999963e-01 1.631920000000000037e-01 -7.883999999999999342e-02
-9.562299999999999967e-02 -4.109860000000000180e-01 2.173799999999999899e-01
-2.456099999999999950e-01 1.159150000000000041e-01 -4.431530000000000191e-01
9.967600000000000071e-02 -3.468519999999999937e-01 -4.857800000000000312e-02
7.519999999999999558e-04 -2.545620000000000105e-01 -3.193449999999999900e-01
-1.334619999999999973e-01 -4.274379999999999846e-01 4.331570000000000142e-01
-2.812500000000000000e-01 -4.994599999999999734e-02 1.547260000000000024e-01
2.646970000000000156e-01 2.037299999999999944e-01 9.127499999999999503e-02
-2.533389999999999809e-01 -3.212639999999999940e-01 5.400369999999999893e-01
-1.105669999999999986e-01 1.603350000000000053e-01 6.193570000000000464e-01
3.345999999999999669e-02 2.182840000000000058e-01 -9.723500000000000199e-02
2.598170000000000202e-01 -1.914710000000000023e-01 8.017360000000000042e-01
-2.012710000000000055e-01 8.807999999999999857e-03 -3.645799999999999735e-02
-1.815199999999999869e-01 -3.169130000000000003e-01 8.336689999999999934e-01
-7.274700000000000610e-02 -4.040710000000000135e-01 9.039400000000000213e-02
-2.356040000000000079e-01 2.009450000000000125e-01 -7.230100000000000415e-02
4.023800000000000293e-02 4.517000000000000182e-03 8.481950000000000323e-01
-1.490620000000000001e-01 -4.285149999999999793e-01 5.430580000000000407e-01
-2.290250000000000064e-01 2.563899999999999860e-02 -2.185000000000000137e-02
2.301219999999999932e-01 7.794900000000000440e-02 -1.864159999999999984e-01
-2.214800000000000102e-01 -2.927440000000000042e-01 8.024750000000000494e-01
1.622799999999999937e-02 -4.767580000000000151e-01 5.093860000000000054e-01
-2.266330000000000011e-01 4.764100000000000279e-02 2.415360000000000007e-01
-2.579560000000000186e-01 -1.311750000000000138e-01 8.113010000000000499e-01
1.145130000000000037e-01 2.042289999999999939e-01 1.736599999999999949e-02
-2.236869999999999969e-01 1.145799999999999944e-02 7.890660000000000451e-01
2.179490000000000038e-01 -2.819599999999999884e-02 8.329109999999999570e-01
-2.656999999999999917e-01 -3.037679999999999825e-01 6.603219999999999645e-01
2.511470000000000091e-01 1.263400000000000079e-01 -2.384999999999999967e-02
2.081399999999999917e-01 -1.534100000000000047e-02 -1.396260000000000001e-01
-2.153059999999999974e-01 -1.795839999999999936e-01 -3.875739999999999741e-01
2.393270000000000119e-01 4.854399999999999687e-02 -4.193879999999999830e-01
2.039439999999999864e-01 -2.994100000000000095e-01 2.407600000000000018e-01
-6.825299999999999423e-02 -4.687749999999999972e-01 5.640220000000000233e-01
-1.812860000000000027e-01 8.297699999999999521e-02 -8.376000000000000112e-02
-8.778700000000000392e-02 -4.167319999999999913e-01 2.345899999999999930e-01
1.702249999999999874e-01 1.102189999999999975e-01 -6.643000000000000294e-02
3.063569999999999904e-01 -1.738300000000000123e-01 5.640089999999999826e-01
-3.080450000000000133e-01 -8.797399999999999665e-02 -3.850270000000000081e-01
-2.394709999999999894e-01 2.009160000000000112e-01 -3.234659999999999758e-01
-1.271120000000000028e-01 3.854799999999999893e-02 8.124149999999999983e-01
2.059469999999999912e-01 2.788099999999999953e-02 -1.338219999999999965e-01
3.055300000000000238e-01 -1.680919999999999914e-01 5.583759999999999835e-01
-2.143770000000000120e-01 -2.311200000000000060e-02 -4.212919999999999998e-01
-6.104899999999999910e-02 1.766300000000000092e-01 3.272329999999999961e-01
-1.154499999999999971e-01 -5.571999999999999696e-03 8.626350000000000406e-01
-1.933130000000000126e-01 -1.122960000000000069e-01 -1.207329999999999931e-01
-2.792020000000000057e-01 -1.709680000000000089e-01 -3.767739999999999978e-01
9.356499999999999539e-02 -2.975920000000000232e-01 -1.575189999999999924e-01
1.993080000000000129e-01 -8.907900000000000540e-02 -1.559149999999999980e-01
2.534719999999999751e-01 -8.794100000000000528e-02 3.112150000000000194e-01
2.676350000000000118e-01 -8.107300000000000617e-02 1.860060000000000047e-01
2.401000000000000079e-01 1.611900000000000138e-02 2.322150000000000047e-01
2.384940000000000115e-01 -1.564510000000000067e-01 8.463150000000000395e-01
2.937730000000000063e-01 1.960989999999999955e-01 -2.014499999999999971e-02
2.853339999999999765e-01 1.171790000000000054e-01 4.972960000000000158e-01
-2.427489999999999926e-01 -1.012500000000000032e-02 -2.261060000000000014e-01
-5.951999999999999826e-03 2.682160000000000100e-01 -5.048270000000000257e-01
-3.403579999999999939e-01 -5.103400000000000297e-02 -3.139719999999999733e-01
-1.170319999999999971e-01 -1.219790000000000041e-01 9.290899999999999714e-01
-3.850100000000000050e-02 2.001900000000000068e-01 1.156070000000000014e-01
1.568499999999999894e-01 -2.792799999999999727e-01 -7.234300000000000452e-02
-6.123300000000000270e-02 -4.663100000000000023e-01 4.918199999999999794e-01
8.214699999999999780e-02 7.442699999999999316e-02 -5.065950000000000175e-01
4.788900000000000101e-02 2.660210000000000075e-01 -3.206269999999999953e-01
-1.482200000000000011e-02 -4.782480000000000064e-01 6.467159999999999576e-01
2.727570000000000272e-01 3.384199999999999708e-02 5.411700000000000399e-01
2.669499999999999998e-02 2.273850000000000038e-01 -1.313590000000000035e-01
1.144020000000000037e-01 -3.658509999999999818e-01 8.488259999999999694e-01
2.738789999999999836e-01 -2.365400000000000141e-02 1.694259999999999933e-01
5.670599999999999946e-02 -4.642350000000000088e-01 6.844839999999999813e-01
2.373049999999999882e-01 -7.724699999999999622e-02 8.372650000000000370e-01
-2.424300000000000066e-01 -1.124639999999999945e-01 -2.281400000000000095e-02
-3.351839999999999820e-01 -1.373969999999999914e-01 -3.551389999999999825e-01
-5.886799999999999672e-02 -4.576799999999999757e-01 7.136860000000000426e-01
-2.676180000000000225e-01 2.765000000000000097e-02 -2.955119999999999969e-01
-2.826250000000000151e-01 -2.013109999999999900e-01 4.930910000000000015e-01
-1.026829999999999965e-01 -1.321120000000000072e-01 -4.540699999999999736e-01
3.873499999999999860e-02 -4.684090000000000198e-01 4.632560000000000011e-01
5.348000000000000323e-03 2.218880000000000019e-01 -8.729399999999999660e-02
-2.403639999999999943e-01 -2.967499999999999999e-02 -2.338870000000000116e-01
2.677570000000000228e-01 -3.326699999999999796e-02 1.973300000000000054e-02
-3.402669999999999861e-01 -7.108100000000000529e-02 -3.590380000000000238e-01
-2.337650000000000006e-01 -2.507200000000000054e-02 4.178060000000000107e-01
4.278599999999999764e-02 -4.328790000000000138e-01 7.930139999999999967e-01
-2.705859999999999932e-01 -1.473849999999999882e-01 4.559429999999999872e-01
5.683799999999999963e-02 8.165600000000000636e-02 7.424830000000000041e-01
7.026999999999999913e-02 -1.307589999999999864e-01 -4.748310000000000031e-01
2.583590000000000053e-01 -2.807899999999999979e-02 4.987469999999999959e-01
3.155990000000000184e-01 -1.517080000000000095e-01 -3.549370000000000025e-01
2.948040000000000105e-01 -1.041870000000000018e-01 5.308709999999999818e-01
2.542179999999999995e-01 1.654249999999999887e-01 -4.867300000000000099e-02
-4.599799999999999722e-02 2.701819999999999777e-01 -4.174059999999999993e-01
-1.657440000000000024e-01 -3.767019999999999813e-01 7.633339999999999570e-01
3.624439999999999884e-01 -1.579359999999999931e-01 -4.131540000000000212e-01
-1.541829999999999867e-01 1.182079999999999936e-01 7.134289999999999798e-01
1.524409999999999932e-01 -3.739799999999999791e-01 2.349479999999999902e-01
1.392319999999999947e-01 2.371080000000000132e-01 -2.523509999999999920e-01
2.260149999999999937e-01 -1.551510000000000111e-01 -3.850200000000000150e-02
-1.098539999999999933e-01 -3.821240000000000192e-01 7.196900000000000519e-02
1.983840000000000048e-01 3.072400000000000131e-02 -6.771699999999999942e-02
-4.402199999999999863e-02 1.760760000000000103e-01 4.072339999999999849e-01
1.974710000000000076e-01 1.080170000000000019e-01 2.077769999999999895e-01
-5.720000000000000258e-03 -1.859099999999999989e-02 8.703300000000000480e-01
2.507949999999999902e-01 -4.043999999999999678e-02 7.963489999999999736e-01
-2.873089999999999811e-01 -5.328000000000000271e-03 7.385099999999999998e-02
1.821460000000000024e-01 -1.823380000000000001e-01 -1.155230000000000007e-01
1.847689999999999888e-01 -2.245129999999999904e-01 8.908719999999999972e-01
-7.690000000000000438e-04 2.720310000000000228e-01 -4.270499999999999852e-01
-5.220099999999999740e-02 -4.706600000000000228e-01 6.537129999999999885e-01
-1.088200000000000001e-01 1.563060000000000005e-01 6.261480000000000379e-01
-1.749809999999999977e-01 1.363880000000000092e-01 -4.926059999999999883e-01
-2.119800000000000018e-01 -1.183010000000000034e-01 -2.515180000000000193e-01
-1.687609999999999943e-01 -3.631600000000000106e-02 8.746190000000000353e-01
-1.867759999999999976e-01 2.410329999999999973e-01 -3.767280000000000073e-01
-7.701500000000000012e-02 -4.586020000000000096e-01 6.748060000000000169e-01
-2.279079999999999995e-01 -2.662610000000000254e-01 8.154019999999999602e-01
-1.097039999999999960e-01 1.670580000000000120e-01 4.470379999999999909e-01
-7.392700000000000660e-02 -2.069809999999999983e-01 -3.676099999999999923e-01
1.912600000000000133e-01 -2.948959999999999915e-01 3.859400000000000330e-02
-1.552979999999999916e-01 -2.550890000000000102e-01 -9.418999999999999595e-02
3.899590000000000001e-01 -1.464570000000000038e-01 -4.628979999999999762e-01
2.858359999999999790e-01 1.290209999999999968e-01 4.544200000000000322e-02
9.159299999999999387e-02 -1.241880000000000067e-01 9.325470000000000148e-01
-2.127489999999999937e-01 2.262109999999999954e-01 6.022669999999999968e-01
-1.090890000000000054e-01 -4.500170000000000003e-01 6.110630000000000228e-01
-1.782410000000000105e-01 -3.371919999999999917e-01 2.058770000000000044e-01
5.735999999999999779e-03 2.678090000000000193e-01 -5.097749999999999782e-01
-3.351399999999999935e-01 -9.574199999999999378e-02 -3.953820000000000112e-01
-2.832569999999999810e-01 -1.601239999999999886e-01 4.853390000000000204e-01
2.258600000000000052e-01 6.141200000000000131e-02 2.152729999999999921e-01
1.783520000000000105e-01 -2.619200000000000000e-02 8.565549999999999553e-01
3.044359999999999844e-01 -6.094299999999999717e-02 6.185890000000000555e-01
1.588880000000000015e-01 2.191120000000000012e-01 -2.325639999999999930e-01
2.862600000000000144e-01 8.731600000000000472e-02 5.738140000000000462e-01
2.094920000000000115e-01 -3.295000000000000012e-02 -1.506699999999999984e-01
2.131730000000000014e-01 2.022100000000000009e-01 1.316039999999999988e-01
-1.026070000000000038e-01 -3.581150000000000166e-01 8.697890000000000343e-01
2.154639999999999889e-01 -2.736779999999999768e-01 2.118140000000000023e-01
-3.355500000000000149e-02 2.694090000000000096e-01 -4.716339999999999977e-01
2.916699999999999848e-01 -2.197629999999999861e-01 7.017200000000000104e-01
-1.816409999999999969e-01 -1.547650000000000137e-01 -1.977289999999999881e-01
-2.687109999999999776e-01 -3.008520000000000083e-01 5.678549999999999986e-01
2.202899999999999997e-02 -4.421309999999999962e-01 7.796840000000000437e-01
-2.980039999999999911e-01 -2.243399999999999908e-02 -3.468479999999999897e-01
-3.131639999999999979e-01 -1.229599999999999999e-01 -3.286209999999999964e-01
-8.981000000000000094e-02 -3.814159999999999773e-01 8.480529999999999458e-01
2.430400000000000060e-01 -2.122120000000000117e-01 3.563830000000000053e-01
2.548309999999999742e-01 9.709500000000000075e-02 7.030779999999999808e-01
-2.215870000000000062e-01 -3.403209999999999846e-01 4.741469999999999851e-01
2.331149999999999889e-01 -2.478150000000000075e-01 2.986210000000000253e-01
1.612750000000000017e-01 -4.197279999999999900e-01 5.883610000000000229e-01
-1.076310000000000044e-01 -4.444679999999999742e-01 6.663210000000000521e-01
-7.750100000000000044e-02 2.624839999999999951e-01 -4.456700000000000106e-01
2.772580000000000044e-01 -5.408299999999999913e-02 1.649819999999999898e-01
1.778830000000000133e-01 4.519499999999999906e-02 7.858020000000000005e-01
-1.685949999999999949e-01 6.654999999999999805e-02 7.687370000000000037e-01
2.017760000000000109e-01 -7.446200000000000041e-02 -1.501180000000000014e-01
-3.531100000000000211e-02 -3.641280000000000072e-01 9.068169999999999842e-01
1.355169999999999986e-01 -2.093089999999999951e-01 -2.554870000000000196e-01
6.512700000000000433e-02 -2.242319999999999869e-01 9.523580000000000378e-01
-2.802870000000000084e-01 -1.392819999999999891e-01 -3.240910000000000180e-01
1.029869999999999952e-01 -4.513840000000000074e-01 4.942449999999999899e-01
-3.468700000000000255e-02 -4.299609999999999821e-01 2.190370000000000095e-01
-2.757350000000000079e-01 6.846199999999999508e-02 5.354400000000000270e-01
-3.060689999999999800e-01 -5.968799999999999800e-02 6.231250000000000400e-01
-9.609900000000000386e-02 -4.391979999999999773e-01 7.237360000000000460e-01
-2.502210000000000267e-01 -1.800430000000000086e-01 2.359759999999999913e-01
1.344170000000000087e-01 -1.921690000000000065e-01 -3.193139999999999867e-01
-2.233269999999999977e-01 1.063390000000000030e-01 -2.977799999999999891e-02
2.229649999999999965e-01 -3.633419999999999983e-01 6.090020000000000433e-01
2.885550000000000059e-01 -1.736800000000000149e-02 5.725029999999999841e-01
4.868499999999999911e-02 -1.859820000000000084e-01 9.466489999999999627e-01
-2.374439999999999884e-01 -3.517540000000000111e-01 5.967519999999999492e-01
-1.284119999999999984e-01 2.373949999999999949e-01 -4.772649999999999948e-01
-2.152149999999999896e-01 -2.698639999999999928e-01 5.652100000000000180e-02
-2.606129999999999836e-01 6.400000000000000133e-02 -3.864480000000000137e-01
-1.918340000000000045e-01 -3.617319999999999980e-01 7.479609999999999870e-01
-1.066269999999999996e-01 -1.273900000000000032e-01 9.319250000000000034e-01
-3.916580000000000061e-01 -8.931100000000000150e-02 -3.476710000000000078e-01
2.021779999999999966e-01 -9.963400000000000034e-02 -1.881579999999999919e-01
1.539949999999999930e-01 -2.754309999999999814e-01 -8.451100000000000279e-02
-1.299000000000000024e-03 -4.076569999999999916e-01 2.352800000000000030e-02
1.626000000000000058e-03 -4.793250000000000011e-01 6.521400000000000530e-01
-3.144000000000000093e-03 -3.456900000000000250e-02 8.831240000000000201e-01
2.530709999999999904e-01 -9.106400000000000605e-02 -4.162980000000000014e-01
-3.409019999999999828e-01 -1.446409999999999918e-01 -3.667699999999999849e-01
1.026090000000000058e-01 -4.425669999999999882e-01 4.206039999999999779e-01
1.518450000000000077e-01 -2.330200000000000049e-01 -1.475400000000000045e-01
2.706200000000000272e-01 -8.641999999999999682e-02 1.797130000000000116e-01
2.817339999999999844e-01 -2.402140000000000108e-01 5.147289999999999921e-01
-1.381950000000000123e-01 7.158399999999999486e-02 7.680879999999999930e-01
2.624079999999999746e-01 -1.911120000000000041e-01 6.310399999999999343e-02
5.750700000000000256e-02 2.602579999999999893e-01 -2.716000000000000081e-01
1.974440000000000084e-01 5.974100000000000243e-02 4.173049999999999815e-01
2.571399999999999797e-01 1.593690000000000107e-01 1.252340000000000120e-01
2.447229999999999961e-01 -1.005830000000000057e-01 -4.738870000000000027e-01
-1.644390000000000018e-01 1.223339999999999983e-01 2.612659999999999982e-01
9.866400000000000170e-02 1.908800000000000080e-02 8.347890000000000033e-01
-2.412870000000000015e-01 1.900870000000000060e-01 -2.996039999999999814e-01
-1.596809999999999896e-01 1.592069999999999874e-01 4.203970000000000207e-01
1.338880000000000070e-01 -3.988129999999999731e-01 2.820300000000000029e-01
-1.010579999999999951e-01 -4.497900000000000231e-01 4.738029999999999742e-01
1.636120000000000074e-01 -2.177119999999999889e-01 -1.325800000000000034e-01
-6.615300000000000347e-02 -4.004340000000000122e-01 5.015399999999999719e-02
2.615819999999999812e-01 -1.744509999999999950e-01 8.052449999999999886e-01
-2.490179999999999894e-01 -7.281799999999999384e-02 4.448019999999999752e-01
-1.511369999999999936e-01 2.008469999999999978e-01 1.172139999999999987e-01
-2.280290000000000095e-01 -8.055800000000000460e-02 -4.112629999999999897e-01
2.414099999999999926e-02 4.801699999999999718e-02 7.914539999999999909e-01
-1.612169999999999992e-01 -2.303010000000000057e-01 9.119559999999999889e-01
7.215199999999999392e-02 -6.579200000000000326e-02 -5.116049999999999764e-01
9.802099999999999702e-02 1.788450000000000040e-01 1.703250000000000042e-01
2.857560000000000100e-01 1.578730000000000133e-01 5.985500000000000265e-01
1.318130000000000135e-01 -2.770420000000000105e-01 9.155720000000000525e-01
-3.606219999999999981e-01 -1.015059999999999990e-01 -4.150420000000000220e-01
1.487360000000000071e-01 1.980079999999999896e-01 -6.307300000000000406e-02
-1.790559999999999929e-01 9.136900000000000577e-02 -9.031799999999999551e-02
-1.123480000000000034e-01 1.643800000000000122e-02 8.376869999999999594e-01
1.692790000000000128e-01 -4.064459999999999740e-01 6.597079999999999611e-01
8.516999999999999571e-02 -4.197069999999999967e-01 7.905670000000000197e-01
2.214250000000000107e-01 1.005339999999999984e-01 -1.859250000000000069e-01
9.057900000000000673e-02 1.312180000000000013e-01 6.634120000000000017e-01
2.606769999999999921e-01 -3.473799999999999805e-02 -2.722330000000000028e-01
2.054870000000000030e-01 2.059090000000000087e-01 1.301599999999999979e-01
-2.059090000000000087e-01 4.019600000000000256e-02 -4.600440000000000085e-01
-1.087059999999999971e-01 2.617559999999999887e-01 -3.267300000000000204e-01
-2.353999999999999843e-02 2.136919999999999931e-01 -5.155300000000000160e-02
-1.184499999999999997e-01 -2.815880000000000050e-01 -1.364480000000000137e-01
-2.946489999999999942e-01 -2.325480000000000047e-01 5.852709999999999857e-01
2.485700000000000132e-01 -2.759579999999999811e-01 7.632999999999999785e-01
-5.639600000000000168e-02 1.377579999999999916e-01 6.424959999999999560e-01
6.983200000000000518e-02 -4.954299999999999676e-02 8.970690000000000053e-01
-2.377470000000000139e-01 -2.917200000000000001e-02 3.684029999999999805e-01
7.835100000000000398e-02 -1.277810000000000057e-01 -4.748850000000000016e-01
2.162729999999999930e-01 -6.940899999999999848e-02 -3.730200000000000182e-02
-2.620230000000000059e-01 -1.737720000000000098e-01 -3.806160000000000099e-01
-2.610000000000000098e-01 8.364000000000000601e-02 1.544359999999999900e-01
2.238040000000000029e-01 -1.688270000000000048e-01 -3.315170000000000061e-01
2.892890000000000184e-01 8.293000000000000024e-03 1.088500000000000023e-01
4.594399999999999873e-02 1.012020000000000003e-01 -5.506109999999999616e-01
-2.024170000000000136e-01 -4.487200000000000216e-02 -1.482189999999999896e-01
1.921160000000000090e-01 1.437239999999999907e-01 -4.951699999999999852e-02
1.742350000000000010e-01 -1.661559999999999981e-01 -2.440690000000000082e-01
6.965999999999999970e-03 -4.493369999999999864e-01 7.681400000000000450e-01
4.140320000000000111e-01 -1.102169999999999955e-01 -3.477190000000000003e-01
1.411280000000000034e-01 -1.316430000000000100e-01 -4.448059999999999792e-01
-1.362230000000000107e-01 -3.970060000000000255e-01 7.715260000000000451e-01
-2.856859999999999955e-01 -2.475120000000000098e-01 5.436649999999999539e-01
2.494339999999999891e-01 -1.668030000000000068e-01 3.785399999999999876e-01
-2.861719999999999819e-01 -6.756999999999999985e-03 6.870600000000000041e-01
9.355299999999999727e-02 1.664770000000000139e-01 5.805139999999999745e-01
-1.731729999999999936e-01 -1.729390000000000094e-01 -2.084080000000000099e-01
-2.668650000000000189e-01 -1.124320000000000042e-01 1.909599999999999909e-01
1.688840000000000063e-01 1.271150000000000058e-01 2.441280000000000117e-01
-2.570729999999999960e-01 -8.700399999999999801e-02 -4.658999999999999947e-03
1.247489999999999988e-01 1.949619999999999964e-01 4.459429999999999783e-01
-8.596900000000000375e-02 2.542530000000000068e-01 -5.012870000000000381e-01
8.496599999999999986e-02 1.351549999999999974e-01 6.526830000000000132e-01
8.040300000000000225e-02 2.202020000000000088e-01 -1.559570000000000123e-01
2.431190000000000018e-01 -3.735399999999999832e-02 3.267329999999999957e-01
-1.828210000000000113e-01 2.003729999999999956e-01 -2.267290000000000139e-01
7.993799999999999517e-02 -5.496700000000000197e-02 -5.141059999999999519e-01
2.533730000000000149e-01 -1.590350000000000097e-01 3.213079999999999825e-01
2.670000000000000151e-02 -4.198419999999999930e-01 1.072359999999999980e-01
-2.394779999999999964e-01 8.961700000000000221e-02 -2.014739999999999864e-01
1.981199999999999906e-01 -1.802650000000000086e-01 -3.695720000000000116e-01
1.778309999999999891e-01 -3.269239999999999924e-01 1.564389999999999947e-01
-1.174980000000000052e-01 -1.984249999999999903e-01 -3.319730000000000181e-01
2.473660000000000025e-01 -1.489200000000000072e-02 -3.849310000000000231e-01
-2.056209999999999982e-01 1.179260000000000030e-01 1.885300000000000031e-01
-3.063259999999999872e-01 -1.975530000000000064e-01 6.457199999999999607e-01
-2.369630000000000070e-01 -9.251299999999999801e-02 -4.529259999999999953e-01
-1.844790000000000041e-01 1.037170000000000036e-01 7.299740000000000117e-01
2.028500000000000095e-02 8.940499999999999836e-02 7.228630000000000333e-01
-2.865469999999999962e-01 7.525300000000000045e-02 6.056550000000000544e-01
-3.719180000000000264e-01 -1.230109999999999953e-01 -4.909950000000000148e-01
-7.918000000000000038e-02 2.275510000000000033e-01 -1.794080000000000119e-01
2.857109999999999927e-01 4.361600000000000199e-02 8.926900000000000113e-02
-2.210209999999999952e-01 -3.161089999999999733e-01 4.353520000000000167e-01
-1.314599999999999970e-02 1.935399999999999898e-01 2.769249999999999767e-01
5.600200000000000317e-02 -2.656850000000000045e-01 9.556170000000000497e-01
-2.521800000000000153e-01 -6.232499999999999846e-02 2.371159999999999934e-01
-2.083099999999999952e-01 -1.282830000000000081e-01 -5.995899999999999841e-02
-4.468090000000000117e-01 -1.431929999999999870e-01 -4.101090000000000013e-01
