1.526182293891906738e-01 5.450692176818847656e-01 1.116652488708496094e-01
1.627560108900070190e-01 5.480602383613586426e-01 1.273832321166992188e-01
1.425396054983139038e-01 -9.983106702566146851e-02 -2.038529217243194580e-01
1.274797320365905762e-01 -9.966865181922912598e-02 -1.982885152101516724e-01
1.344968378543853760e-01 -8.474007248878479004e-02 -1.998513489961624146e-01
1.197603046894073486e-01 -8.532793819904327393e-02 -1.948356181383132935e-01
-2.169256806373596191e-01 -2.921295166015625000e-01 -1.672534644603729248e-01
-2.181658595800399780e-01 -2.933025360107421875e-01 -1.527648866176605225e-01
-2.186286449432373047e-01 -2.809277474880218506e-01 -1.568622887134552002e-01
-2.198998183012008667e-01 -2.822180986404418945e-01 -1.425340324640274048e-01
-1.155061796307563782e-01 7.478825449943542480e-01 4.375514090061187744e-01
-1.220905333757400513e-01 7.462015151977539062e-01 4.527234137058258057e-01
-1.219001933932304382e-01 7.619946002960205078e-01 4.493044614791870117e-01
-1.287774443626403809e-01 7.594338059425354004e-01 4.645257294178009033e-01
-3.574619069695472717e-02 -2.089154124259948730e-01 -1.487477123737335205e-01
-3.229006752371788025e-02 -2.135307639837265015e-01 -1.322723031044006348e-01
-4.983868449926376343e-02 -2.108551561832427979e-01 -1.368949115276336670e-01
-4.590563848614692688e-02 -2.155834883451461792e-01 -1.200356334447860718e-01
1.430399715900421143e-01 5.854349136352539062e-01 2.516457438468933105e-01
1.500828266143798828e-01 5.975501537322998047e-01 2.591586709022521973e-01
1.370792537927627563e-01 5.983975529670715332e-01 2.589110434055328369e-01
1.441314071416854858e-01 6.108769774436950684e-01 2.664465308189392090e-01
-1.843584328889846802e-01 6.536412835121154785e-01 4.997442960739135742e-01
-1.867672502994537354e-01 6.517569422721862793e-01 5.148198604583740234e-01
-1.851567029953002930e-01 6.673951745033264160e-01 5.106745362281799316e-01
-1.884486079216003418e-01 6.654493212699890137e-01 5.256090164184570312e-01
4.786639213562011719e-01 -3.189434111118316650e-01 -1.860098987817764282e-01
4.777683019638061523e-01 -3.217614293098449707e-01 -1.677683591842651367e-01
4.770597815513610840e-01 -3.073146939277648926e-01 -1.746124923229217529e-01
4.760157763957977295e-01 -3.103483319282531738e-01 -1.570578068494796753e-01
-2.515634298324584961e-01 -5.733785629272460938e-01 -3.123877644538879395e-01
-2.508358061313629150e-01 -5.757753849029541016e-01 -2.965880930423736572e-01
-2.573906779289245605e-01 -5.615192651748657227e-01 -3.033164739608764648e-01
-2.569449543952941895e-01 -5.638391971588134766e-01 -2.867592275142669678e-01
-4.202161729335784912e-01 -3.542011678218841553e-01 -2.187761366367340088e-01
-4.205688238143920898e-01 -3.574340939521789551e-01 -2.023969441652297974e-01
-4.233814179897308350e-01 -3.456747531890869141e-01 -2.072322964668273926e-01
-4.236702919006347656e-01 -3.492223918437957764e-01 -1.903572827577590942e-01
1.000077202916145325e-01 5.607953667640686035e-01 2.364577353000640869e-01
1.079327166080474854e-01 5.731509923934936523e-01 2.476592212915420532e-01
9.783712774515151978e-02 5.800307393074035645e-01 2.424734979867935181e-01
1.026211157441139221e-01 5.920510292053222656e-01 2.514139711856842041e-01
-2.828535735607147217e-01 -6.040627136826515198e-02 -1.238760948181152344e-01
-2.944050431251525879e-01 -5.839198455214500427e-02 -1.159085482358932495e-01
-2.960847616195678711e-01 -4.929973930120468140e-02 -1.102541238069534302e-01
-3.081779181957244873e-01 -4.754923284053802490e-02 -1.020280420780181885e-01
4.767841994762420654e-01 -8.698088675737380981e-02 -1.398800462484359741e-01
4.764972925186157227e-01 -9.214369952678680420e-02 -1.182643920183181763e-01
4.732098877429962158e-01 -7.078614085912704468e-02 -1.276931762695312500e-01
4.731885492801666260e-01 -7.626325637102127075e-02 -1.056087911128997803e-01
-3.961412310600280762e-01 -5.011394619941711426e-01 -1.314008235931396484e-01
-3.947696089744567871e-01 -5.066882967948913574e-01 -1.117346659302711487e-01
-3.977048397064208984e-01 -4.900038242340087891e-01 -1.165223866701126099e-01
-3.961829841136932373e-01 -4.957060813903808594e-01 -9.563037753105163574e-02
2.923620343208312988e-01 -5.684216618537902832e-01 -4.554315507411956787e-01
2.771941423416137695e-01 -5.687934160232543945e-01 -4.484917223453521729e-01
2.834037840366363525e-01 -5.514789223670959473e-01 -4.489883482456207275e-01
2.667808830738067627e-01 -5.502969026565551758e-01 -4.429599940776824951e-01
1.052250638604164124e-01 -1.518831998109817505e-01 -2.546311020851135254e-01
8.877137303352355957e-02 -1.533378213644027710e-01 -2.472826540470123291e-01
9.898999333381652832e-02 -1.405447423458099365e-01 -2.470026165246963501e-01
8.221867680549621582e-02 -1.414924860000610352e-01 -2.409720271825790405e-01
3.885522484779357910e-02 5.709772557020187378e-02 1.057950928807258606e-01
3.513185307383537292e-02 4.886179417371749878e-02 1.206154078245162964e-01
2.319972217082977295e-02 5.906293541193008423e-02 1.117142513394355774e-01
2.065079472959041595e-02 5.143870413303375244e-02 1.271438449621200562e-01
1.674892008304595947e-01 -2.739400267601013184e-01 -3.115217089653015137e-01
1.557801514863967896e-01 -2.753410339355468750e-01 -2.988352179527282715e-01
1.569538563489913940e-01 -2.656698822975158691e-01 -3.000571727752685547e-01
1.472400426864624023e-01 -2.681548893451690674e-01 -2.851684987545013428e-01
4.959730803966522217e-01 -6.143319234251976013e-02 5.465876311063766479e-03
4.886253178119659424e-01 -6.435665488243103027e-02 2.023724094033241272e-02
4.927173256874084473e-01 -4.884460940957069397e-02 1.866058818995952606e-02
4.869449734687805176e-01 -5.148916691541671753e-02 3.329464420676231384e-02
-8.771316707134246826e-02 2.889262735843658447e-01 -1.636616326868534088e-02
-9.958960860967636108e-02 2.876824438571929932e-01 1.458263024687767029e-03
-9.693228453397750854e-02 3.064088821411132812e-01 -2.088753506541252136e-03
-1.077902615070343018e-01 3.048962354660034180e-01 1.509415730834007263e-02
4.532268643379211426e-01 -1.534236595034599304e-03 -2.358284145593643188e-01
4.581452310085296631e-01 1.857543829828500748e-03 -2.219884842634201050e-01
4.460490047931671143e-01 9.103097952902317047e-03 -2.296894043684005737e-01
4.508035778999328613e-01 1.208970043808221817e-02 -2.157346308231353760e-01
-3.058277666568756104e-01 -5.366253256797790527e-01 -3.398593366146087646e-01
-3.047867417335510254e-01 -5.347397923469543457e-01 -3.256479203701019287e-01
-3.120686113834381104e-01 -5.259149074554443359e-01 -3.305956423282623291e-01
-3.115726411342620850e-01 -5.242198109626770020e-01 -3.159737586975097656e-01
-1.248500421643257141e-01 6.949214339256286621e-01 2.123996466398239136e-01
-1.310879439115524292e-01 6.944670677185058594e-01 2.272699177265167236e-01
-1.269272565841674805e-01 7.075676321983337402e-01 2.222126424312591553e-01
-1.328032165765762329e-01 7.068626284599304199e-01 2.371755689382553101e-01
-1.962417364120483398e-02 7.049941420555114746e-01 1.224452778697013855e-01
-3.312102705240249634e-02 7.034423351287841797e-01 1.321001052856445312e-01
-2.364368177950382233e-02 7.205079197883605957e-01 1.299832463264465332e-01
-3.639597073197364807e-02 7.181367874145507812e-01 1.410357952117919922e-01
-4.002418741583824158e-02 3.106958568096160889e-01 1.599057465791702271e-01
-5.412128940224647522e-02 3.107590973377227783e-01 1.714759021997451782e-01
-4.330173879861831665e-02 3.295994997024536133e-01 1.678073257207870483e-01
-5.730925500392913818e-02 3.298404514789581299e-01 1.786478459835052490e-01
1.163913961499929428e-02 -1.303889602422714233e-01 -2.289088368415832520e-01
-3.641223534941673279e-03 -1.278060823678970337e-01 -2.223134636878967285e-01
4.100298509001731873e-03 -1.153462007641792297e-01 -2.163752466440200806e-01
-1.089880708605051041e-02 -1.118615716695785522e-01 -2.098543345928192139e-01
1.031249836087226868e-01 8.823621869087219238e-01 3.146697282791137695e-01
9.890075773000717163e-02 8.801235556602478027e-01 3.331365883350372314e-01
8.467306941747665405e-02 8.887735605239868164e-01 3.260729014873504639e-01
7.934736460447311401e-02 8.861476778984069824e-01 3.440291881561279297e-01
-1.602568626403808594e-01 -3.098820447921752930e-01 1.424028538167476654e-02
-1.679678410291671753e-01 -3.130059540271759033e-01 2.850041352212429047e-02
-1.646815389394760132e-01 -2.955798208713531494e-01 2.482507191598415375e-02
-1.758967190980911255e-01 -2.981749773025512695e-01 3.821860626339912415e-02
-2.764948904514312744e-01 -4.807212352752685547e-01 -1.031302362680435181e-01
-2.768271565437316895e-01 -4.900248050689697266e-01 -8.391793072223663330e-02
-2.762271761894226074e-01 -4.759028851985931396e-01 -8.630891889333724976e-02
-2.772412300109863281e-01 -4.850592911243438721e-01 -6.702873110771179199e-02
3.019493818283081055e-01 -2.564886212348937988e-01 -3.441363200545310974e-02
2.831150591373443604e-01 -2.561772465705871582e-01 -2.754452079534530640e-02
2.933029532432556152e-01 -2.398111969232559204e-01 -2.680542506277561188e-02
2.747594416141510010e-01 -2.393024861812591553e-01 -2.033332176506519318e-02
2.406334429979324341e-01 6.952672600746154785e-01 2.885846495628356934e-01
2.306641340255737305e-01 6.928020715713500977e-01 3.012197613716125488e-01
2.324578762054443359e-01 7.092764377593994141e-01 2.978770732879638672e-01
2.205601185560226440e-01 7.081695795059204102e-01 3.096813857555389404e-01
4.903763532638549805e-02 1.534733921289443970e-01 -1.185817345976829529e-01
5.574667826294898987e-02 1.654442846775054932e-01 -1.068554595112800598e-01
3.827632591128349304e-02 1.653182655572891235e-01 -1.073693931102752686e-01
4.703998565673828125e-02 1.776233911514282227e-01 -9.488952159881591797e-02
-4.192262142896652222e-02 4.575152397155761719e-01 3.290258347988128662e-02
-5.265491083264350891e-02 4.588336050510406494e-01 4.159880429506301880e-02
-4.748746752738952637e-02 4.697824120521545410e-01 4.222093522548675537e-02
-5.759875848889350891e-02 4.705635011196136475e-01 5.147799104452133179e-02
1.993113905191421509e-01 -1.183285936713218689e-01 -2.263887226581573486e-01
1.850952208042144775e-01 -1.175855696201324463e-01 -2.192668169736862183e-01
1.936295330524444580e-01 -1.002772897481918335e-01 -2.209237068891525269e-01
1.798824071884155273e-01 -9.987613558769226074e-02 -2.139325141906738281e-01
5.785296112298965454e-02 6.716207265853881836e-01 2.787832617759704590e-01
4.006842896342277527e-02 6.745149493217468262e-01 2.838902771472930908e-01
5.035761743783950806e-02 6.835732460021972656e-01 2.879452705383300781e-01
3.491026163101196289e-02 6.866685152053833008e-01 2.937319576740264893e-01
3.918425738811492920e-01 -2.635088562965393066e-01 -5.673646181821823120e-02
3.772137165069580078e-01 -2.637572288513183594e-01 -4.933493211865425110e-02
3.825830221176147461e-01 -2.503729164600372314e-01 -4.761841893196105957e-02
3.671721518039703369e-01 -2.498031109571456909e-01 -4.042054712772369385e-02
-3.941144645214080811e-01 -3.467293083667755127e-01 -5.924911424517631531e-02
-3.936664760112762451e-01 -3.517034947872161865e-01 -3.664851933717727661e-02
-3.970998823642730713e-01 -3.331674337387084961e-01 -4.762278497219085693e-02
-3.963601589202880859e-01 -3.384149372577667236e-01 -2.557781711220741272e-02
-1.223884075880050659e-01 5.778357982635498047e-01 1.611907333135604858e-01
-1.291559785604476929e-01 5.761744379997253418e-01 1.758845746517181396e-01
-1.289962530136108398e-01 5.857587456703186035e-01 1.728245913982391357e-01
-1.361306756734848022e-01 5.844386219978332520e-01 1.872738450765609741e-01
-1.463613212108612061e-01 -4.179308712482452393e-01 -1.468570083379745483e-01
-1.421271711587905884e-01 -4.214248359203338623e-01 -1.277602612972259521e-01
-1.542647629976272583e-01 -4.130403101444244385e-01 -1.381365656852722168e-01
-1.488240361213684082e-01 -4.162530004978179932e-01 -1.196961700916290283e-01
-8.924409747123718262e-03 9.117847681045532227e-01 2.148116379976272583e-01
-2.122142352163791656e-02 9.137173891067504883e-01 2.277183085680007935e-01
-1.343515329062938690e-02 9.267010688781738281e-01 2.311932593584060669e-01
-2.555218152701854706e-02 9.280914664268493652e-01 2.453624904155731201e-01
2.095984518527984619e-01 6.255211830139160156e-01 2.143449783325195312e-01
2.162438035011291504e-01 6.241715550422668457e-01 2.298632860183715820e-01
2.089869230985641479e-01 6.396317481994628906e-01 2.251609414815902710e-01
2.158459573984146118e-01 6.380613446235656738e-01 2.408173382282257080e-01
-1.669862866401672363e-01 2.135865539312362671e-01 2.292397916316986084e-01
-1.742509901523590088e-01 2.131857722997665405e-01 2.420949190855026245e-01
-1.703666001558303833e-01 2.215185165405273438e-01 2.406959086656570435e-01
-1.769843846559524536e-01 2.210385799407958984e-01 2.534104883670806885e-01
8.251051604747772217e-02 9.227625727653503418e-01 2.993175387382507324e-01
8.169265836477279663e-02 9.191464781761169434e-01 3.191551864147186279e-01
7.279744744300842285e-02 9.334241747856140137e-01 3.119551837444305420e-01
7.258127629756927490e-02 9.293574094772338867e-01 3.317957818508148193e-01
-2.185229510068893433e-01 -4.349259734153747559e-01 -6.401491351425647736e-03
-2.358811199665069580e-01 -4.336229860782623291e-01 2.685847226530313492e-03
-2.191073596477508545e-01 -4.163815975189208984e-01 4.824049305170774460e-03
-2.360473126173019409e-01 -4.148150086402893066e-01 1.288564782589673996e-02
-1.398377865552902222e-02 4.134384170174598694e-02 -1.575501412153244019e-01
-3.199186176061630249e-02 4.021394625306129456e-02 -1.511990725994110107e-01
-2.174993604421615601e-02 5.822516605257987976e-02 -1.516645550727844238e-01
-3.861660137772560120e-02 5.879509449005126953e-02 -1.446598172187805176e-01
-7.096676528453826904e-02 -1.424901932477951050e-01 -2.176233828067779541e-01
-8.694647252559661865e-02 -1.439063102006912231e-01 -2.092084437608718872e-01
-8.410259336233139038e-02 -1.304838210344314575e-01 -2.177568376064300537e-01
-1.012133434414863586e-01 -1.308644711971282959e-01 -2.108499407768249512e-01
-1.704260557889938354e-01 2.980603575706481934e-01 9.825872629880905151e-02
-1.751249134540557861e-01 2.971680760383605957e-01 1.140791550278663635e-01
-1.721686422824859619e-01 3.084735274314880371e-01 1.086769849061965942e-01
-1.767624616622924805e-01 3.077648878097534180e-01 1.244880557060241699e-01
-8.224149793386459351e-02 4.896962940692901611e-01 7.555186003446578979e-02
-9.067490696907043457e-02 4.898757934570312500e-01 8.647595345973968506e-02
-8.463414758443832397e-02 5.008687376976013184e-01 8.574721217155456543e-02
-9.344084560871124268e-02 5.007670521736145020e-01 9.780161827802658081e-02
-3.906279504299163818e-01 -6.774003505706787109e-01 -3.646784722805023193e-01
-4.054065048694610596e-01 -6.797018051147460938e-01 -3.486953973770141602e-01
-4.001457095146179199e-01 -6.638263463973999023e-01 -3.513112664222717285e-01
-4.149003028869628906e-01 -6.661026477813720703e-01 -3.351211249828338623e-01
-2.095587104558944702e-01 -4.067887663841247559e-01 -2.302203327417373657e-01
-2.087000757455825806e-01 -4.154125154018402100e-01 -2.146500200033187866e-01
-2.111163139343261719e-01 -4.015158116817474365e-01 -2.217956632375717163e-01
-2.085389941930770874e-01 -4.086356163024902344e-01 -2.064044624567031860e-01
3.580757379531860352e-01 -6.539049744606018066e-01 -2.073160856962203979e-01
3.447019755840301514e-01 -6.510855555534362793e-01 -1.997866481542587280e-01
3.529404401779174805e-01 -6.374739408493041992e-01 -2.026888877153396606e-01
3.379572927951812744e-01 -6.354091763496398926e-01 -1.952145099639892578e-01
-3.998890519142150879e-01 -2.314718514680862427e-01 -2.021319568157196045e-01
-4.097701013088226318e-01 -2.329531610012054443e-01 -1.882773935794830322e-01
-4.049874246120452881e-01 -2.187220305204391479e-01 -1.910044103860855103e-01
-4.123688340187072754e-01 -2.205671221017837524e-01 -1.755404919385910034e-01
-6.842163205146789551e-02 2.409939914941787720e-01 1.374870687723159790e-01
-7.928257435560226440e-02 2.397981584072113037e-01 1.507496237754821777e-01
-7.268976420164108276e-02 2.535522282123565674e-01 1.517892181873321533e-01
-8.341775834560394287e-02 2.523976564407348633e-01 1.656545400619506836e-01
-3.195192515850067139e-01 6.341716647148132324e-02 1.715595275163650513e-01
-3.113417923450469971e-01 6.076219677925109863e-02 1.927946656942367554e-01
-3.339023888111114502e-01 6.026845797896385193e-02 1.901195347309112549e-01
-3.253776133060455322e-01 5.745846405625343323e-02 2.094413340091705322e-01
4.785784780979156494e-01 -1.490608453750610352e-01 -1.204162538051605225e-01
4.776026606559753418e-01 -1.533427536487579346e-01 -9.836404025554656982e-02
4.756701886653900146e-01 -1.352736651897430420e-01 -1.074982658028602600e-01
4.752371013164520264e-01 -1.402388364076614380e-01 -8.601444959640502930e-02
3.134468197822570801e-01 2.770762704312801361e-02 1.012719497084617615e-01
2.997190356254577637e-01 2.402541227638721466e-02 1.098553314805030823e-01
2.993763387203216553e-01 3.912032023072242737e-02 1.061293557286262512e-01
2.881757915019989014e-01 3.691300749778747559e-02 1.170119270682334900e-01
3.098859786987304688e-01 -7.417168468236923218e-02 6.299412250518798828e-02
2.929692864418029785e-01 -7.240052521228790283e-02 6.903472542762756348e-02
3.015814423561096191e-01 -5.716106668114662170e-02 7.196597009897232056e-02
2.842468023300170898e-01 -5.502899736166000366e-02 7.828809320926666260e-02
-3.547192513942718506e-01 -7.578370571136474609e-01 -1.340219080448150635e-01
-3.520658612251281738e-01 -7.564259767532348633e-01 -1.168039813637733459e-01
-3.651242852210998535e-01 -7.520585656166076660e-01 -1.190949156880378723e-01
-3.629883527755737305e-01 -7.505784630775451660e-01 -1.018015220761299133e-01
-2.918523550033569336e-01 -5.467245578765869141e-01 -1.576596349477767944e-01
-2.927853167057037354e-01 -5.498777627944946289e-01 -1.402546465396881104e-01
-2.994047403335571289e-01 -5.318112373352050781e-01 -1.469734758138656616e-01
-3.002768754959106445e-01 -5.344458818435668945e-01 -1.298685371875762939e-01
-1.918190903961658478e-02 8.645691275596618652e-01 3.591300547122955322e-01
-3.221158683300018311e-02 8.613823056221008301e-01 3.678352832794189453e-01
-3.250052034854888916e-02 8.748564124107360840e-01 3.644205331802368164e-01
-4.559787362813949585e-02 8.706179857254028320e-01 3.725690841674804688e-01
1.610532701015472412e-01 3.487748801708221436e-01 1.602474153041839600e-01
1.693928837776184082e-01 3.580272197723388672e-01 1.685267239809036255e-01
1.543890535831451416e-01 3.618868589401245117e-01 1.660709679126739502e-01
1.627695709466934204e-01 3.713582754135131836e-01 1.746216565370559692e-01
4.888349473476409912e-01 -5.194321274757385254e-01 -2.080845981836318970e-01
4.791752099990844727e-01 -5.217758417129516602e-01 -1.946880519390106201e-01
4.836848974227905273e-01 -5.076400041580200195e-01 -1.951546221971511841e-01
4.733451604843139648e-01 -5.094216465950012207e-01 -1.826842725276947021e-01
-6.220300495624542236e-02 2.856630086898803711e-01 1.548003256320953369e-01
-7.319760322570800781e-02 2.842666804790496826e-01 1.688785552978515625e-01
-6.425264477729797363e-02 2.993829548358917236e-01 1.663360446691513062e-01
-7.588434219360351562e-02 2.980450987815856934e-01 1.793940663337707520e-01
2.952077686786651611e-01 5.821061134338378906e-02 5.562319606542587280e-02
2.941672205924987793e-01 5.318368971347808838e-02 7.383689284324645996e-02
2.906292378902435303e-01 6.440237909555435181e-02 6.635334342718124390e-02
2.886600494384765625e-01 5.974888801574707031e-02 8.434656262397766113e-02
4.490305781364440918e-01 8.301594853401184082e-02 -2.014272212982177734e-01
4.453253746032714844e-01 8.180017769336700439e-02 -1.876055598258972168e-01
4.415235817432403564e-01 9.520646929740905762e-02 -1.933173537254333496e-01
4.421207606792449951e-01 9.246564656496047974e-02 -1.775642484426498413e-01
3.580071628093719482e-01 -7.061425447463989258e-01 -2.672928273677825928e-01
3.603264391422271729e-01 -7.068849802017211914e-01 -2.541605830192565918e-01
3.488224148750305176e-01 -7.054212689399719238e-01 -2.575151920318603516e-01
3.514234423637390137e-01 -7.055116295814514160e-01 -2.435853183269500732e-01
-1.198446601629257202e-01 7.716787457466125488e-01 2.381931990385055542e-01
-1.265063583850860596e-01 7.693667411804199219e-01 2.561267614364624023e-01
-1.254649162292480469e-01 7.860758304595947266e-01 2.528011798858642578e-01
-1.317714303731918335e-01 7.843030691146850586e-01 2.712997198104858398e-01
1.257001608610153198e-01 5.547704696655273438e-01 2.356611341238021851e-01
1.342620998620986938e-01 5.669867992401123047e-01 2.459378987550735474e-01
1.208069771528244019e-01 5.694841742515563965e-01 2.434552609920501709e-01
1.286020576953887939e-01 5.820640325546264648e-01 2.523604333400726318e-01
5.344804003834724426e-02 -2.805496454238891602e-01 -3.908095881342887878e-03
6.028981879353523254e-02 -2.764176428318023682e-01 1.475835312157869339e-02
4.768436402082443237e-02 -2.700700163841247559e-01 1.627539284527301788e-02
5.483350902795791626e-02 -2.648440003395080566e-01 3.394022956490516663e-02
-2.230848520994186401e-01 1.456322520971298218e-01 1.694525927305221558e-01
-2.277975082397460938e-01 1.428577303886413574e-01 1.930315643548965454e-01
-2.301237732172012329e-01 1.582429707050323486e-01 1.862803399562835693e-01
-2.353356480598449707e-01 1.556549668312072754e-01 2.104358226060867310e-01
2.741078138351440430e-01 -4.819383323192596436e-01 -1.380603760480880737e-01
2.825727462768554688e-01 -4.733426868915557861e-01 -1.238365620374679565e-01
2.716866433620452881e-01 -4.700785279273986816e-01 -1.281045973300933838e-01
2.791719734668731689e-01 -4.621670246124267578e-01 -1.154721155762672424e-01
-3.805038928985595703e-01 -2.095799893140792847e-01 6.413777172565460205e-02
-3.813010454177856445e-01 -2.119017392396926880e-01 8.660191297531127930e-02
-3.843395113945007324e-01 -1.926570981740951538e-01 7.536465674638748169e-02
-3.865056633949279785e-01 -1.971853375434875488e-01 9.458865970373153687e-02
-2.990646660327911377e-01 -3.673885017633438110e-02 2.824382185935974121e-01
-2.992548346519470215e-01 -4.078297689557075500e-02 3.029337823390960693e-01
-3.096000850200653076e-01 -2.696202322840690613e-02 2.972184717655181885e-01
-3.112368881702423096e-01 -3.157218173146247864e-02 3.190664350986480713e-01
9.846313297748565674e-02 7.796978354454040527e-01 3.206879794597625732e-01
8.163527399301528931e-02 7.790187597274780273e-01 3.257794082164764404e-01
9.309964627027511597e-02 7.961361408233642578e-01 3.277971744537353516e-01
7.721683382987976074e-02 7.947103381156921387e-01 3.337590098381042480e-01
-1.053394898772239685e-01 5.162460207939147949e-01 1.071919798851013184e-01
-1.146319583058357239e-01 5.158453583717346191e-01 1.211405992507934570e-01
-1.079971268773078918e-01 5.277078151702880859e-01 1.165101230144500732e-01
-1.179486587643623352e-01 5.270752906799316406e-01 1.319062411785125732e-01
1.050884947180747986e-01 4.372003972530364990e-01 2.769734896719455719e-02
1.116828247904777527e-01 4.445095062255859375e-01 3.750767186284065247e-02
9.514795243740081787e-02 4.510659873485565186e-01 3.206436336040496826e-02
1.020575240254402161e-01 4.588091075420379639e-01 4.126244410872459412e-02
-2.466330677270889282e-01 -2.510967850685119629e-01 8.333176374435424805e-02
-2.622771561145782471e-01 -2.503342032432556152e-01 8.988568931818008423e-02
-2.506359219551086426e-01 -2.347964197397232056e-01 9.113964438438415527e-02
-2.666356861591339111e-01 -2.342596501111984253e-01 9.734167158603668213e-02
-3.005145490169525146e-01 -4.171917214989662170e-02 -1.103609874844551086e-01
-3.132815957069396973e-01 -4.005613178014755249e-02 -1.018659397959709167e-01
-3.085982501506805420e-01 -2.702385932207107544e-02 -9.868755191564559937e-02
-3.222861289978027344e-01 -2.587080746889114380e-02 -9.061000496149063110e-02
-1.846967637538909912e-01 6.929066181182861328e-01 3.721219599246978760e-01
-1.873791962862014771e-01 6.930494308471679688e-01 3.904313743114471436e-01
-1.875770539045333862e-01 7.029196023941040039e-01 3.824657797813415527e-01
-1.897262185811996460e-01 7.030975222587585449e-01 4.002529382705688477e-01
3.311288058757781982e-01 -1.440782397985458374e-01 -2.723188400268554688e-01
3.155920505523681641e-01 -1.439382880926132202e-01 -2.613515257835388184e-01
3.189702928066253662e-01 -1.260743588209152222e-01 -2.638034224510192871e-01
3.014833927154541016e-01 -1.252117156982421875e-01 -2.551568746566772461e-01
4.095723628997802734e-01 2.623816393315792084e-02 -2.422446608543395996e-01
3.915483355522155762e-01 2.959183044731616974e-02 -2.358457148075103760e-01
4.033151566982269287e-01 4.110921546816825867e-02 -2.311016768217086792e-01
3.843828737735748291e-01 4.325120896100997925e-02 -2.240899801254272461e-01
4.459313452243804932e-01 -8.602225035429000854e-02 -2.846488356590270996e-01
4.509925544261932373e-01 -8.663067966699600220e-02 -2.708920538425445557e-01
4.426590800285339355e-01 -7.955864071846008301e-02 -2.760075926780700684e-01
4.479673504829406738e-01 -7.911250740289688110e-02 -2.628636062145233154e-01
4.596648216247558594e-01 -3.925663530826568604e-01 -3.388290703296661377e-01
4.592474102973937988e-01 -3.941335380077362061e-01 -3.179827630519866943e-01
4.552353322505950928e-01 -3.796799182891845703e-01 -3.248348236083984375e-01
4.549381136894226074e-01 -3.797149658203125000e-01 -3.041259348392486572e-01
1.083201467990875244e-01 9.027448892593383789e-01 3.141449391841888428e-01
1.049080193042755127e-01 9.005622267723083496e-01 3.335677981376647949e-01
9.748290479183197021e-02 9.140270352363586426e-01 3.247683346271514893e-01
9.455517679452896118e-02 9.116025567054748535e-01 3.441746830940246582e-01
4.479008615016937256e-01 1.005324721336364746e-01 -1.223997175693511963e-01
4.520941376686096191e-01 9.721621125936508179e-02 -1.035326495766639709e-01
4.360387325286865234e-01 1.020823195576667786e-01 -1.058566942811012268e-01
4.400520324707031250e-01 9.938455373048782349e-02 -8.757197111845016479e-02
-7.504537701606750488e-02 -1.222070753574371338e-01 -2.123618721961975098e-01
-9.166238456964492798e-02 -1.197046563029289246e-01 -2.037788629531860352e-01
-8.228572458028793335e-02 -1.031881421804428101e-01 -1.990329623222351074e-01
-9.804662317037582397e-02 -1.007244437932968140e-01 -1.910228878259658813e-01
1.772040575742721558e-01 3.847920000553131104e-01 1.803901493549346924e-01
1.853316724300384521e-01 3.941217958927154541e-01 1.892413944005966187e-01
1.709014773368835449e-01 3.986299633979797363e-01 1.860041022300720215e-01
1.800165772438049316e-01 4.087010025978088379e-01 1.947712451219558716e-01
-1.587190628051757812e-01 -4.341208934783935547e-01 -1.410479098558425903e-01
-1.501939594745635986e-01 -4.393006861209869385e-01 -1.222641244530677795e-01
-1.675914824008941650e-01 -4.359636604785919189e-01 -1.293635964393615723e-01
-1.588945984840393066e-01 -4.415705502033233643e-01 -1.098350957036018372e-01
3.287908732891082764e-01 -4.858096837997436523e-01 -4.286552667617797852e-01
3.126723170280456543e-01 -4.830855131149291992e-01 -4.219178855419158936e-01
3.211260735988616943e-01 -4.701585769653320312e-01 -4.224736988544464111e-01
3.063788712024688721e-01 -4.671410024166107178e-01 -4.145936369895935059e-01
-4.179526269435882568e-01 -2.074497044086456299e-01 -1.678988933563232422e-01
-4.225990772247314453e-01 -2.094102054834365845e-01 -1.506929546594619751e-01
-4.214893877506256104e-01 -1.958459019660949707e-01 -1.556185036897659302e-01
-4.249290227890014648e-01 -1.979338824748992920e-01 -1.373048871755599976e-01
-2.170830965042114258e-01 -1.902908086776733398e-01 1.032551005482673645e-01
-2.341012060642242432e-01 -1.895130574703216553e-01 1.087118685245513916e-01
-2.219214588403701782e-01 -1.703830361366271973e-01 1.090817153453826904e-01
-2.390955686569213867e-01 -1.688945889472961426e-01 1.146037727594375610e-01
2.181030511856079102e-01 -3.247392475605010986e-01 -4.947431758046150208e-02
2.212752699851989746e-01 -3.258779942989349365e-01 -3.704024106264114380e-02
2.162797302007675171e-01 -3.141275346279144287e-01 -4.254730045795440674e-02
2.172523289918899536e-01 -3.154298663139343262e-01 -2.663277462124824524e-02
-1.924224197864532471e-01 6.924701929092407227e-01 5.031054019927978516e-01
-1.952542960643768311e-01 6.904422044754028320e-01 5.192611217498779297e-01
-1.928648203611373901e-01 7.058876156806945801e-01 5.130047202110290527e-01
-1.966599375009536743e-01 7.041059136390686035e-01 5.296282172203063965e-01
1.700858473777770996e-01 -3.224437236785888672e-01 -2.208826541900634766e-01
1.682627648115158081e-01 -3.267072439193725586e-01 -2.007348537445068359e-01
1.712478548288345337e-01 -3.092099428176879883e-01 -2.068369984626770020e-01
1.703614741563796997e-01 -3.129136860370635986e-01 -1.871287524700164795e-01
1.091380044817924500e-01 5.969874262809753418e-01 2.511780560016632080e-01
1.165571138262748718e-01 6.101327538490295410e-01 2.589317560195922852e-01
1.025109589099884033e-01 6.127085685729980469e-01 2.578496336936950684e-01
1.085824742913246155e-01 6.250037550926208496e-01 2.650561928749084473e-01
1.829936355352401733e-01 -1.924324929714202881e-01 7.496042177081108093e-03
1.616141498088836670e-01 -1.894316077232360840e-01 1.570904254913330078e-02
1.736480444669723511e-01 -1.772070527076721191e-01 1.853310316801071167e-02
1.528414338827133179e-01 -1.740792840719223022e-01 2.626363933086395264e-02
-3.238327205181121826e-01 -4.315320849418640137e-01 -3.025643825531005859e-01
-3.246140778064727783e-01 -4.369637966156005859e-01 -2.842140793800354004e-01
-3.285307586193084717e-01 -4.206192493438720703e-01 -2.894045412540435791e-01
-3.298842608928680420e-01 -4.256012439727783203e-01 -2.706524431705474854e-01
-2.493412941694259644e-01 4.998864606022834778e-02 2.155919075012207031e-01
-2.540483474731445312e-01 4.495080187916755676e-02 2.331032603979110718e-01
-2.678901553153991699e-01 4.952204972505569458e-02 2.280868887901306152e-01
-2.686130702495574951e-01 4.316885769367218018e-02 2.476300746202468872e-01
4.814445674419403076e-01 -1.787886172533035278e-01 -1.146467998623847961e-01
4.803418815135955811e-01 -1.827668994665145874e-01 -9.320592880249023438e-02
4.810878038406372070e-01 -1.690090149641036987e-01 -9.750108420848846436e-02
4.803790450096130371e-01 -1.733553409576416016e-01 -7.664847373962402344e-02
3.773226141929626465e-01 6.114863604307174683e-02 -3.477931022644042969e-04
3.787263929843902588e-01 5.822437629103660583e-02 1.485201716423034668e-02
3.659950792789459229e-01 6.197220459580421448e-02 1.187228877097368240e-02
3.672477602958679199e-01 5.896215885877609253e-02 2.672400884330272675e-02
2.390770167112350464e-01 2.069329768419265747e-01 5.846913531422615051e-02
2.444440722465515137e-01 2.079700231552124023e-01 7.594457268714904785e-02
2.380874156951904297e-01 2.205853462219238281e-01 7.197623699903488159e-02
2.436515539884567261e-01 2.217956930398941040e-01 9.005716443061828613e-02
4.042041301727294922e-01 -7.110588550567626953e-01 -2.661627233028411865e-01
4.080995917320251465e-01 -7.096593379974365234e-01 -2.501725852489471436e-01
3.963450193405151367e-01 -7.059972882270812988e-01 -2.505723237991333008e-01
4.003880023956298828e-01 -7.036062479019165039e-01 -2.350194752216339111e-01
1.106323748826980591e-01 6.885766983032226562e-01 2.861834168434143066e-01
1.022915840148925781e-01 6.947106122970581055e-01 2.891144752502441406e-01
1.072413772344589233e-01 7.047051787376403809e-01 2.968316376209259033e-01
9.181748330593109131e-02 7.072564363479614258e-01 2.990389764308929443e-01
-3.455156683921813965e-01 -2.113211899995803833e-01 -1.985914558172225952e-01
-3.598107993602752686e-01 -2.083088904619216919e-01 -1.915115863084793091e-01
-3.539032936096191406e-01 -1.987161934375762939e-01 -1.891945302486419678e-01
-3.679521679878234863e-01 -1.958073973655700684e-01 -1.813114285469055176e-01
-1.033948585391044617e-01 1.963822245597839355e-01 -4.880595579743385315e-02
-1.088105067610740662e-01 1.954512000083923340e-01 -3.636360913515090942e-02
-1.074751168489456177e-01 2.041324675083160400e-01 -3.462203592061996460e-02
-1.126147359609603882e-01 2.032473236322402954e-01 -2.226304635405540466e-02
3.154892325401306152e-01 -2.945346832275390625e-01 -3.505674004554748535e-01
3.020536005496978760e-01 -2.914765477180480957e-01 -3.464469611644744873e-01
3.111107647418975830e-01 -2.814744114875793457e-01 -3.439320027828216553e-01
2.976574003696441650e-01 -2.780316174030303955e-01 -3.398633599281311035e-01
2.228859513998031616e-01 3.699620664119720459e-01 1.162526085972785950e-01
2.281261831521987915e-01 3.713318109512329102e-01 1.353641748428344727e-01
2.194100320339202881e-01 3.873278200626373291e-01 1.286301314830780029e-01
2.248988449573516846e-01 3.875047266483306885e-01 1.462651491165161133e-01
3.924312293529510498e-01 -1.835763454437255859e-01 -2.998198270797729492e-01
3.814518153667449951e-01 -1.850885301828384399e-01 -2.909827530384063721e-01
3.811232447624206543e-01 -1.707712858915328979e-01 -2.883877754211425781e-01
3.664458692073822021e-01 -1.725894361734390259e-01 -2.773988842964172363e-01
-1.805070191621780396e-01 -1.522512733936309814e-01 9.949824213981628418e-02
-1.969119459390640259e-01 -1.497184187173843384e-01 1.052394583821296692e-01
-1.910358518362045288e-01 -1.377451419830322266e-01 1.077304705977439880e-01
-2.067713886499404907e-01 -1.342086642980575562e-01 1.135785579681396484e-01
-4.055876731872558594e-01 -1.741138696670532227e-01 -5.807903036475181580e-02
-4.070231020450592041e-01 -1.772411316633224487e-01 -3.798690438270568848e-02
-4.079662561416625977e-01 -1.610164940357208252e-01 -4.460927844047546387e-02
-4.093821048736572266e-01 -1.638645976781845093e-01 -2.362157776951789856e-02
1.918487101793289185e-01 -1.406084150075912476e-01 -2.350858896970748901e-01
1.759505718946456909e-01 -1.393991708755493164e-01 -2.284454703330993652e-01
1.817834377288818359e-01 -1.255346536636352539e-01 -2.291346043348312378e-01
1.675334870815277100e-01 -1.242858842015266418e-01 -2.226263433694839478e-01
-3.459182381629943848e-01 -1.397493332624435425e-01 1.358618438243865967e-01
-3.413818180561065674e-01 -1.330395191907882690e-01 1.468843370676040649e-01
-3.489744961261749268e-01 -1.281886249780654907e-01 1.457960903644561768e-01
-3.436943590641021729e-01 -1.217659637331962585e-01 1.575997024774551392e-01
-2.140010148286819458e-01 1.061446294188499451e-01 9.380529820919036865e-02
-2.141108065843582153e-01 1.003070324659347534e-01 1.092334315180778503e-01
-2.162403315305709839e-01 1.065838932991027832e-01 1.153369024395942688e-01
-2.169469296932220459e-01 1.004338711500167847e-01 1.315057575702667236e-01
-2.249366194009780884e-01 -2.582759559154510498e-01 -2.066398859024047852e-01
-2.254089117050170898e-01 -2.601126730442047119e-01 -1.927955150604248047e-01
-2.280340343713760376e-01 -2.495218962430953979e-01 -1.973257511854171753e-01
-2.281903028488159180e-01 -2.518044710159301758e-01 -1.838894337415695190e-01
-1.758621931076049805e-01 7.507078647613525391e-01 3.647454679012298584e-01
-1.784590780735015869e-01 7.499975562095642090e-01 3.844869434833526611e-01
-1.794964075088500977e-01 7.606498599052429199e-01 3.799099624156951904e-01
-1.814745664596557617e-01 7.592258453369140625e-01 3.996096253395080566e-01
4.498001337051391602e-01 -4.405004531145095825e-02 -2.714903652667999268e-01
4.553080201148986816e-01 -4.132828116416931152e-02 -2.609543204307556152e-01
4.508951008319854736e-01 -3.035987913608551025e-02 -2.629911899566650391e-01
4.565903842449188232e-01 -2.556203491985797882e-02 -2.527981698513031006e-01
4.901032149791717529e-01 -1.760465204715728760e-01 -7.546208798885345459e-02
4.892879724502563477e-01 -1.806370019912719727e-01 -5.437963083386421204e-02
4.874090552330017090e-01 -1.616257131099700928e-01 -6.139284744858741760e-02
4.852005839347839355e-01 -1.655453741550445557e-01 -4.048548266291618347e-02
1.398430466651916504e-01 5.152398943901062012e-01 8.839919418096542358e-02
1.501119136810302734e-01 5.180557966232299805e-01 1.035336256027221680e-01
1.354653686285018921e-01 5.317242741584777832e-01 9.839804470539093018e-02
1.454467624425888062e-01 5.348004698753356934e-01 1.139642372727394104e-01
-1.595546156167984009e-01 4.595200121402740479e-01 1.600933670997619629e-01
-1.642848700284957886e-01 4.586361944675445557e-01 1.756693720817565918e-01
-1.625710278749465942e-01 4.699184000492095947e-01 1.735810190439224243e-01
-1.668256968259811401e-01 4.696427285671234131e-01 1.897975504398345947e-01
-1.779873073101043701e-01 -4.426476955413818359e-01 -1.360073834657669067e-01
-1.685955077409744263e-01 -4.485718309879302979e-01 -1.167026013135910034e-01
-1.867077648639678955e-01 -4.480549097061157227e-01 -1.226102337241172791e-01
-1.775154471397399902e-01 -4.536423087120056152e-01 -1.030673310160636902e-01
2.634630203247070312e-01 8.361165970563888550e-02 1.014075726270675659e-01
2.656903862953186035e-01 8.198648691177368164e-02 1.119772940874099731e-01
2.558203041553497314e-01 9.612482786178588867e-02 1.065744087100028992e-01
2.606656253337860107e-01 9.456411749124526978e-02 1.158069968223571777e-01
7.847210764884948730e-02 3.515066206455230713e-01 1.466294378042221069e-01
7.433048635721206665e-02 3.590854108333587646e-01 1.518658101558685303e-01
7.166799157857894897e-02 3.651768267154693604e-01 1.534937173128128052e-01
6.426152586936950684e-02 3.713876903057098389e-01 1.584665626287460327e-01
1.282398998737335205e-01 -3.891333639621734619e-01 -1.652551889419555664e-01
1.278914511203765869e-01 -3.904333412647247314e-01 -1.489019691944122314e-01
1.253904253244400024e-01 -3.772692084312438965e-01 -1.546363532543182373e-01
1.255360841751098633e-01 -3.787950575351715088e-01 -1.374334543943405151e-01
4.981825947761535645e-01 -2.854504249989986420e-02 2.208208106458187103e-02
4.932196736335754395e-01 -3.025872632861137390e-02 3.643827885389328003e-02
4.936911165714263916e-01 -1.556448452174663544e-02 3.372098132967948914e-02
4.884968101978302002e-01 -1.713646017014980316e-02 4.852873086929321289e-02
4.744794070720672607e-01 -5.366354584693908691e-01 -2.921154201030731201e-01
4.735841453075408936e-01 -5.374056696891784668e-01 -2.745639979839324951e-01
4.708035886287689209e-01 -5.273432135581970215e-01 -2.799513638019561768e-01
4.701340198516845703e-01 -5.279920101165771484e-01 -2.628634870052337646e-01
1.624768078327178955e-01 -3.095341622829437256e-01 -2.835758030414581299e-01
1.572474241256713867e-01 -3.153083026409149170e-01 -2.634415924549102783e-01
1.612453311681747437e-01 -2.993742227554321289e-01 -2.653272449970245361e-01
1.562669724225997925e-01 -3.051641285419464111e-01 -2.439392358064651489e-01
-4.046952724456787109e-01 -4.820102453231811523e-02 1.532744523137807846e-02
-4.042075276374816895e-01 -5.063070356845855713e-02 2.993393689393997192e-02
-4.046223461627960205e-01 -3.903624042868614197e-02 2.980050072073936462e-02
-4.047553837299346924e-01 -4.129158332943916321e-02 4.520481079816818237e-02
-1.761411577463150024e-01 3.623706698417663574e-01 1.583444625139236450e-01
-1.806005090475082397e-01 3.631619811058044434e-01 1.750552058219909668e-01
-1.778173446655273438e-01 3.788579404354095459e-01 1.633226722478866577e-01
-1.819558888673782349e-01 3.791081607341766357e-01 1.817220151424407959e-01
-2.464163154363632202e-01 5.022646859288215637e-02 2.722646296024322510e-01
-2.555516362190246582e-01 4.482506960630416870e-02 2.944365441799163818e-01
-2.563909292221069336e-01 6.161329895257949829e-02 2.835948467254638672e-01
-2.644881904125213623e-01 5.660486221313476562e-02 3.065544366836547852e-01
4.626508951187133789e-01 -6.675552129745483398e-01 -3.636114895343780518e-01
4.657539725303649902e-01 -6.759972572326660156e-01 -3.418820500373840332e-01
4.615389108657836914e-01 -6.626081466674804688e-01 -3.515335321426391602e-01
4.651199579238891602e-01 -6.706993579864501953e-01 -3.297415673732757568e-01
2.640653550624847412e-01 -4.171679317951202393e-01 -3.041049838066101074e-01
2.644879221916198730e-01 -4.199987947940826416e-01 -2.837465107440948486e-01
2.598268985748291016e-01 -4.078823626041412354e-01 -2.920501828193664551e-01
2.604560852050781250e-01 -4.110432863235473633e-01 -2.741853892803192139e-01
1.777612864971160889e-01 7.794170826673507690e-02 -1.760392785072326660e-01
1.666101366281509399e-01 7.807372510433197021e-02 -1.721323877573013306e-01
1.766013950109481812e-01 8.927016705274581909e-02 -1.708601266145706177e-01
1.648409813642501831e-01 8.939000219106674194e-02 -1.664169281721115112e-01
-3.640176653861999512e-01 -7.135988473892211914e-01 -1.164277344942092896e-01
-3.599465787410736084e-01 -7.081905603408813477e-01 -1.020142883062362671e-01
-3.662576377391815186e-01 -7.012145519256591797e-01 -1.054352298378944397e-01
-3.604318797588348389e-01 -6.957027316093444824e-01 -9.048081189393997192e-02
1.946069002151489258e-01 -6.796708330512046814e-03 -2.147466689348220825e-01
1.799449920654296875e-01 -4.955645650625228882e-03 -2.076885402202606201e-01
1.845460534095764160e-01 2.851730212569236755e-03 -2.071295082569122314e-01
1.705405563116073608e-01 4.167597275227308273e-03 -2.011592388153076172e-01
4.657841324806213379e-01 -3.402204215526580811e-01 -2.523358762264251709e-01
4.661905169486999512e-01 -3.438612520694732666e-01 -2.354713678359985352e-01
4.659413397312164307e-01 -3.254936933517456055e-01 -2.410182803869247437e-01
4.662761986255645752e-01 -3.288417160511016846e-01 -2.249398380517959595e-01
4.907017052173614502e-01 -4.784993827342987061e-01 -1.817413419485092163e-01
4.838561713695526123e-01 -4.835125207901000977e-01 -1.651879101991653442e-01
4.894431531429290771e-01 -4.639821946620941162e-01 -1.678013950586318970e-01
4.820596277713775635e-01 -4.682721197605133057e-01 -1.524632126092910767e-01
2.092986553907394409e-01 -4.249748289585113525e-01 -2.043893188238143921e-01
2.103496938943862915e-01 -4.288468360900878906e-01 -1.894422024488449097e-01
1.971948593854904175e-01 -4.248338043689727783e-01 -1.929100900888442993e-01
1.977225691080093384e-01 -4.284733533859252930e-01 -1.776730269193649292e-01
-3.926955461502075195e-01 -6.729276776313781738e-01 -1.667332202196121216e-01
-3.913540244102478027e-01 -6.759787797927856445e-01 -1.494269818067550659e-01
-3.962156176567077637e-01 -6.620166897773742676e-01 -1.545028835535049438e-01
-3.951150178909301758e-01 -6.650190949440002441e-01 -1.378277540206909180e-01
3.733913600444793701e-02 5.625517964363098145e-01 5.976058542728424072e-02
2.024109289050102234e-02 5.649682283401489258e-01 6.506250798702239990e-02
2.732378803193569183e-02 5.802025198936462402e-01 6.745956838130950928e-02
1.160441897809505463e-02 5.825346708297729492e-01 7.288991659879684448e-02
4.252614676952362061e-01 -1.061357930302619934e-01 -3.006482124328613281e-01
4.298915863037109375e-01 -1.060934886336326599e-01 -2.847489118576049805e-01
4.243761897087097168e-01 -9.511177986860275269e-02 -2.891120016574859619e-01
4.303189218044281006e-01 -9.507564455270767212e-02 -2.736127972602844238e-01
-3.576159775257110596e-01 -3.558040559291839600e-01 5.884433537721633911e-02
-3.498076796531677246e-01 -3.533368706703186035e-01 7.333497703075408936e-02
-3.642404377460479736e-01 -3.433469533920288086e-01 6.757453829050064087e-02
-3.558168113231658936e-01 -3.414108455181121826e-01 8.253148198127746582e-02
4.627490639686584473e-01 -5.899930596351623535e-01 -3.900443613529205322e-01
4.631377756595611572e-01 -5.937787890434265137e-01 -3.715311884880065918e-01
4.586379826068878174e-01 -5.809243321418762207e-01 -3.765415251255035400e-01
4.594505429267883301e-01 -5.841803550720214844e-01 -3.583562672138214111e-01
-1.755983084440231323e-01 7.752006053924560547e-01 4.612630903720855713e-01
-1.802435219287872314e-01 7.670705914497375488e-01 4.813055694103240967e-01
-1.856726706027984619e-01 7.807913422584533691e-01 4.757056236267089844e-01
-1.906100213527679443e-01 7.723803520202636719e-01 4.965977668762207031e-01
1.523045301437377930e-01 -3.795920908451080322e-01 -1.042235642671585083e-01
1.566878855228424072e-01 -3.836860656738281250e-01 -8.842740207910537720e-02
1.604197621345520020e-01 -3.679481148719787598e-01 -9.625321626663208008e-02
1.649165153503417969e-01 -3.707799315452575684e-01 -8.074048161506652832e-02
-3.626688122749328613e-01 3.316631913185119629e-02 -9.682654589414596558e-02
-3.758673369884490967e-01 3.390680998563766479e-02 -8.998084068298339844e-02
-3.699678182601928711e-01 4.459821432828903198e-02 -8.892010152339935303e-02
-3.827053308486938477e-01 4.573673382401466370e-02 -8.095772564411163330e-02
4.705010354518890381e-01 -3.775872290134429932e-01 -2.511034905910491943e-01
4.721368849277496338e-01 -3.831187486648559570e-01 -2.317532896995544434e-01
4.683203697204589844e-01 -3.649314939975738525e-01 -2.386058568954467773e-01
4.697165489196777344e-01 -3.701605200767517090e-01 -2.196859419345855713e-01
-4.017710387706756592e-01 -8.734335005283355713e-02 8.997725322842597961e-03
-4.008527100086212158e-01 -9.028643369674682617e-02 2.511505037546157837e-02
-4.039568006992340088e-01 -7.883197814226150513e-02 1.987414993345737457e-02
-4.032815694808959961e-01 -8.156889677047729492e-02 3.519011661410331726e-02
1.994604319334030151e-01 3.605847358703613281e-01 7.723675668239593506e-02
2.070487439632415771e-01 3.618768751621246338e-01 9.553707391023635864e-02
1.946713030338287354e-01 3.747251927852630615e-01 9.206437319517135620e-02
2.008627057075500488e-01 3.761885762214660645e-01 1.107064187526702881e-01
7.388999313116073608e-02 3.405019938945770264e-01 -2.464791387319564819e-02
8.148925006389617920e-02 3.484263122081756592e-01 -1.605818793177604675e-02
6.474420428276062012e-02 3.508795201778411865e-01 -1.962461136281490326e-02
7.287797331809997559e-02 3.593069612979888916e-01 -1.146028563380241394e-02
4.403761029243469238e-01 -1.851958930492401123e-01 -1.631241291761398315e-02
4.243832528591156006e-01 -1.869551986455917358e-01 -5.782078951597213745e-03
4.347000420093536377e-01 -1.704243570566177368e-01 -6.549749057739973068e-03
4.179389476776123047e-01 -1.710156947374343872e-01 1.388578210026025772e-03
-1.949204802513122559e-01 2.847111523151397705e-01 3.109889328479766846e-01
-2.015877515077590942e-01 2.847038507461547852e-01 3.247053325176239014e-01
-1.984631419181823730e-01 2.943347990512847900e-01 3.206459879875183105e-01
-2.049381136894226074e-01 2.940047681331634521e-01 3.349946737289428711e-01
-8.529495447874069214e-02 6.308873891830444336e-01 1.389263719320297241e-01
-9.437528997659683228e-02 6.297248005867004395e-01 1.522385627031326294e-01
-8.813659101724624634e-02 6.456813812255859375e-01 1.523616611957550049e-01
-9.712940454483032227e-02 6.449755430221557617e-01 1.656057983636856079e-01
-3.942410051822662354e-01 -2.241667956113815308e-01 -2.238727547228336334e-02
-3.943440020084381104e-01 -2.291313111782073975e-01 -2.723505720496177673e-03
-3.984784185886383057e-01 -2.143392115831375122e-01 -8.651769720017910004e-03
-3.988312780857086182e-01 -2.199010401964187622e-01 1.222212985157966614e-02
8.046681433916091919e-02 1.427158415317535400e-01 -1.311350762844085693e-01
8.099003136157989502e-02 1.524904221296310425e-01 -1.208455637097358704e-01
7.109890133142471313e-02 1.572363972663879395e-01 -1.196544021368026733e-01
7.752139866352081299e-02 1.689301133155822754e-01 -1.075254678726196289e-01
-2.254148721694946289e-01 1.058318689465522766e-01 2.558189332485198975e-01
-2.292814403772354126e-01 1.023785993456840515e-01 2.792409658432006836e-01
-2.305816560983657837e-01 1.237835139036178589e-01 2.780061364173889160e-01
-2.335679382085800171e-01 1.213782131671905518e-01 3.052014112472534180e-01
3.606275916099548340e-01 -4.759689569473266602e-01 -1.351829916238784790e-01
3.462462127208709717e-01 -4.739534258842468262e-01 -1.282535493373870850e-01
3.590088188648223877e-01 -4.586021006107330322e-01 -1.242443770170211792e-01
3.475967049598693848e-01 -4.556162357330322266e-01 -1.153303533792495728e-01
-9.502033144235610962e-02 2.218635678291320801e-01 1.514080613851547241e-01
-1.061359271407127380e-01 2.225218266248703003e-01 1.654118001461029053e-01
-9.976972639560699463e-02 2.347381860017776489e-01 1.678294241428375244e-01
-1.104294210672378540e-01 2.356703281402587891e-01 1.817528307437896729e-01
