-3.833289999999999753e-01 -4.419480000000000075e-01 -3.301999999999999814e-03
4.794039999999999968e-01 -2.442459999999999909e-01 -1.356279999999999986e-01
1.679990000000000094e-01 5.608509999999999884e-01 1.362220000000000097e-01
-1.690359999999999918e-01 1.545650000000000079e-01 2.021340000000000081e-01
-4.252639999999999754e-01 -2.895240000000000036e-01 -2.003230000000000011e-01
3.911669999999999869e-01 9.583300000000000152e-02 -8.023800000000000376e-02
2.409050000000000080e-01 6.353459999999999663e-01 2.790670000000000095e-01
-1.883509999999999907e-01 3.685590000000000255e-01 1.919899999999999940e-01
-2.580870000000000108e-01 -3.306609999999999827e-01 5.371200000000000280e-02
1.273000000000000000e-02 6.408700000000000507e-02 -1.498659999999999992e-01
1.103920000000000040e-01 7.536629999999999718e-01 3.164529999999999843e-01
-3.948889999999999900e-01 -5.781969999999999610e-01 -1.307909999999999906e-01
-1.864089999999999914e-01 4.601299999999999835e-01 4.007809999999999984e-01
2.197000000000000168e-03 7.764860000000000095e-01 3.419340000000000157e-01
4.485370000000000190e-01 -6.966740000000000155e-01 -2.453200000000000103e-01
-3.953920000000000212e-01 -3.051599999999999868e-01 -2.184300000000000130e-02
1.056089999999999945e-01 1.035559999999999953e-01 -1.518309999999999937e-01
5.408199999999999813e-02 4.605899999999999994e-01 2.327999999999999861e-02
2.949339999999999740e-01 -6.921650000000000302e-01 -2.902859999999999885e-01
4.201099999999999973e-02 -7.753999999999999782e-02 1.124679999999999985e-01
-2.332740000000000091e-01 1.007220000000000060e-01 2.937759999999999816e-01
-1.499499999999999965e-02 3.588600000000000123e-01 -1.841699999999999934e-02
-2.235790000000000000e-01 -2.410770000000000135e-01 -1.716439999999999910e-01
-1.922979999999999967e-01 -3.697380000000000111e-01 -7.548000000000000542e-02
-2.590599999999999847e-02 8.915030000000000454e-01 3.701949999999999963e-01
-2.060919999999999974e-01 -3.308539999999999814e-01 -9.942099999999999549e-02
-8.732199999999999684e-02 4.387599999999999834e-01 5.873400000000000148e-02
-3.080430000000000113e-01 -1.841359999999999941e-01 1.145790000000000003e-01
-2.443770000000000109e-01 -3.946999999999999988e-03 2.564799999999999858e-01
-1.945060000000000122e-01 -3.487540000000000084e-01 -1.335880000000000123e-01
4.878890000000000171e-01 -4.891460000000000252e-01 -1.655459999999999987e-01
-2.084459999999999924e-01 -3.128259999999999930e-01 -2.583860000000000046e-01
1.136999999999999955e-01 4.153700000000000170e-01 1.780920000000000003e-01
4.336450000000000027e-01 -5.618680000000000341e-01 -1.813299999999999912e-01
4.482650000000000245e-01 -1.704360000000000042e-01 -3.109850000000000114e-01
-1.695560000000000123e-01 4.850479999999999792e-01 2.082940000000000069e-01
-3.837450000000000028e-01 -2.522800000000000042e-02 1.651410000000000100e-01
2.135670000000000068e-01 5.795789999999999553e-01 2.047910000000000008e-01
-1.986479999999999912e-01 -2.307500000000000107e-01 8.788400000000000378e-02
4.851590000000000069e-01 -4.299390000000000156e-01 -1.392089999999999994e-01
2.121450000000000002e-01 7.305120000000000502e-01 3.393780000000000130e-01
1.377569999999999906e-01 -5.878900000000000098e-02 1.028649999999999981e-01
4.835169999999999746e-01 4.588300000000000017e-02 -7.853000000000000605e-03
2.565720000000000223e-01 1.343910000000000105e-01 -1.480549999999999922e-01
4.639159999999999950e-01 -3.615309999999999913e-01 -2.765690000000000093e-01
-3.048699999999999743e-01 8.136699999999999489e-02 -1.174799999999999976e-02
6.131600000000000245e-02 -1.112660000000000038e-01 8.826000000000000512e-02
-9.973600000000000521e-02 4.783499999999999974e-01 2.782999999999999918e-01
3.769979999999999998e-01 -2.251180000000000125e-01 -1.703599999999999906e-02
3.652850000000000263e-01 -5.833049999999999624e-01 -4.724610000000000198e-01
1.145440000000000069e-01 -3.061749999999999750e-01 -2.678610000000000158e-01
-3.507270000000000110e-01 -2.539900000000000144e-02 2.099489999999999967e-01
1.194019999999999943e-01 1.588269999999999960e-01 7.408800000000000108e-02
-1.060600000000000084e-02 6.435269999999999602e-01 9.983000000000000207e-02
-1.636549999999999949e-01 2.509560000000000124e-01 6.811599999999999600e-02
4.582570000000000254e-01 -4.331200000000000327e-02 -2.021050000000000069e-01
2.581680000000000086e-01 -4.024229999999999752e-01 -2.935070000000000179e-01
-3.999920000000000142e-01 -7.131760000000000321e-01 -2.177800000000000014e-01
-5.448000000000000065e-02 7.747999999999999332e-02 -1.322560000000000124e-01
-5.351800000000000307e-02 2.584600000000000231e-01 -4.867599999999999705e-02
-3.815290000000000070e-01 -3.539700000000000069e-01 4.393099999999999783e-02
-1.155690000000000051e-01 1.532499999999999973e-01 1.393870000000000109e-01
4.283779999999999810e-01 -6.385750000000000037e-01 -2.151559999999999861e-01
5.929999999999999855e-02 1.709400000000000086e-01 -1.037929999999999964e-01
-2.602729999999999766e-01 -1.769469999999999932e-01 1.094900000000000040e-01
-1.111800000000000010e-01 2.809200000000000030e-01 1.955620000000000136e-01
-1.101430000000000048e-01 7.914010000000000211e-01 4.327750000000000208e-01
-1.938300000000000023e-01 6.427340000000000275e-01 5.385450000000000514e-01
-7.565999999999999809e-03 9.296560000000000379e-01 3.288739999999999997e-01
-3.858599999999999808e-01 -6.940589999999999815e-01 -1.224579999999999974e-01
3.751129999999999742e-01 -7.091260000000000341e-01 -2.520649999999999835e-01
1.449900000000000078e-01 1.675480000000000025e-01 -6.163600000000000328e-02
4.607289999999999996e-01 4.984999999999999848e-03 -1.692879999999999940e-01
2.404300000000000048e-01 -5.662160000000000526e-01 -4.427989999999999982e-01
-1.082990000000000064e-01 6.367209999999999814e-01 1.694050000000000000e-01
2.764699999999999935e-01 1.361570000000000003e-01 1.010889999999999983e-01
9.060500000000000498e-02 1.493530000000000135e-01 -1.135649999999999993e-01
-4.006480000000000041e-01 -9.871900000000000119e-02 3.035600000000000104e-02
-1.876200000000000090e-01 6.631420000000000092e-01 5.327600000000000113e-01
-3.154779999999999807e-01 -6.842800000000000271e-02 1.839500000000000024e-01
-1.855549999999999977e-01 9.404899999999999372e-02 1.953040000000000054e-01
2.323820000000000052e-01 -6.481810000000000072e-01 -1.977299999999999891e-01
2.739900000000000113e-01 -4.649170000000000247e-01 -2.446490000000000054e-01
-1.912649999999999906e-01 -3.739529999999999799e-01 2.088399999999999979e-02
3.502469999999999750e-01 -1.884100000000000011e-02 8.078699999999999770e-02
-4.179399999999999782e-02 1.636350000000000027e-01 9.384000000000000674e-02
2.060339999999999949e-01 -5.820579999999999643e-01 -4.426910000000000012e-01
-8.855499999999999483e-02 7.523459999999999592e-01 1.933140000000000136e-01
-2.146859999999999880e-01 4.532550000000000190e-01 3.619890000000000052e-01
-1.746800000000000019e-01 1.078640000000000015e-01 -9.828000000000000624e-02
1.074809999999999932e-01 5.903270000000000461e-01 9.804899999999999727e-02
1.718810000000000060e-01 3.682259999999999978e-01 5.617899999999999977e-02
-8.981300000000000394e-02 4.240599999999999925e-01 5.445500000000000340e-02
-1.403270000000000073e-01 2.595199999999999937e-02 -1.351600000000000024e-01
4.637839999999999741e-01 5.086600000000000149e-02 -1.335540000000000060e-01
-6.760900000000000243e-02 9.310699999999999532e-01 3.395710000000000117e-01
4.709829999999999850e-01 -3.412300000000000055e-02 5.115800000000000208e-02
4.053660000000000041e-01 -3.590119999999999978e-01 -9.075600000000000334e-02
-3.713730000000000087e-01 -2.855400000000000160e-01 9.518799999999999484e-02
3.283599999999999713e-02 9.234059999999999491e-01 2.174270000000000092e-01
-6.931299999999999961e-02 2.423819999999999864e-01 1.441729999999999956e-01
-2.223729999999999873e-01 -2.103000000000000008e-02 1.877240000000000020e-01
-2.435329999999999995e-01 -6.069400000000000350e-01 -2.627650000000000263e-01
-3.183799999999999963e-01 -5.078909999999999814e-01 -2.735630000000000006e-01
-4.181650000000000089e-01 -5.185279999999999889e-01 -2.503679999999999795e-01
-3.298849999999999838e-01 -4.347280000000000033e-01 1.997700000000000170e-02
-2.000649999999999928e-01 -1.634940000000000004e-01 1.025149999999999950e-01
2.581740000000000146e-01 3.845399999999999929e-01 2.126419999999999977e-01
-2.998739999999999739e-01 -2.378500000000000059e-02 3.496170000000000111e-01
-4.761200000000000154e-02 3.216899999999999760e-01 -2.251299999999999829e-02
3.048120000000000274e-01 5.571000000000000257e-02 6.887100000000000166e-02
-3.645769999999999844e-01 -6.967590000000000172e-01 -2.889149999999999774e-01
1.693320000000000103e-01 1.365929999999999922e-01 -1.491389999999999938e-01
4.716230000000000144e-01 4.352400000000000019e-02 3.833899999999999808e-02
-2.588210000000000233e-01 -3.412799999999999861e-02 1.887010000000000076e-01
1.571099999999999997e-01 -2.330019999999999869e-01 -1.061649999999999955e-01
-2.112000000000000162e-03 -2.366999999999999937e-01 -7.351599999999999802e-02
-2.985110000000000263e-01 -6.995369999999999644e-01 -1.061209999999999931e-01
-1.532260000000000011e-01 6.327159999999999451e-01 2.451699999999999990e-01
2.241190000000000127e-01 -3.716369999999999951e-01 -3.513600000000000056e-01
2.910920000000000174e-01 -4.921269999999999811e-01 -1.478659999999999974e-01
-1.657990000000000019e-01 -2.551140000000000074e-01 -4.630700000000000094e-02
2.595299999999999829e-01 -6.108909999999999618e-01 -1.708359999999999879e-01
4.166380000000000083e-01 -4.905030000000000223e-01 -1.457390000000000074e-01
4.797029999999999905e-01 -5.653120000000000367e-01 -2.457020000000000037e-01
-3.695399999999999796e-01 -3.186370000000000036e-01 -2.334579999999999989e-01
4.674699999999999966e-01 -1.163399999999999990e-01 -1.680850000000000122e-01
-2.966659999999999853e-01 -5.664500000000000091e-01 -4.605900000000000272e-02
3.997919999999999807e-01 -5.945420000000000149e-01 -1.897949999999999915e-01
3.319730000000000181e-01 -8.930999999999999703e-03 8.868900000000000394e-02
-1.121370000000000006e-01 8.509740000000000082e-01 2.787370000000000125e-01
-1.967089999999999950e-01 6.602339999999999876e-01 4.146659999999999791e-01
-2.134409999999999918e-01 3.996379999999999932e-01 3.083679999999999755e-01
4.067660000000000164e-01 -2.430140000000000078e-01 -3.083899999999999836e-02
2.061929999999999874e-01 -5.993279999999999719e-01 -3.345609999999999973e-01
4.744789999999999841e-01 -4.585819999999999896e-01 -2.422070000000000056e-01
4.850659999999999972e-01 -4.451160000000000116e-01 -1.691509999999999958e-01
-4.109840000000000160e-01 -1.024300000000000037e-02 2.690000000000000117e-03
-3.809850000000000181e-01 -7.247149999999999981e-01 -2.146589999999999887e-01
-4.019809999999999772e-01 -3.520039999999999836e-01 -8.185199999999999421e-02
3.056000000000000036e-02 -2.259059999999999957e-01 -1.010439999999999949e-01
2.516479999999999828e-01 1.002549999999999969e-01 1.081050000000000066e-01
1.938269999999999993e-01 7.963130000000000486e-01 3.462520000000000042e-01
3.542799999999999838e-01 -2.319430000000000103e-01 -2.928300000000000000e-02
-3.577179999999999804e-01 -2.057000000000000148e-02 3.281399999999999872e-01
-1.953110000000000124e-01 6.073939999999999895e-01 5.200299999999999923e-01
4.281700000000000089e-02 -1.125120000000000009e-01 8.541400000000000381e-02
-3.996700000000000252e-01 7.141899999999999638e-02 1.438000000000000042e-03
4.169900000000000273e-01 8.032400000000000651e-02 -4.559300000000000158e-02
2.050970000000000015e-01 1.195279999999999954e-01 -9.423199999999999632e-02
-3.077500000000000027e-02 2.899820000000000175e-01 -4.442499999999999921e-02
-2.377630000000000021e-01 1.255950000000000122e-01 2.013860000000000094e-01
2.989060000000000050e-01 -2.296829999999999983e-01 -3.093650000000000011e-01
2.687459999999999849e-01 -6.773130000000000539e-01 -3.217920000000000225e-01
5.696400000000000075e-02 6.332400000000000251e-01 9.439899999999999680e-02
-1.526460000000000039e-01 -3.934900000000000064e-01 -4.912300000000000000e-02
2.765139999999999820e-01 6.355399999999999938e-02 -1.989059999999999995e-01
-2.351239999999999997e-01 -5.929309999999999858e-01 -1.397150000000000059e-01
3.105899999999999772e-01 -9.989599999999999869e-02 -2.671839999999999771e-01
2.249460000000000071e-01 6.320670000000000455e-01 3.056619999999999893e-01
2.442509999999999959e-01 4.035020000000000273e-01 2.243120000000000114e-01
-2.453740000000000088e-01 1.251099999999999990e-01 2.425980000000000081e-01
-1.544949999999999934e-01 6.460069999999999979e-01 4.412639999999999896e-01
-2.694940000000000113e-01 -9.337700000000000167e-02 1.640610000000000124e-01
1.457380000000000064e-01 -2.035490000000000077e-01 2.036500000000000116e-02
4.536519999999999997e-01 -2.872419999999999973e-01 -3.169379999999999975e-01
1.619329999999999936e-01 5.196720000000000228e-01 1.124499999999999944e-01
-1.199039999999999967e-01 3.140970000000000151e-01 3.460699999999999887e-02
-1.269039999999999890e-01 8.422809999999999464e-01 3.060760000000000147e-01
-1.778049999999999908e-01 -4.026299999999999879e-01 -1.017700000000000028e-02
-1.416550000000000031e-01 4.223099999999999771e-02 1.874879999999999880e-01
-1.761449999999999960e-01 1.986590000000000023e-01 2.356800000000000006e-01
-1.805549999999999933e-01 6.786210000000000298e-01 5.221329999999999583e-01
-2.869709999999999761e-01 -5.427509999999999835e-01 -2.424139999999999906e-01
-2.022990000000000066e-01 -1.968989999999999907e-01 1.039349999999999996e-01
1.968239999999999990e-01 -3.635430000000000050e-01 -3.484229999999999827e-01
4.568070000000000186e-01 -3.759170000000000011e-01 -3.275020000000000153e-01
4.500830000000000108e-01 -3.027219999999999911e-01 -3.401750000000000052e-01
-1.828009999999999913e-01 3.926950000000000163e-01 3.538240000000000274e-01
4.532100000000000017e-01 -6.278860000000000552e-01 -4.330590000000000273e-01
4.702779999999999738e-01 6.199899999999999856e-02 -8.773499999999999355e-02
-1.915969999999999895e-01 7.006229999999999958e-01 5.683730000000000171e-01
-3.605099999999999971e-02 4.452659999999999951e-01 2.708500000000000144e-02
1.633130000000000137e-01 1.461280000000000079e-01 -5.616000000000000159e-02
1.054270000000000068e-01 -2.737200000000000050e-02 -1.904139999999999999e-01
-1.116919999999999996e-01 5.792370000000000019e-01 3.404039999999999844e-01
-1.977119999999999989e-01 4.661830000000000140e-01 2.848249999999999948e-01
4.658149999999999791e-01 -5.431200000000000472e-01 -1.788710000000000022e-01
1.619790000000000119e-01 -6.341000000000000282e-03 1.218920000000000003e-01
-1.875560000000000005e-01 -2.507969999999999922e-01 -7.669900000000000329e-02
-4.056239999999999846e-01 -6.005409999999999915e-01 -2.064100000000000101e-01
-3.962879999999999736e-01 -1.541150000000000020e-01 3.461000000000000187e-02
-3.961640000000000161e-01 -6.314419999999999478e-01 -3.509530000000000149e-01
-3.157360000000000166e-01 -7.250389999999999890e-01 -1.144570000000000032e-01
4.817730000000000068e-01 1.393100000000000067e-02 -3.026300000000000170e-02
3.231289999999999996e-01 -6.602850000000000108e-01 -3.761829999999999896e-01
1.858029999999999959e-01 -2.979999999999999871e-01 -1.386930000000000107e-01
-2.954649999999999777e-01 -3.341500000000000026e-02 -1.052840000000000026e-01
-3.091340000000000199e-01 -3.341060000000000141e-01 -2.506010000000000182e-01
-1.095799999999999969e-01 6.734649999999999803e-01 1.867640000000000133e-01
6.237100000000000283e-02 2.275749999999999995e-01 -7.700999999999999512e-02
3.863889999999999825e-01 -1.912570000000000103e-01 -3.578000000000000017e-03
2.810590000000000033e-01 -5.796899999999999969e-02 7.622600000000000209e-02
4.647700000000000164e-01 -6.864940000000000486e-01 -3.033699999999999730e-01
1.230279999999999985e-01 -3.337749999999999884e-01 -3.292869999999999964e-01
-2.555049999999999821e-01 -1.698449999999999960e-01 1.097560000000000063e-01
-2.871500000000000163e-01 6.183700000000000307e-02 1.842509999999999981e-01
-4.075909999999999811e-01 -5.116960000000000397e-01 -1.821190000000000031e-01
-4.063579999999999970e-01 -7.006750000000000478e-01 -2.547849999999999837e-01
-2.222240000000000049e-01 -3.382009999999999739e-01 -2.680580000000000185e-01
4.155670000000000197e-01 -3.877570000000000183e-01 -9.890100000000000280e-02
-1.981890000000000041e-01 1.146820000000000062e-01 4.614499999999999852e-02
-1.602190000000000003e-01 -3.942330000000000001e-01 -1.972299999999999887e-01
2.956100000000000047e-02 -2.653349999999999875e-01 -3.650000000000000033e-03
9.655400000000000094e-02 3.557460000000000067e-01 -6.990999999999999819e-03
-6.885700000000000154e-02 7.287609999999999921e-01 1.652019999999999877e-01
-2.460050000000000014e-01 1.298739999999999895e-01 -6.318799999999999417e-02
-1.790390000000000037e-01 4.553530000000000078e-01 2.169760000000000022e-01
4.125690000000000190e-01 -6.855909999999999505e-01 -3.102070000000000105e-01
2.717479999999999896e-01 -6.815430000000000099e-01 -3.113739999999999841e-01
-3.987649999999999806e-01 -5.847200000000000314e-02 5.852999999999999869e-02
-1.157070000000000043e-01 -1.070399999999999963e-01 -1.947480000000000044e-01
-3.952459999999999862e-01 -3.616880000000000095e-01 -4.413399999999999962e-02
-2.586860000000000270e-01 -5.687060000000000448e-01 -3.343240000000000101e-01
-2.743149999999999755e-01 -4.239600000000000313e-02 3.202809999999999824e-01
4.638100000000000001e-01 -5.702570000000000139e-01 -3.500730000000000230e-01
-1.314970000000000028e-01 4.402769999999999739e-01 1.120990000000000042e-01
1.704759999999999887e-01 5.487560000000000215e-01 2.474729999999999985e-01
-2.464069999999999871e-01 -5.874099999999999877e-01 -1.471989999999999965e-01
-8.449700000000000266e-02 -1.802700000000000136e-01 8.475100000000000688e-02
4.650679999999999814e-01 -5.728899999999999965e-02 -1.629909999999999970e-01
-3.817099999999999937e-01 1.008799999999999975e-02 1.922300000000000120e-01
-4.162429999999999741e-01 -2.399519999999999986e-01 -1.241379999999999983e-01
-1.785869999999999957e-01 -5.596899999999999792e-02 1.637500000000000067e-01
2.390919999999999990e-01 1.165289999999999937e-01 2.248500000000000151e-02
-2.141399999999999970e-01 5.479699999999999849e-02 2.240969999999999906e-01
2.535359999999999836e-01 -7.006700000000000428e-02 7.597099999999999687e-02
2.959640000000000049e-01 -1.593410000000000104e-01 2.781700000000000145e-02
4.466970000000000107e-01 4.798800000000000288e-02 3.291899999999999687e-02
-1.982849999999999890e-01 3.192389999999999950e-01 3.438280000000000225e-01
-1.167499999999999961e-02 -2.766069999999999918e-01 3.043500000000000025e-02
-1.782160000000000133e-01 -1.326170000000000126e-01 -1.937369999999999925e-01
3.898780000000000023e-01 -2.778660000000000019e-01 -3.304259999999999975e-01
-1.908930000000000071e-01 3.721949999999999981e-01 3.588919999999999888e-01
-1.778369999999999951e-01 4.464350000000000263e-01 2.083659999999999957e-01
1.936549999999999938e-01 4.922500000000000209e-01 1.375589999999999868e-01
-2.260000000000000064e-01 -6.184770000000000545e-01 -1.393880000000000119e-01
4.941659999999999942e-01 -3.886200000000000071e-02 3.135099999999999693e-02
-2.830200000000000077e-02 -2.067930000000000046e-01 -1.469199999999999950e-01
-2.016719999999999902e-01 4.621279999999999832e-01 4.400899999999999812e-01
-4.249740000000000184e-01 -2.967000000000000019e-03 -8.769399999999999418e-02
-2.010669999999999957e-01 1.856960000000000000e-01 2.726390000000000202e-01
-2.372019999999999962e-01 -6.246289999999999898e-01 -8.363800000000000401e-02
2.632349999999999968e-01 -6.492240000000000233e-01 -3.943989999999999996e-01
4.512909999999999977e-01 -6.036529999999999951e-01 -4.425709999999999922e-01
8.200999999999999956e-02 3.681700000000000250e-02 1.473140000000000005e-01
-1.005680000000000046e-01 5.528440000000000021e-01 3.148599999999999732e-01
-1.086909999999999960e-01 3.041200000000000014e-01 2.042150000000000076e-01
4.388020000000000254e-01 -2.115759999999999863e-01 -3.212610000000000188e-01
3.712340000000000084e-01 -1.807799999999999963e-01 3.987000000000000093e-03
1.894550000000000123e-01 -3.252940000000000276e-01 -1.259750000000000036e-01
1.035500000000000032e-01 6.255199999999999649e-01 2.630460000000000020e-01
-3.202999999999999736e-01 -4.640790000000000193e-01 -2.736919999999999908e-01
-3.835390000000000188e-01 -2.657209999999999850e-01 -2.098409999999999997e-01
2.802250000000000019e-01 -5.181160000000000210e-01 -2.338300000000000101e-01
2.936900000000000066e-01 -3.596940000000000137e-01 -3.708130000000000037e-01
-1.059950000000000059e-01 7.681529999999999747e-01 4.276190000000000269e-01
1.360089999999999910e-01 9.209000000000000172e-03 -1.938650000000000095e-01
-4.054940000000000211e-01 4.615199999999999858e-02 5.644400000000000112e-02
-3.635300000000000337e-02 4.700230000000000241e-01 3.785899999999999682e-02
-1.966960000000000097e-01 -2.166450000000000042e-01 9.391800000000000148e-02
2.011999999999999900e-03 -2.374950000000000117e-01 -7.164900000000000435e-02
1.583960000000000090e-01 -1.119990000000000013e-01 -2.163420000000000065e-01
-1.588459999999999872e-01 3.315150000000000041e-01 2.787780000000000258e-01
-2.003139999999999921e-01 1.886470000000000091e-01 1.136019999999999947e-01
2.630879999999999885e-01 -4.945209999999999884e-01 -4.187179999999999791e-01
6.813900000000000512e-02 7.689529999999999976e-01 1.485779999999999879e-01
3.711809999999999832e-01 -6.369120000000000337e-01 -4.325760000000000161e-01
3.734819999999999807e-01 1.121010000000000062e-01 -1.981239999999999946e-01
4.476180000000000159e-01 -4.498179999999999956e-01 -4.126239999999999908e-01
1.001100000000000080e-02 8.231800000000000228e-01 3.344550000000000023e-01
1.551790000000000114e-01 6.753270000000000106e-01 2.936559999999999726e-01
-2.555589999999999806e-01 7.908300000000000052e-02 2.634090000000000042e-01
1.529560000000000086e-01 2.725090000000000012e-01 -5.860999999999999890e-03
6.439200000000000479e-02 9.549050000000000038e-01 2.464590000000000114e-01
2.577900000000000191e-01 7.532700000000000506e-02 1.020530000000000048e-01
7.333099999999999341e-02 1.999730000000000119e-01 8.558200000000000529e-02
-2.364310000000000023e-01 -3.549000000000000071e-02 1.838690000000000047e-01
3.398470000000000102e-01 8.342900000000000316e-02 -3.380699999999999678e-02
2.937800000000000133e-02 -6.221499999999999947e-02 -1.729159999999999864e-01
-3.299880000000000035e-01 6.748800000000000632e-02 2.165800000000000017e-02
-2.087980000000000114e-01 2.215910000000000102e-01 1.601219999999999866e-01
2.338919999999999888e-01 -6.739460000000000450e-01 -2.390329999999999955e-01
-3.310020000000000184e-01 5.562199999999999783e-02 -8.949799999999999423e-02
-1.918120000000000103e-01 6.634409999999999474e-01 3.884650000000000047e-01
-6.175900000000000140e-02 4.500170000000000003e-01 4.343400000000000039e-02
-7.120700000000000640e-02 -2.590310000000000112e-01 -2.115300000000000166e-02
-1.205809999999999937e-01 6.890610000000000346e-01 2.093849999999999878e-01
-3.498600000000000321e-02 2.754579999999999806e-01 -4.942200000000000065e-02
-2.634199999999999875e-01 -5.347159999999999691e-01 -3.303690000000000238e-01
3.622199999999999864e-01 5.367500000000000049e-02 3.972699999999999843e-02
-3.859730000000000105e-01 2.618300000000000141e-02 1.424769999999999925e-01
-3.953340000000000187e-01 -6.992070000000000229e-01 -2.775670000000000082e-01
-9.736599999999999422e-02 3.635459999999999803e-01 3.344400000000000150e-02
-1.795869999999999966e-01 5.233529999999999571e-01 4.231219999999999981e-01
-7.739100000000000146e-02 9.105349999999999833e-01 3.936830000000000052e-01
2.616609999999999769e-01 2.903319999999999790e-01 1.536150000000000015e-01
-1.505699999999999920e-02 -2.744869999999999810e-01 1.884600000000000164e-02
-1.344670000000000032e-01 -2.638010000000000077e-01 -1.781699999999999950e-02
2.729030000000000067e-01 -4.830729999999999746e-01 -2.620449999999999724e-01
1.751510000000000011e-01 -3.650269999999999904e-01 -3.396279999999999855e-01
1.275320000000000065e-01 -3.816550000000000220e-01 -1.518369999999999997e-01
5.883900000000000241e-02 4.082259999999999778e-01 1.722970000000000057e-01
1.922530000000000072e-01 -3.646949999999999914e-01 -3.461000000000000187e-01
1.948960000000000137e-01 1.215569999999999984e-01 -9.607599999999999474e-02
3.923440000000000261e-01 -6.407869999999999955e-01 -4.221210000000000240e-01
2.772510000000000252e-01 -4.691279999999999895e-01 -2.256400000000000072e-01
4.544230000000000214e-01 -3.837499999999999939e-02 -2.251400000000000068e-01
-1.981070000000000053e-01 6.138329999999999620e-01 3.888889999999999847e-01
-3.420079999999999787e-01 -7.229349999999999943e-01 -2.247329999999999883e-01
-4.128539999999999988e-01 -3.978999999999999759e-01 -2.569850000000000190e-01
1.270229999999999970e-01 -3.624370000000000092e-01 -1.449550000000000005e-01
1.933100000000000096e-01 4.062029999999999808e-01 9.839100000000000623e-02
1.141000000000000087e-03 5.923969999999999514e-01 7.681300000000000627e-02
1.345139999999999947e-01 2.562659999999999938e-01 1.173570000000000030e-01
1.900519999999999987e-01 6.398299999999999821e-02 -1.827340000000000075e-01
-1.124249999999999972e-01 9.188349999999999573e-01 3.536460000000000159e-01
-1.660899999999999876e-01 2.734059999999999824e-01 2.594139999999999779e-01
2.604469999999999841e-01 1.675729999999999997e-01 1.399549999999999961e-01
4.666399999999999715e-02 3.389610000000000123e-01 -3.039499999999999841e-02
-1.523200000000000109e-01 -9.651800000000000657e-02 -1.838400000000000034e-01
2.588420000000000165e-01 3.605360000000000231e-01 2.056159999999999932e-01
-1.936249999999999916e-01 3.573310000000000097e-01 3.561190000000000189e-01
4.390910000000000091e-01 -3.970250000000000168e-01 -4.113069999999999782e-01
4.859200000000000325e-02 2.308409999999999906e-01 9.889399999999999580e-02
3.781099999999999739e-02 -1.045839999999999964e-01 9.973799999999999333e-02
2.534779999999999811e-01 -2.689119999999999844e-01 -3.271720000000000184e-01
-3.623290000000000122e-01 2.732400000000000106e-02 -9.461899999999999478e-02
-1.502809999999999979e-01 6.744799999999999685e-01 2.582920000000000216e-01
3.492179999999999729e-01 -6.125530000000000141e-01 -1.884579999999999866e-01
1.038590000000000069e-01 -1.908390000000000086e-01 -1.973169999999999924e-01
-1.572089999999999876e-01 5.394719999999999516e-01 2.079000000000000015e-01
-1.266399999999999991e-02 -7.167800000000000560e-02 -1.724880000000000024e-01
-2.211390000000000022e-01 3.422589999999999799e-01 3.030169999999999808e-01
-7.663499999999999479e-02 -2.496720000000000050e-01 -4.412200000000000150e-02
-1.590499999999999969e-01 5.376250000000000195e-01 2.110700000000000076e-01
-2.908769999999999967e-01 -4.514219999999999899e-01 5.063999999999999925e-03
1.967389999999999972e-01 -5.289810000000000345e-01 -3.697880000000000056e-01
4.098500000000000060e-02 7.227599999999999580e-01 1.259399999999999964e-01
3.594709999999999850e-01 -6.048999999999999932e-01 -4.774550000000000183e-01
-3.817840000000000122e-01 -1.223869999999999958e-01 1.374009999999999954e-01
2.732010000000000272e-01 2.024229999999999918e-01 1.448850000000000138e-01
-2.443339999999999956e-01 -5.843270000000000408e-01 -2.478710000000000080e-01
-1.740869999999999918e-01 1.768669999999999964e-01 2.211650000000000005e-01
2.388290000000000135e-01 7.231940000000000035e-01 3.216749999999999887e-01
-1.375170000000000003e-01 2.618079999999999852e-01 2.147139999999999882e-01
1.495600000000000054e-02 4.779039999999999955e-01 2.786800000000000041e-02
-2.210660000000000125e-01 -3.142789999999999750e-01 -1.811679999999999957e-01
-2.564800000000000066e-02 3.822969999999999979e-01 1.821750000000000036e-01
2.021469999999999934e-01 1.814739999999999964e-01 1.122360000000000024e-01
4.611879999999999868e-01 -5.768860000000000099e-01 -3.693170000000000064e-01
4.754869999999999930e-01 -3.413089999999999735e-01 -1.947879999999999889e-01
2.100990000000000080e-01 -1.882139999999999924e-01 9.582999999999999505e-03
2.604960000000000053e-01 1.884740000000000026e-01 1.478649999999999964e-01
-4.134749999999999814e-01 -2.502909999999999857e-01 -1.112479999999999997e-01
-4.130019999999999802e-01 -6.018189999999999928e-01 -2.526019999999999932e-01
-1.395309999999999884e-01 9.742099999999999371e-02 1.367750000000000077e-01
1.954980000000000051e-01 -5.152750000000000385e-01 -3.759080000000000199e-01
-3.897059999999999969e-01 -6.184809999999999475e-01 -1.152409999999999962e-01
-4.247879999999999989e-01 -3.852229999999999821e-01 -2.366489999999999982e-01
-3.690220000000000167e-01 -5.497769999999999602e-01 -3.245350000000000179e-01
3.822340000000000182e-01 -4.314459999999999962e-01 -4.155710000000000237e-01
2.780239999999999934e-01 -4.114729999999999777e-01 -8.379699999999999649e-02
-1.656720000000000137e-01 2.935130000000000239e-01 2.693159999999999998e-01
-3.446850000000000191e-01 -7.493870000000000253e-01 -1.560300000000000020e-01
-1.597860000000000114e-01 6.144309999999999494e-01 2.514500000000000068e-01
-4.197359999999999980e-01 -1.130239999999999995e-01 -9.366399999999999726e-02
4.616299999999999848e-01 -1.624760000000000093e-01 -2.218940000000000079e-01
-1.771030000000000104e-01 6.643660000000000121e-01 5.034809999999999564e-01
3.304179999999999895e-01 -5.588469999999999827e-01 -4.564409999999999856e-01
1.804149999999999920e-01 1.005569999999999936e-01 -1.668370000000000131e-01
-3.097349999999999826e-01 8.534700000000000619e-02 -8.196599999999999719e-02
-4.209100000000000064e-01 -6.303419999999999579e-01 -3.415030000000000010e-01
1.872040000000000093e-01 -3.209460000000000091e-01 -1.377800000000000136e-01
2.026149999999999896e-01 2.987500000000000155e-01 6.031700000000000256e-02
-4.009070000000000134e-01 1.470300000000000079e-02 7.530399999999999594e-02
-3.450590000000000046e-01 -7.071739999999999693e-01 -1.008330000000000060e-01
-2.327309999999999934e-01 -4.359290000000000109e-01 -1.662970000000000004e-01
-1.377800000000000136e-01 7.748260000000000147e-01 4.755780000000000007e-01
-3.057000000000000273e-01 -4.630710000000000104e-01 -1.869959999999999956e-01
3.230140000000000233e-01 -3.522739999999999760e-01 -3.732190000000000230e-01
-3.724790000000000045e-01 -1.834439999999999960e-01 -1.789179999999999937e-01
-3.731599999999999917e-01 -1.511039999999999883e-01 -1.658090000000000119e-01
4.450649999999999884e-01 -4.839510000000000201e-01 -4.406490000000000129e-01
2.242300000000000126e-01 6.202530000000000543e-01 2.405619999999999981e-01
3.790760000000000240e-01 6.357100000000000251e-02 8.949999999999999623e-03
8.543199999999999406e-02 3.935460000000000069e-01 4.523000000000000111e-03
-1.638169999999999904e-01 -3.526389999999999803e-01 -2.347009999999999930e-01
4.150820000000000065e-01 -5.805400000000000144e-02 5.092900000000000205e-02
-1.897810000000000052e-01 3.210370000000000168e-01 3.270040000000000169e-01
-3.319670000000000121e-01 8.390799999999999648e-02 -2.230400000000000091e-02
-2.329029999999999989e-01 3.122090000000000143e-01 3.966970000000000218e-01
-9.834500000000000186e-02 2.920989999999999975e-01 1.890689999999999871e-01
1.789020000000000055e-01 4.462229999999999808e-01 9.903599999999999903e-02
-3.256580000000000030e-01 -2.556030000000000246e-01 1.004889999999999950e-01
-2.441659999999999942e-01 -4.399159999999999737e-01 -1.629619999999999957e-01
1.432930000000000037e-01 1.370899999999999896e-01 -1.257330000000000114e-01
-1.888259999999999939e-01 1.708270000000000066e-01 2.417529999999999957e-01
-1.351960000000000106e-01 1.463119999999999976e-01 1.557060000000000111e-01
-2.818519999999999914e-01 -4.701389999999999736e-01 -1.136770000000000003e-01
1.883360000000000034e-01 4.463889999999999803e-01 1.103859999999999980e-01
-3.405690000000000106e-01 -3.409920000000000173e-01 6.453499999999999515e-02
4.881050000000000111e-01 -2.001429999999999876e-01 -2.676800000000000013e-02
4.617359999999999798e-01 -3.868750000000000244e-01 -2.994899999999999785e-01
-3.893469999999999986e-01 -7.525999999999999704e-03 1.377289999999999903e-01
-2.278620000000000090e-01 -2.451480000000000048e-01 -1.942770000000000052e-01
-1.438170000000000004e-01 6.052750000000000075e-01 2.123130000000000017e-01
-8.075999999999999845e-03 6.300660000000000149e-01 9.380099999999999549e-02
-1.342530000000000112e-01 6.817299999999999471e-01 4.247540000000000204e-01
2.936579999999999746e-01 -7.051770000000000538e-01 -2.538420000000000121e-01
-3.007900000000000018e-01 -1.664569999999999939e-01 1.174280000000000046e-01
1.536669999999999980e-01 -2.770500000000000046e-02 -2.107700000000000129e-01
-2.267299999999999871e-02 6.253520000000000190e-01 2.875610000000000110e-01
8.638400000000000245e-02 6.051000000000000129e-02 -1.648820000000000008e-01
-2.908810000000000007e-01 6.907099999999999351e-02 1.631029999999999980e-01
2.698889999999999900e-01 2.580500000000000016e-01 1.607639999999999902e-01
8.007300000000000528e-02 -1.759550000000000003e-01 -2.309620000000000006e-01
-3.734759999999999747e-01 -6.155469999999999553e-01 -5.401999999999999857e-02
1.880989999999999884e-01 -2.431310000000000138e-01 -3.049029999999999796e-01
-4.145469999999999988e-01 -2.510499999999999884e-02 -2.546400000000000052e-02
-2.438639999999999974e-01 -5.890570000000000528e-01 -2.499480000000000035e-01
8.982600000000000307e-02 9.075130000000000141e-01 3.368240000000000123e-01
1.379579999999999973e-01 8.452129999999999921e-01 2.282250000000000112e-01
-1.820690000000000086e-01 2.927310000000000190e-01 2.964629999999999765e-01
-2.457959999999999867e-01 -2.732319999999999749e-01 7.746799999999999520e-02
-4.035639999999999783e-01 -6.762059999999999738e-01 -2.247159999999999991e-01
-3.892590000000000217e-01 -4.922100000000000086e-02 1.211669999999999969e-01
-3.591480000000000228e-01 4.955400000000000083e-02 -8.662999999999999867e-02
-7.327200000000000379e-02 1.992250000000000132e-01 -6.475999999999999812e-02
-2.173940000000000039e-01 2.545819999999999750e-01 2.145630000000000037e-01
-3.184100000000000263e-01 -2.318379999999999885e-01 1.099129999999999968e-01
4.701350000000000251e-01 -2.403550000000000131e-01 -4.145200000000000273e-02
-1.727309999999999957e-01 7.078889999999999905e-01 5.196370000000000156e-01
-1.393330000000000124e-01 5.965479999999999672e-01 3.876180000000000181e-01
-1.827030000000000043e-01 2.940800000000000081e-01 2.983339999999999881e-01
-1.932599999999999943e-02 8.380649999999999489e-01 3.460079999999999822e-01
-2.869729999999999781e-01 -2.461250000000000104e-01 9.751500000000000445e-02
-8.065300000000000247e-02 8.675779999999999603e-01 3.869719999999999827e-01
-6.215000000000000038e-03 -1.822169999999999901e-01 6.673700000000000465e-02
-9.933999999999999775e-02 -2.053760000000000030e-01 -1.530140000000000111e-01
2.417620000000000047e-01 5.412679999999999714e-01 2.378720000000000001e-01
-3.186069999999999736e-01 -4.472619999999999929e-01 -2.593590000000000062e-01
4.752060000000000173e-01 -1.290769999999999973e-01 -1.225649999999999934e-01
-1.112820000000000059e-01 -9.962500000000000522e-02 1.195510000000000045e-01
3.206100000000000061e-01 2.772000000000000158e-03 9.609499999999999986e-02
2.361090000000000133e-01 6.644510000000000138e-01 3.082289999999999752e-01
2.939620000000000011e-01 7.862399999999999944e-02 -9.020999999999999505e-03
3.723679999999999768e-01 -1.995059999999999889e-01 -2.906710000000000127e-01
-2.593269999999999742e-01 -4.756540000000000212e-01 -1.186899999999999934e-02
1.025080000000000019e-01 9.186100000000000376e-01 2.959539999999999949e-01
-2.147900000000000087e-01 -2.808410000000000073e-01 -1.309180000000000066e-01
4.819970000000000088e-01 2.414099999999999926e-02 -2.525799999999999920e-02
2.996619999999999839e-01 -3.557690000000000019e-01 -6.258199999999999874e-02
9.940300000000000524e-02 -2.193990000000000107e-01 -1.236889999999999934e-01
-1.755700000000000038e-01 9.228500000000000592e-02 -1.041259999999999963e-01
4.407000000000000327e-03 7.056630000000000402e-01 3.102380000000000138e-01
8.353700000000000014e-02 2.549870000000000192e-01 1.087749999999999967e-01
-1.396670000000000134e-01 1.211999999999999970e-03 1.821409999999999973e-01
-2.794449999999999990e-01 9.507500000000000673e-02 -2.136199999999999904e-02
-9.818599999999999550e-02 5.442169999999999508e-01 3.082429999999999892e-01
-3.688029999999999919e-01 -1.513899999999999968e-02 2.616939999999999822e-01
2.372809999999999919e-01 5.822380000000000333e-01 2.843629999999999769e-01
4.116819999999999924e-01 -6.850239999999999663e-01 -3.117059999999999831e-01
3.380009999999999959e-01 7.758099999999999719e-02 -1.772800000000000070e-02
-2.833910000000000040e-01 -5.560199999999999587e-01 -7.876800000000000468e-02
2.343669999999999920e-01 4.679440000000000266e-01 1.894210000000000060e-01
-3.205870000000000108e-01 -5.111890000000000045e-01 -2.874780000000000113e-01
-4.217600000000000238e-01 -4.328600000000000225e-01 -2.676950000000000163e-01
2.443430000000000046e-01 -3.509570000000000189e-01 -4.999399999999999678e-02
-2.706640000000000157e-01 1.097840000000000066e-01 -2.824899999999999980e-02
-2.086060000000000136e-01 5.996540000000000203e-01 4.591779999999999751e-01
-2.384300000000000030e-01 -7.461800000000000377e-02 -1.421399999999999886e-01
-5.493900000000000172e-02 -7.997799999999999354e-02 -1.749149999999999872e-01
3.612859999999999960e-01 1.162320000000000020e-01 -1.268680000000000085e-01
-1.871289999999999898e-01 4.378319999999999990e-01 2.299059999999999993e-01
1.438540000000000096e-01 -2.039090000000000069e-01 -1.805879999999999985e-01
4.524639999999999773e-01 -5.023239999999999927e-01 -3.996460000000000012e-01
-1.733389999999999931e-01 7.589169999999999527e-01 3.642480000000000162e-01
1.972649999999999959e-01 -3.263889999999999847e-01 -8.085799999999999932e-02
2.002079999999999971e-01 -4.494859999999999967e-01 -1.220399999999999957e-01
4.752430000000000265e-01 -6.906330000000000524e-01 -2.900329999999999853e-01
-3.918340000000000156e-01 -2.631700000000000150e-01 1.741099999999999939e-02
-2.830230000000000246e-01 -7.337219999999999853e-01 -1.876829999999999887e-01
2.425140000000000073e-01 4.107999999999999985e-01 1.770450000000000079e-01
-3.055740000000000123e-01 -5.307539999999999480e-01 -2.627240000000000131e-01
3.176959999999999784e-01 -2.763729999999999798e-01 -3.418970000000000065e-01
-2.422700000000000131e-01 1.474630000000000107e-01 2.461089999999999944e-01
1.556299999999999906e-01 -1.972929999999999962e-01 -2.158789999999999876e-01
-3.823799999999999977e-01 -4.296949999999999936e-01 7.630999999999999762e-03
-3.299090000000000078e-01 -8.927400000000000613e-02 -1.392879999999999951e-01
-4.210639999999999938e-01 -7.511999999999999580e-03 -5.857699999999999713e-02
-8.118999999999999828e-02 2.545040000000000080e-01 1.578960000000000086e-01
-5.551899999999999891e-02 7.045970000000000288e-01 1.454830000000000012e-01
2.083099999999999882e-02 2.924539999999999917e-01 -5.306700000000000306e-02
-1.796780000000000044e-01 6.712949999999999751e-01 3.404519999999999769e-01
-2.543070000000000053e-01 1.106420000000000042e-01 2.943149999999999933e-01
-7.434100000000000430e-02 8.877389999999999448e-01 2.596499999999999919e-01
3.524459999999999815e-01 1.306579999999999964e-01 -1.630429999999999935e-01
2.108600000000000058e-02 -2.126039999999999874e-01 -1.336590000000000000e-01
4.597370000000000068e-01 -3.014100000000000112e-01 -2.825860000000000039e-01
-3.831809999999999938e-01 -3.885730000000000017e-01 1.953200000000000075e-02
4.888739999999999752e-01 -1.149440000000000045e-01 -2.936199999999999921e-02
4.672680000000000167e-01 -2.781710000000000016e-01 -2.258449999999999902e-01
1.834220000000000017e-01 3.384090000000000154e-01 5.531599999999999712e-02
3.990599999999999703e-02 9.277199999999999336e-02 -1.438280000000000114e-01
-4.110849999999999782e-01 -6.655640000000000445e-01 -2.669009999999999994e-01
-1.880350000000000077e-01 7.548690000000000122e-01 4.270999999999999797e-01
2.932939999999999992e-01 -2.525350000000000095e-01 -3.278809999999999780e-01
-3.994349999999999845e-01 -5.931319999999999926e-01 -1.650629999999999875e-01
2.125200000000000006e-02 1.365879999999999872e-01 6.262199999999999711e-02
2.963040000000000118e-01 -5.213959999999999706e-01 -1.401550000000000018e-01
1.636710000000000109e-01 -1.999940000000000051e-01 -2.830799999999999983e-01
-1.320630000000000137e-01 -4.597319999999999740e-01 -3.093699999999999922e-02
-1.885429999999999884e-01 7.235409999999999897e-01 4.101609999999999978e-01
-3.165899999999999964e-02 9.102550000000000363e-01 2.314789999999999903e-01
-2.631499999999999950e-01 -2.072090000000000043e-01 -2.083170000000000022e-01
-1.939230000000000120e-01 2.605169999999999986e-01 3.008449999999999736e-01
-1.648930000000000118e-01 -3.935029999999999917e-01 -2.109300000000000064e-01
-1.970359999999999889e-01 5.068299999999999889e-02 1.968110000000000137e-01
-2.840480000000000227e-01 3.997200000000000059e-02 2.418299999999999894e-01
-2.279909999999999992e-01 1.144639999999999963e-01 -8.586299999999999488e-02
5.892599999999999921e-02 2.884849999999999914e-01 -5.049200000000000216e-02
-7.736200000000000021e-02 7.352729999999999544e-01 1.752249999999999919e-01
5.713000000000000023e-02 9.494160000000000377e-01 2.622820000000000151e-01
7.805000000000000306e-03 8.627559999999999674e-01 1.768679999999999974e-01
4.789229999999999876e-01 -6.289139999999999731e-01 -2.729329999999999812e-01
3.956239999999999757e-01 -5.137070000000000247e-01 -4.506120000000000125e-01
-2.048899999999999888e-01 -8.556999999999999329e-02 -1.673340000000000105e-01
-1.884280000000000121e-01 3.030849999999999933e-01 3.142409999999999926e-01
-2.975570000000000159e-01 -3.564640000000000031e-01 4.942200000000000065e-02
-1.929480000000000084e-01 -1.992790000000000117e-01 1.010960000000000053e-01
-4.161329999999999751e-01 -6.620600000000000096e-02 -5.214499999999999691e-02
-1.190250000000000058e-01 8.091800000000000104e-01 2.563429999999999875e-01
-3.949289999999999745e-01 -5.547889999999999766e-01 -1.214260000000000062e-01
1.489179999999999948e-01 6.733959999999999946e-01 1.625929999999999875e-01
4.828419999999999934e-01 1.845700000000000118e-02 -2.178199999999999928e-02
1.215500000000000053e-01 -2.640819999999999834e-01 1.233000000000000068e-02
-3.736000000000000171e-03 6.425000000000000155e-02 1.050510000000000055e-01
-1.547769999999999979e-01 -4.015679999999999805e-01 -1.725760000000000072e-01
2.006300000000000028e-01 7.258029999999999760e-01 3.317990000000000106e-01
4.681379999999999986e-01 -4.974100000000000188e-01 -2.967040000000000233e-01
-2.826250000000000151e-01 -7.920000000000000651e-02 -1.365879999999999872e-01
-2.070069999999999966e-01 6.375009999999999843e-01 5.480080000000000506e-01
2.132900000000000074e-01 -4.593030000000000168e-01 -1.012949999999999962e-01
-3.220990000000000242e-01 -4.792159999999999753e-01 -2.882230000000000070e-01
-3.837280000000000135e-01 1.946499999999999966e-02 1.327800000000000091e-01
-2.558710000000000151e-01 -6.127810000000000201e-01 -3.309929999999999817e-01
2.232899999999999885e-01 -3.059819999999999762e-01 -3.364989999999999926e-01
2.742199999999999846e-02 5.912900000000000100e-02 1.090580000000000022e-01
-1.793480000000000074e-01 6.642670000000000519e-01 3.353700000000000014e-01
3.370429999999999815e-01 -6.416880000000000361e-01 -4.220949999999999980e-01
2.421820000000000084e-01 -4.341329999999999911e-01 -8.734200000000000297e-02
4.678260000000000196e-01 -6.127550000000000496e-01 -3.389590000000000103e-01
-3.939360000000000084e-01 8.822399999999999687e-02 -4.246799999999999881e-02
1.152269999999999961e-01 2.590900000000000147e-02 1.452110000000000067e-01
5.158900000000000291e-02 2.573770000000000224e-01 -6.610099999999999310e-02
-2.030790000000000095e-01 1.322339999999999904e-01 2.463529999999999887e-01
6.677700000000000302e-02 8.727329999999999810e-01 2.041129999999999889e-01
-2.207890000000000130e-01 -2.423260000000000136e-01 -1.586599999999999955e-01
-4.145719999999999961e-01 -3.357099999999999668e-02 -2.908900000000000027e-02
1.372240000000000126e-01 -3.265159999999999729e-01 -3.289860000000000007e-01
-2.474830000000000085e-01 -6.103720000000000256e-01 -8.327900000000000580e-02
-7.176200000000000634e-02 8.516650000000000054e-01 3.801470000000000127e-01
2.447320000000000051e-01 4.290640000000000009e-01 1.901440000000000075e-01
4.879629999999999801e-01 -1.947600000000000026e-02 -1.946000000000000030e-03
4.544969999999999843e-01 1.051239999999999952e-01 -1.214900000000000008e-01
-1.491470000000000018e-01 6.074079999999999480e-01 4.099519999999999831e-01
-1.490700000000000011e-02 5.309110000000000218e-01 5.555399999999999922e-02
9.265199999999999825e-02 -2.598550000000000026e-01 -2.104400000000000021e-02
2.105259999999999909e-01 -2.290830000000000088e-01 -3.033560000000000145e-01
-4.350400000000000100e-02 9.210380000000000233e-01 2.452699999999999880e-01
-1.341519999999999935e-01 -8.558899999999999841e-02 -1.820340000000000014e-01
4.131460000000000132e-01 -1.383900000000000130e-01 1.515599999999999933e-02
-9.542899999999999994e-02 7.528179999999999872e-01 2.013139999999999930e-01
4.749840000000000173e-01 -5.788410000000000499e-01 -2.808990000000000098e-01
-2.478789999999999882e-01 -5.901579999999999604e-01 -1.386280000000000012e-01
-3.468720000000000137e-01 8.675999999999999684e-03 3.166390000000000038e-01
3.710620000000000029e-01 5.033100000000000074e-02 4.634499999999999731e-02
-1.291990000000000083e-01 1.659190000000000109e-01 -2.880399999999999974e-02
2.704070000000000085e-01 -4.282009999999999983e-01 -3.937979999999999814e-01
-2.344360000000000055e-01 3.170419999999999905e-01 3.837450000000000028e-01
-3.029830000000000023e-01 3.457899999999999863e-02 2.535299999999999776e-01
4.562990000000000101e-01 -2.746089999999999920e-01 -2.954359999999999764e-01
-3.647130000000000094e-01 -7.573849999999999749e-01 -1.222810000000000008e-01
-1.515299999999999980e-01 -9.121100000000000041e-02 -1.818349999999999966e-01
-1.863450000000000106e-01 -3.601800000000000140e-02 1.741890000000000105e-01
6.754200000000000481e-02 2.354749999999999899e-01 -7.217600000000000404e-02
-2.419880000000000086e-01 -6.284830000000000139e-01 -2.623309999999999809e-01
1.665010000000000101e-01 -1.239700000000000003e-02 -2.078470000000000040e-01
3.287470000000000114e-01 6.003800000000000109e-02 -2.099320000000000075e-01
2.513360000000000039e-01 -4.305309999999999970e-01 -3.737909999999999844e-01
-4.020320000000000005e-01 -2.809869999999999868e-01 -5.301800000000000263e-02
-3.893090000000000162e-01 -4.226280000000000037e-01 -3.239999999999999825e-02
1.386910000000000087e-01 4.315240000000000187e-01 5.337100000000000177e-02
2.189309999999999867e-01 5.280019999999999714e-01 2.611950000000000105e-01
4.250300000000000189e-01 -1.106999999999999911e-03 7.467000000000000026e-02
1.706459999999999921e-01 7.743409999999999460e-01 3.388610000000000233e-01
4.283560000000000145e-01 -5.473409999999999664e-01 -1.737420000000000075e-01
-2.619739999999999847e-01 -1.807799999999999963e-01 1.106540000000000024e-01
4.720179999999999931e-01 -3.003850000000000131e-01 -7.645599999999999619e-02
2.274480000000000113e-01 -3.868249999999999744e-01 -3.122269999999999768e-01
-2.720460000000000100e-01 -4.906809999999999783e-01 -6.283299999999999996e-02
-3.406939999999999968e-01 5.804600000000000037e-02 7.487199999999999411e-02
-2.129870000000000096e-01 -2.542789999999999773e-01 -1.193519999999999998e-01
-1.024280000000000052e-01 4.733809999999999962e-01 2.786950000000000260e-01
-3.191660000000000053e-01 -1.948239999999999972e-01 1.218609999999999971e-01
1.995699999999999905e-02 -7.620499999999999496e-02 -1.793379999999999974e-01
-2.239309999999999912e-01 1.740089999999999970e-01 1.800509999999999888e-01
-4.185539999999999816e-01 -2.688220000000000054e-01 -2.045980000000000021e-01
2.172709999999999919e-01 1.260000000000000009e-01 -1.154519999999999991e-01
5.967499999999999888e-02 4.339439999999999964e-01 1.334800000000000049e-02
1.607669999999999932e-01 4.563030000000000141e-01 8.397999999999999909e-02
2.560580000000000078e-01 3.547139999999999738e-01 2.060440000000000049e-01
4.661810000000000120e-01 -4.222179999999999822e-01 -2.831170000000000075e-01
-2.625700000000000256e-01 1.025070000000000009e-01 6.625499999999999445e-02
6.979899999999999993e-02 -1.588900000000000035e-01 -2.494460000000000011e-01
