5.397600000000000176e-01 8.183340000000000058e-01 -2.487800000000000081e-02
1.417529999999999901e-01 6.865999999999999708e-03 -6.003770000000000495e-01
-1.379650000000000043e-01 -2.234299999999999897e-01 9.455580000000000096e-01
-7.224600000000000466e-02 5.318180000000000129e-01 8.130119999999999569e-01
4.099619999999999931e-01 -9.096410000000000329e-01 5.000000000000000104e-03
9.386449999999999516e-01 -3.114080000000000181e-01 -1.349190000000000111e-01
4.276650000000000174e-01 -8.899359999999999493e-01 -1.441449999999999954e-01
-5.045849999999999502e-01 -7.487040000000000362e-01 3.891089999999999827e-01
-5.463689999999999936e-01 -3.591639999999999833e-01 7.266019999999999701e-01
-1.676690000000000125e-01 -2.343480000000000008e-01 9.381500000000000394e-01
4.511310000000000042e-01 -4.310999999999999832e-01 1.550920000000000076e-01
-5.189550000000000551e-01 -1.418879999999999864e-01 -5.307370000000000143e-01
6.398880000000000123e-01 7.433400000000000007e-01 -5.564800000000000302e-02
2.467729999999999924e-01 -9.014929999999999888e-01 -2.107159999999999866e-01
-9.231629999999999558e-01 2.331399999999999861e-01 -6.243100000000000038e-02
-5.743540000000000312e-01 -9.462199999999999778e-02 1.525100000000000067e-01
8.080500000000000183e-02 -9.868170000000000552e-01 8.626499999999999446e-02
-2.561939999999999773e-01 -7.035090000000000510e-01 -1.308880000000000043e-01
-7.145289999999999697e-01 -4.851900000000000102e-01 -1.448019999999999863e-01
6.104009999999999714e-01 -1.227479999999999960e-01 -8.910200000000000065e-02
5.612209999999999699e-01 8.037900000000000045e-01 -1.942400000000000029e-02
5.466410000000000435e-01 -1.879999999999999890e-04 -3.050350000000000006e-01
-3.012529999999999930e-01 -1.119560000000000000e-01 9.229819999999999691e-01
2.024759999999999893e-01 -5.946679999999999744e-01 -1.061499999999999944e-02
-8.412999999999999645e-02 8.776490000000000125e-01 -4.086319999999999952e-01
2.532320000000000126e-01 -1.362140000000000017e-01 -5.524310000000000054e-01
-3.053379999999999983e-01 -9.368720000000000381e-01 -7.502899999999999847e-02
-5.035300000000000192e-02 2.070089999999999986e-01 9.541209999999999969e-01
-3.671670000000000211e-01 -8.424289999999999834e-01 -1.749729999999999897e-01
-1.286499999999999866e-01 -8.017100000000000615e-02 -5.940569999999999462e-01
-3.519030000000000213e-01 5.176000000000000045e-03 -4.925749999999999851e-01
-1.968219999999999970e-01 3.249330000000000274e-01 -5.160400000000000542e-01
-6.076139999999999874e-01 -6.804550000000000320e-01 3.608649999999999913e-01
-1.969999999999999963e-03 -1.516170000000000018e-01 9.706219999999999848e-01
-3.450829999999999731e-01 -7.403929999999999678e-01 5.499650000000000372e-01
-4.087080000000000157e-01 -7.946779999999999955e-01 -1.548829999999999929e-01
-1.139669999999999989e-01 6.648570000000000313e-01 -6.390160000000000284e-01
3.853869999999999796e-01 -4.979589999999999850e-01 1.431100000000000080e-02
1.855499999999999858e-02 9.683960000000000345e-01 -7.946300000000000585e-02
4.215700000000000003e-01 -4.660540000000000238e-01 -5.184899999999999926e-02
8.741039999999999921e-01 2.913999999999999924e-02 -4.720190000000000219e-01
-4.691379999999999995e-01 -4.575690000000000035e-01 7.289280000000000204e-01
-4.200369999999999937e-01 -8.000580000000000469e-01 3.923749999999999738e-01
1.425800000000000123e-01 5.859370000000000411e-01 6.908250000000000224e-01
1.177679999999999977e-01 1.346090000000000064e-01 9.644070000000000142e-01
5.374400000000000288e-01 8.012679999999999803e-01 1.300640000000000129e-01
-2.517119999999999913e-01 -5.613449999999999829e-01 5.059899999999999815e-02
-1.285580000000000056e-01 4.708689999999999820e-01 -4.670619999999999772e-01
-1.312419999999999976e-01 7.468470000000000386e-01 -3.023660000000000236e-01
3.949119999999999853e-01 -1.367230000000000112e-01 -5.644090000000000495e-01
-2.694429999999999881e-01 2.408629999999999938e-01 -7.743409999999999460e-01
9.865599999999999370e-02 1.802350000000000063e-01 -9.610009999999999941e-01
-1.805809999999999915e-01 -4.978330000000000255e-01 3.168340000000000045e-01
-4.284470000000000223e-01 -8.653600000000000181e-02 8.724330000000000140e-01
-5.964340000000000197e-01 -6.754300000000000581e-02 -3.679500000000000132e-02
-9.074579999999999869e-01 -3.235700000000000243e-01 1.345629999999999882e-01
-5.793949999999999934e-01 8.965000000000000746e-03 1.550040000000000029e-01
6.514339999999999575e-01 -1.716469999999999940e-01 -4.288540000000000130e-01
1.024980000000000058e-01 -8.760999999999999899e-01 -1.943620000000000070e-01
1.891289999999999916e-01 -1.357240000000000113e-01 8.337360000000000326e-01
4.648639999999999994e-01 3.078899999999999970e-01 -2.657220000000000137e-01
-2.566880000000000273e-01 9.410799999999999721e-02 9.371329999999999938e-01
-1.488599999999999993e-02 4.867349999999999732e-01 8.448480000000000434e-01
-1.115970000000000018e-01 -2.979470000000000174e-01 5.264640000000000430e-01
-7.041180000000000216e-01 -5.115640000000000187e-01 4.449009999999999909e-01
8.635990000000000055e-01 1.691680000000000128e-01 1.833299999999999930e-01
-4.849300000000000138e-02 3.133969999999999811e-01 -5.175589999999999913e-01
8.605059999999999931e-01 -5.051930000000000032e-01 5.667900000000000021e-02
-9.278969999999999718e-01 2.370250000000000135e-01 6.781500000000000028e-02
1.937329999999999885e-01 4.763200000000000212e-01 -8.343899999999999650e-01
-1.918120000000000103e-01 -9.317950000000000399e-01 2.705080000000000262e-01
2.828999999999999918e-02 -6.165019999999999945e-01 9.691299999999999915e-02
3.112739999999999951e-01 -9.376579999999999915e-01 -1.330330000000000124e-01
2.086500000000000021e-01 -1.544909999999999894e-01 8.685680000000000067e-01
-1.297129999999999950e-01 4.646719999999999740e-01 7.310640000000000471e-01
-3.349579999999999780e-01 -1.365190000000000015e-01 -6.649819999999999620e-01
-7.742820000000000258e-01 -5.869739999999999958e-01 -1.145889999999999964e-01
-7.050490000000000368e-01 -2.044710000000000139e-01 -3.629049999999999776e-01
-3.833090000000000108e-01 -4.721650000000000014e-01 -1.489669999999999883e-01
7.841800000000000159e-02 -9.738909999999999512e-01 1.805219999999999880e-01
-5.512169999999999570e-01 -2.298659999999999870e-01 9.496000000000000274e-02
-1.644069999999999976e-01 3.777260000000000062e-01 -7.791780000000000372e-01
-3.856930000000000081e-01 -4.593670000000000253e-01 -1.265660000000000118e-01
4.897460000000000147e-01 7.350999999999999895e-03 -8.596589999999999510e-01
-7.599860000000000504e-01 -2.765699999999999825e-01 -2.701509999999999745e-01
3.343229999999999813e-01 4.742279999999999829e-01 2.192070000000000130e-01
-7.351860000000000062e-01 -6.468359999999999665e-01 8.408999999999999808e-03
-1.448429999999999995e-01 4.209970000000000101e-01 7.925860000000000127e-01
1.422229999999999883e-01 -6.610460000000000225e-01 5.410319999999999574e-01
4.526709999999999900e-01 6.263060000000000294e-01 1.544300000000000117e-01
1.544729999999999992e-01 5.855059999999999709e-01 -1.198600000000000013e-02
9.671799999999999842e-02 -5.901809999999999556e-01 1.798690000000000011e-01
-7.943590000000000373e-01 -5.655609999999999804e-01 -7.282099999999999684e-02
2.410249999999999893e-01 -7.148500000000000687e-02 -5.676660000000000039e-01
1.394140000000000101e-01 -2.421069999999999889e-01 -9.216149999999999620e-01
-2.504599999999999882e-02 5.138399999999999634e-01 8.279680000000000373e-01
6.085009999999999586e-01 -1.505450000000000121e-01 4.820100000000000079e-02
5.552270000000000261e-01 -4.112549999999999817e-01 1.280320000000000069e-01
-5.135499999999999787e-02 9.458400000000000141e-01 -2.132950000000000124e-01
-1.537890000000000090e-01 5.998999999999999992e-03 5.883920000000000261e-01
-5.796200000000000241e-01 -1.653769999999999962e-01 2.051599999999999951e-02
-1.057699999999999960e-02 -2.345659999999999967e-01 -9.572129999999999805e-01
1.660220000000000029e-01 -1.346140000000000114e-01 -6.000520000000000298e-01
1.405289999999999873e-01 -3.697810000000000263e-01 6.771669999999999634e-01
-2.132900000000000074e-01 -5.793460000000000276e-01 4.301900000000000168e-02
1.265020000000000033e-01 5.088289999999999758e-01 -3.065280000000000227e-01
-4.228759999999999741e-01 -7.224580000000000446e-01 -1.341990000000000127e-01
3.090849999999999986e-01 -7.239400000000000279e-01 2.399290000000000034e-01
8.706500000000000350e-02 8.532300000000000439e-01 -4.621879999999999877e-01
-1.138480000000000047e-01 5.449850000000000527e-01 2.924539999999999917e-01
-5.908000000000000057e-02 1.494759999999999978e-01 -5.881199999999999761e-01
-3.702230000000000243e-01 -6.243790000000000173e-01 6.627490000000000325e-01
5.666170000000000373e-01 8.508400000000000685e-02 -2.460749999999999882e-01
-4.047200000000000103e-02 -8.545369999999999910e-01 4.987630000000000119e-01
-2.445380000000000054e-01 2.660279999999999867e-01 5.426389999999999825e-01
-5.860250000000000181e-01 1.123220000000000052e-01 -5.033900000000000041e-01
-1.977929999999999966e-01 -7.558960000000000123e-01 -1.422350000000000003e-01
-1.699920000000000042e-01 -9.507109999999999728e-01 -2.193610000000000004e-01
5.172489999999999588e-01 -2.922500000000000098e-02 -3.499659999999999993e-01
6.002969999999999695e-01 7.320619999999999905e-01 -2.620410000000000239e-01
7.361560000000000326e-01 -4.082810000000000050e-01 -1.745730000000000059e-01
-6.057700000000000307e-01 1.124200000000000060e-01 -5.925080000000000346e-01
1.378719999999999946e-01 -5.221360000000000445e-01 5.912680000000000158e-01
-4.885399999999999743e-01 1.258769999999999889e-01 -4.663459999999999828e-01
-5.338779999999999637e-01 8.097100000000000131e-02 -2.626800000000000246e-01
5.896620000000000195e-01 -2.020770000000000066e-01 -3.687750000000000195e-01
2.858439999999999870e-01 2.698899999999999910e-02 -9.438060000000000338e-01
8.042439999999999589e-01 -4.193560000000000065e-01 -1.694890000000000008e-01
-8.089899999999999869e-01 1.588910000000000045e-01 4.559770000000000212e-01
1.665969999999999951e-01 3.097520000000000273e-01 9.145959999999999646e-01
7.858230000000000492e-01 -5.606759999999999522e-01 -1.289530000000000121e-01
2.854829999999999868e-01 6.062929999999999708e-01 2.615149999999999975e-01
7.336559999999999748e-01 -1.553670000000000051e-01 1.339750000000000107e-01
2.300329999999999875e-01 -5.368799999999999961e-02 -5.731469999999999620e-01
-7.582189999999999763e-01 1.378900000000000126e-01 -2.226999999999999813e-03
3.322499999999999759e-02 -7.304599999999999982e-02 9.789020000000000499e-01
3.352899999999999769e-01 5.065420000000000478e-01 -7.707220000000000182e-01
-6.968980000000000175e-01 -6.561559999999999615e-01 2.088299999999999879e-01
-1.348310000000000064e-01 -6.064889999999999448e-01 7.657260000000000177e-01
6.115310000000000468e-01 3.218469999999999942e-01 -7.052249999999999908e-01
2.401749999999999996e-01 9.381530000000000147e-01 -1.064599999999999991e-01
-7.410449999999999537e-01 -4.856300000000000061e-01 -1.445760000000000101e-01
-1.814679999999999904e-01 3.480800000000000005e-01 -7.981329999999999814e-01
4.211269999999999736e-01 -1.044960000000000055e-01 -4.493530000000000024e-01
7.390050000000000230e-01 3.246800000000000241e-01 -5.718010000000000037e-01
1.408600000000000130e-01 7.120020000000000238e-01 5.477600000000000247e-01
5.174060000000000326e-01 1.525640000000000052e-01 -3.091769999999999796e-01
8.648689999999999989e-01 2.694099999999999828e-01 -4.011540000000000106e-01
-9.440650000000000430e-01 1.526619999999999922e-01 -1.461179999999999979e-01
8.698829999999999618e-01 2.172850000000000059e-01 1.866079999999999961e-01
-2.018649999999999889e-01 3.166660000000000030e-01 -8.370429999999999815e-01
7.847300000000000109e-02 -5.023849999999999705e-01 3.594769999999999910e-01
9.765279999999999516e-01 -1.911269999999999913e-01 7.027899999999999425e-02
2.513099999999999778e-01 -4.663500000000000284e-02 9.508419999999999650e-01
4.006899999999999906e-01 4.188669999999999893e-01 -2.038109999999999922e-01
9.890489999999999560e-01 -6.935499999999999998e-02 -9.528100000000000458e-02
-4.393440000000000123e-01 -3.217990000000000017e-01 2.703470000000000040e-01
-1.748079999999999912e-01 9.474019999999999664e-01 -1.052919999999999967e-01
9.752159999999999718e-01 8.523200000000000220e-02 -1.750929999999999986e-01
-6.309289999999999621e-01 1.067310000000000064e-01 -7.330140000000000544e-01
-1.712780000000000136e-01 4.850999999999999757e-02 9.615550000000000486e-01
9.609799999999999454e-01 -1.782779999999999920e-01 1.950349999999999862e-01
9.616580000000000128e-01 -8.540399999999999381e-02 2.436039999999999872e-01
-5.413409999999999611e-01 1.157790000000000069e-01 -3.305139999999999745e-01
1.398639999999999883e-01 -1.232199999999999962e-01 6.675470000000000015e-01
-1.292520000000000058e-01 -8.131589999999999652e-01 5.471610000000000085e-01
1.173320000000000057e-01 9.424770000000000092e-01 -2.128369999999999984e-01
-8.446839999999999904e-01 1.772620000000000029e-01 3.400529999999999942e-01
-4.449800000000000283e-02 3.163569999999999993e-01 -5.162839999999999652e-01
-8.781780000000000141e-01 1.984499999999999875e-01 -2.399149999999999894e-01
5.962739999999999707e-01 1.579260000000000108e-01 -8.929099999999999537e-02
3.269730000000000136e-01 9.321300000000000419e-02 -5.176290000000000058e-01
2.728229999999999822e-01 5.330080000000000373e-01 1.097670000000000035e-01
4.254789999999999961e-01 3.500019999999999798e-01 -8.161869999999999958e-01
-7.319799999999999918e-02 -5.541059999999999874e-01 2.689799999999999969e-01
-1.321400000000000075e-01 7.495239999999999680e-01 -2.700029999999999930e-01
-1.688939999999999886e-01 -5.875679999999999792e-01 -1.033629999999999965e-01
1.375939999999999941e-01 -6.509829999999999783e-01 6.416469999999999674e-01
-3.713460000000000094e-01 1.697470000000000090e-01 4.889640000000000097e-01
2.791210000000000080e-01 -9.542939999999999756e-01 -6.963900000000000645e-02
3.439679999999999960e-01 4.023309999999999942e-01 -3.111079999999999957e-01
5.344079999999999941e-01 -1.835080000000000044e-01 -2.747580000000000022e-01
8.078419999999999490e-01 2.814789999999999792e-01 -4.996240000000000125e-01
-4.643720000000000070e-01 -4.778400000000000009e-02 -3.828509999999999969e-01
1.603940000000000088e-01 7.982270000000000199e-01 -5.382339999999999902e-01
2.309630000000000016e-01 7.302530000000000410e-01 3.237400000000000277e-01
-1.941740000000000133e-01 -8.524059999999999970e-01 4.605440000000000089e-01
6.009649999999999714e-01 5.281740000000000324e-01 -5.743939999999999602e-01
-2.953330000000000122e-01 -3.309200000000000336e-02 5.268530000000000157e-01
-7.153639999999999999e-01 -1.263309999999999989e-01 -6.494280000000000053e-01
-7.802000000000000601e-02 -6.759659999999999558e-01 -1.273930000000000062e-01
-5.247089999999999810e-01 -2.328989999999999949e-01 1.911549999999999916e-01
-5.319120000000000514e-01 5.925400000000000111e-02 2.716060000000000141e-01
-4.526700000000000168e-02 -9.676719999999999766e-01 -2.145229999999999915e-01
1.952160000000000006e-01 3.544990000000000085e-01 8.456439999999999513e-01
-2.631990000000000163e-01 -9.525609999999999911e-01 3.304399999999999699e-02
-1.851359999999999950e-01 3.437040000000000095e-01 5.595329999999999471e-01
-2.480279999999999985e-01 -1.871700000000000100e-02 9.450979999999999936e-01
8.997389999999999555e-01 9.653499999999999581e-02 -4.092210000000000014e-01
3.124310000000000143e-01 8.537240000000000384e-01 -3.587650000000000006e-01
-6.149099999999999566e-01 1.121940000000000021e-01 1.617439999999999989e-01
-1.567129999999999912e-01 3.941069999999999851e-01 7.499219999999999775e-01
-1.888859999999999983e-01 -8.751929999999999987e-01 4.192560000000000175e-01
3.799520000000000119e-01 9.000299999999999967e-01 -6.768999999999999843e-03
-1.180969999999999936e-01 6.934109999999999996e-01 -6.433649999999999647e-01
-5.771439999999999904e-01 1.567999999999999949e-02 1.619160000000000044e-01
-2.050250000000000128e-01 -5.451789999999999692e-01 2.051649999999999863e-01
-2.829389999999999961e-01 -4.536729999999999929e-01 3.022670000000000079e-01
3.341700000000000226e-02 -6.160550000000000193e-01 9.814599999999999713e-02
-5.480120000000000546e-01 -6.097129999999999495e-01 -1.246339999999999948e-01
-4.595699999999999785e-01 -3.459720000000000018e-01 -2.017500000000000127e-01
-1.454850000000000032e-01 7.861749999999999572e-01 5.060970000000000191e-01
8.349790000000000267e-01 -5.451679999999999859e-01 6.080399999999999694e-02
-3.543789999999999996e-01 -1.607059999999999877e-01 -7.746979999999999977e-01
-5.178939999999999655e-01 -3.151749999999999829e-01 3.671300000000000258e-02
-4.083519999999999928e-01 1.044149999999999939e-01 -8.809679999999999733e-01
4.474949999999999761e-01 8.652720000000000411e-01 9.131200000000000427e-02
1.145349999999999979e-01 1.014369999999999994e-01 9.691260000000000430e-01
-1.092609999999999970e-01 4.146349999999999758e-01 -4.260999999999999788e-01
-7.705790000000000139e-01 -5.119050000000000544e-01 3.130450000000000177e-01
-6.424100000000000643e-02 -9.595489999999999853e-01 -2.432290000000000008e-01
-8.743589999999999973e-01 1.276100000000000012e-01 -3.978949999999999987e-01
2.187709999999999932e-01 1.859780000000000044e-01 8.854520000000000168e-01
9.867010000000000502e-01 -1.960599999999999843e-02 1.292030000000000123e-01
4.709929999999999950e-01 4.242460000000000120e-01 1.472999999999999865e-01
-2.386299999999999880e-02 -9.312789999999999679e-01 3.392669999999999852e-01
-2.058460000000000012e-01 -1.876790000000000125e-01 9.393010000000000526e-01
6.164169999999999927e-01 4.261940000000000173e-01 -6.412790000000000434e-01
-9.421499999999999320e-02 7.032800000000000162e-02 5.968329999999999469e-01
-1.870699999999999863e-01 3.388519999999999865e-01 4.817509999999999848e-01
1.981809999999999961e-01 5.765839999999999854e-01 3.764910000000000201e-01
6.775699999999999779e-02 -7.131099999999999939e-02 6.065319999999999601e-01
3.093090000000000006e-01 -8.804380000000000539e-01 -1.973370000000000124e-01
-2.250189999999999968e-01 -9.362190000000000234e-01 2.258890000000000065e-01
7.186369999999999703e-01 3.197949999999999959e-01 1.312969999999999970e-01
5.624699999999999839e-02 -9.436449999999999561e-01 3.031499999999999750e-01
3.593850000000000100e-01 -8.613290000000000113e-01 2.022019999999999929e-01
7.736870000000000136e-01 -6.255840000000000289e-01 9.183700000000000196e-02
-6.802650000000000086e-01 -1.182070000000000065e-01 6.857560000000000322e-01
-7.969730000000000425e-01 -3.438610000000000277e-01 4.422289999999999832e-01
5.283560000000000478e-01 2.075929999999999997e-01 -2.542579999999999840e-01
-4.096969999999999779e-01 -2.636490000000000222e-01 3.642889999999999739e-01
1.100379999999999969e-01 -1.002320000000000016e-01 -6.003209999999999935e-01
-2.944910000000000028e-01 -8.141960000000000308e-01 4.725809999999999733e-01
1.192079999999999945e-01 -1.559679999999999955e-01 -9.666479999999999517e-01
3.789259999999999851e-01 8.309299999999999464e-01 1.893660000000000065e-01
-4.707999999999999685e-02 9.447060000000000457e-01 -2.191619999999999957e-01
9.243099999999999927e-02 -6.096359999999999557e-01 1.049100000000000033e-01
-9.505200000000000315e-01 5.630299999999999888e-02 -1.770940000000000014e-01
9.884739999999999638e-01 -5.345199999999999951e-02 -1.089040000000000008e-01
5.328200000000000297e-02 -1.450069999999999970e-01 -7.167109999999999870e-01
4.168589999999999796e-01 -5.206899999999999862e-01 1.695460000000000023e-01
-8.871999999999999886e-01 -3.986910000000000176e-01 -5.952199999999999852e-02
5.938280000000000225e-01 4.822560000000000180e-01 1.233350000000000002e-01
7.148069999999999702e-01 6.307899999999999618e-01 -2.488059999999999994e-01
-1.689539999999999931e-01 9.366309999999999913e-01 1.815319999999999989e-01
7.271959999999999535e-01 6.455089999999999995e-01 -1.568859999999999977e-01
1.492370000000000085e-01 -7.157670000000000421e-01 5.035230000000000539e-01
-1.272500000000000020e-02 -2.533610000000000029e-01 -9.354590000000000405e-01
-2.866759999999999864e-01 -1.350020000000000109e-01 -6.467990000000000128e-01
7.241619999999999724e-01 3.640000000000000180e-02 -6.771740000000000537e-01
-1.742329999999999990e-01 8.459959999999999702e-01 3.827479999999999771e-01
-8.042540000000000244e-01 -4.187850000000000183e-01 -1.702849999999999919e-01
6.056399999999999562e-01 -5.896190000000000042e-01 1.234429999999999972e-01
1.578229999999999911e-01 7.270069999999999588e-01 4.706279999999999908e-01
1.213069999999999982e-01 -4.997340000000000115e-01 3.526540000000000230e-01
2.800599999999999964e-02 1.742100000000000037e-01 5.838989999999999458e-01
-1.103699999999999959e-01 5.777520000000000433e-01 -4.828580000000000094e-01
9.820579999999999865e-01 3.068900000000000100e-02 -1.575000000000000011e-01
-4.084200000000000330e-02 1.353810000000000013e-01 -9.704669999999999686e-01
8.419400000000000495e-02 -6.553639999999999466e-01 7.368230000000000057e-01
6.413299999999999557e-01 7.417280000000000539e-01 5.856999999999999706e-02
5.968919999999999781e-01 -1.413770000000000027e-01 -5.351609999999999978e-01
5.583000000000000289e-03 -1.634940000000000004e-01 -7.815250000000000252e-01
1.519780000000000020e-01 5.255779999999999896e-01 2.613539999999999752e-01
-1.131410000000000055e-01 6.572480000000000544e-01 -5.121250000000000524e-01
-1.467940000000000078e-01 -1.897379999999999900e-01 9.513059999999999850e-01
-8.528600000000000070e-02 1.584520000000000095e-01 -9.628929999999999989e-01
8.506590000000000540e-01 -3.791880000000000250e-01 1.766459999999999975e-01
1.119509999999999950e-01 -5.801200000000000107e-02 9.748339999999999783e-01
-2.160899999999999974e-02 -1.244040000000000007e-01 -6.028259999999999730e-01
4.122300000000000270e-02 9.454479999999999551e-01 -2.228239999999999943e-01
-6.814069999999999849e-01 -2.906200000000000103e-02 -6.950889999999999569e-01
-6.042520000000000113e-01 1.125479999999999953e-01 4.413290000000000268e-01
-5.698229999999999684e-01 8.395500000000000185e-02 -7.858770000000000477e-01
-1.800779999999999881e-01 8.167399999999999660e-02 5.729499999999999593e-01
-3.803299999999999736e-02 -9.848489999999999744e-01 -1.174449999999999938e-01
6.862300000000000066e-01 7.040440000000000031e-01 -2.525399999999999867e-02
-1.741300000000000139e-02 -2.204830000000000123e-01 -9.603739999999999499e-01
5.046690000000000342e-01 -3.507160000000000277e-01 -1.385470000000000035e-01
3.686670000000000225e-01 2.847250000000000059e-01 -8.674859999999999793e-01
9.054680000000000506e-01 -3.902149999999999785e-01 -1.588370000000000060e-01
-1.557679999999999898e-01 3.991020000000000123e-01 -6.054869999999999974e-01
6.226220000000000088e-01 -5.722100000000000103e-02 -7.699920000000000098e-01
-3.190640000000000143e-01 -7.970900000000000207e-02 9.196210000000000218e-01
3.624689999999999857e-01 4.535049999999999915e-01 1.959750000000000103e-01
-8.322129999999999805e-01 -1.027399999999999980e-01 4.899240000000000261e-01
3.232110000000000261e-01 4.867650000000000032e-01 1.796020000000000116e-01
8.468050000000000299e-01 -5.202590000000000270e-01 -1.022330000000000044e-01
-8.201000000000000512e-01 -5.299639999999999906e-01 -3.610300000000000314e-02
-4.730889999999999818e-01 -3.272000000000000169e-03 3.716599999999999904e-01
-8.185580000000000078e-01 -3.775569999999999760e-01 -1.914339999999999931e-01
-5.285239999999999938e-01 -7.908479999999999954e-01 2.498199999999999865e-01
-4.003479999999999817e-01 1.405760000000000065e-01 -4.281119999999999925e-01
1.934659999999999991e-01 9.533909999999999885e-01 3.503200000000000064e-02
2.111629999999999896e-01 -4.866099999999999870e-01 3.525539999999999785e-01
7.918009999999999771e-01 4.317989999999999884e-01 1.503240000000000132e-01
-2.030300000000000160e-02 -1.051600000000000035e-01 6.045620000000000438e-01
-2.108700000000000158e-02 6.605659999999999865e-01 -7.173519999999999897e-01
1.653630000000000100e-01 -4.820729999999999738e-01 8.469010000000000149e-01
-1.797660000000000091e-01 -3.684400000000000175e-02 -9.637900000000000356e-01
3.435759999999999925e-01 1.256900000000000031e-02 -5.172759999999999581e-01
7.654689999999999550e-01 3.798969999999999847e-01 -4.966949999999999976e-01
8.674969999999999626e-01 -2.211760000000000115e-01 -3.371250000000000080e-01
1.423180000000000001e-01 5.234490000000000531e-01 2.702499999999999902e-01
-6.915299999999999780e-01 -2.300359999999999905e-01 6.465130000000000043e-01
-6.079200000000000159e-01 -7.712339999999999751e-01 2.538100000000000078e-02
9.637210000000000498e-01 -2.010250000000000092e-01 1.577119999999999911e-01
9.148659999999999570e-01 -3.011980000000000213e-01 -2.471270000000000133e-01
5.482920000000000016e-01 2.913000000000000034e-01 -7.673759999999999470e-01
2.715609999999999968e-01 -9.366489999999999538e-01 -2.038049999999999862e-01
9.829630000000000312e-01 -3.672999999999999876e-02 -1.550980000000000136e-01
-3.309429999999999872e-01 1.927270000000000094e-01 -7.087590000000000279e-01
-1.847209999999999963e-01 3.434470000000000023e-01 -5.429789999999999894e-01
7.957300000000000484e-01 -4.835240000000000093e-01 -1.456709999999999949e-01
7.993230000000000057e-01 5.598490000000000411e-01 1.461050000000000126e-01
2.957469999999999821e-01 5.190329999999999666e-01 -7.783369999999999456e-01
1.880179999999999907e-01 -2.167570000000000052e-01 9.432380000000000209e-01
-1.399479999999999891e-01 8.743499999999999883e-02 -5.866489999999999760e-01
-1.606130000000000058e-01 -5.463900000000000423e-01 2.402980000000000116e-01
-6.554090000000000193e-01 -6.395960000000000534e-01 3.495369999999999866e-01
-2.794299999999999909e-02 6.990779999999999772e-01 -6.785219999999999585e-01
1.364080000000000015e-01 -4.231200000000000239e-02 5.997339999999999893e-01
2.503679999999999795e-01 4.971419999999999728e-01 2.471470000000000056e-01
3.355420000000000069e-01 1.375159999999999993e-01 -9.170800000000000063e-01
-1.058189999999999964e-01 -6.120339999999999669e-01 1.795799999999999827e-02
1.678020000000000067e-01 2.118690000000000018e-01 7.854229999999999823e-01
5.344219999999999526e-01 -4.427309999999999857e-01 1.308789999999999953e-01
5.913209999999999855e-01 1.687200000000000089e-01 9.734099999999999697e-02
6.911589999999999678e-01 6.478040000000000465e-01 -2.674659999999999815e-01
2.163170000000000093e-01 -5.087709999999999733e-01 3.447299999999999809e-01
1.405689999999999995e-01 6.311029999999999696e-01 6.727619999999999711e-01
-8.648850000000000149e-01 -2.724260000000000015e-01 3.518000000000000016e-01
-2.651620000000000088e-01 -1.421870000000000078e-01 9.304810000000000025e-01
3.108099999999999752e-01 -5.458790000000000031e-01 -1.310739999999999961e-01
-1.355600000000000034e-02 -5.661490000000000133e-01 2.565589999999999815e-01
1.521710000000000007e-01 -2.190960000000000130e-01 -9.508280000000000065e-01
-1.528889999999999971e-01 9.482030000000000181e-01 -1.316019999999999968e-01
2.993069999999999897e-01 -7.571670000000000345e-01 2.488440000000000096e-01
-9.148800000000000265e-01 -2.525120000000000142e-01 -2.121180000000000010e-01
5.949290000000000411e-01 7.559200000000000363e-01 1.237520000000000009e-01
-3.599959999999999827e-01 -8.522199999999999775e-01 -1.800289999999999946e-01
-1.090359999999999940e-01 4.883919999999999928e-01 3.332240000000000202e-01
-1.489189999999999958e-01 7.951939999999999564e-01 -5.337049999999999850e-01
-3.881080000000000085e-01 -1.087270000000000042e-01 8.893929999999999891e-01
-6.616009999999999946e-01 1.160960000000000047e-01 3.166559999999999930e-01
1.027290000000000009e-01 -3.696059999999999901e-01 9.089310000000000445e-01
3.351999999999999980e-01 9.106030000000000513e-01 1.108380000000000060e-01
1.474419999999999897e-01 4.390189999999999926e-01 5.096950000000000092e-01
2.326719999999999899e-01 5.116359999999999797e-01 -2.349759999999999904e-01
-1.440269999999999884e-01 1.977059999999999929e-01 -5.558889999999999665e-01
-2.426049999999999873e-01 -9.582340000000000302e-01 -4.151900000000000035e-02
-6.449120000000000408e-01 -1.371499999999999941e-01 -5.633110000000000062e-01
7.775859999999999994e-01 -6.278510000000000479e-01 -7.080000000000000356e-03
1.661030000000000006e-01 5.830990000000000339e-01 -2.779999999999999811e-04
2.897150000000000003e-01 -5.215659999999999741e-01 1.960290000000000088e-01
4.149769999999999848e-01 -1.425790000000000113e-01 -8.877509999999999568e-01
1.367400000000000004e-01 7.783199999999999841e-02 -9.716609999999999969e-01
-3.249719999999999831e-01 1.971999999999999864e-01 -8.719360000000000444e-01
-9.264600000000000612e-02 -6.435750000000000082e-01 7.425059999999999993e-01
6.161300000000000110e-02 7.590329999999999577e-01 6.064650000000000318e-01
1.121820000000000039e-01 9.626289999999999569e-01 -8.592400000000000038e-02
-8.076400000000000245e-01 -3.299770000000000203e-01 4.329069999999999863e-01
7.206519999999999593e-01 3.416399999999999992e-02 -6.811369999999999925e-01
1.531929999999999958e-01 5.858299999999999619e-01 8.661000000000000296e-03
-7.283460000000000489e-01 1.290229999999999988e-01 -1.188879999999999937e-01
-4.969959999999999933e-01 -1.535509999999999931e-01 -7.525410000000000155e-01
-2.288439999999999919e-01 -5.698079999999999812e-01 6.998000000000000054e-02
-2.752149999999999874e-01 2.357529999999999903e-01 5.106249999999999956e-01
-7.647900000000000531e-02 4.790989999999999971e-01 -8.480499999999999705e-01
5.066249999999999920e-01 -7.052829999999999933e-01 -1.313479999999999925e-01
8.968720000000000026e-01 -1.676000000000000059e-02 -4.297849999999999726e-01
1.780039999999999956e-01 -2.010400000000000034e-02 -9.693840000000000234e-01
9.783640000000000114e-01 -1.887540000000000051e-01 -3.373299999999999910e-02
-4.940999999999999837e-01 -2.246670000000000056e-01 2.684869999999999757e-01
-7.895229999999999748e-01 -5.138009999999999522e-01 -1.374640000000000029e-01
9.766479999999999606e-01 5.978100000000000080e-02 1.757279999999999953e-01
3.014830000000000010e-01 3.568330000000000113e-01 -8.647099999999999786e-01
7.150009999999999977e-01 1.986469999999999902e-01 1.306009999999999949e-01
5.632409999999999917e-01 7.799699999999999689e-02 -2.566260000000000208e-01
-9.603120000000000545e-01 -9.284900000000000098e-02 -9.520199999999999496e-02
-3.845509999999999762e-01 -7.051000000000000323e-02 4.610469999999999846e-01
1.382760000000000100e-01 5.710250000000000048e-01 6.508380000000000276e-01
5.423480000000000523e-01 6.310559999999999503e-01 1.294170000000000043e-01
1.638709999999999889e-01 -2.470529999999999948e-01 7.745140000000000358e-01
-3.082679999999999865e-01 -1.509679999999999911e-01 -7.430449999999999555e-01
-5.643899999999999473e-01 -6.388629999999999587e-01 4.847150000000000070e-01
-1.162939999999999946e-01 -4.041120000000000267e-01 4.505959999999999965e-01
2.734750000000000236e-01 -7.574539999999999607e-01 2.725369999999999737e-01
-1.885580000000000034e-01 -2.362990000000000090e-01 5.318040000000000544e-01
2.827970000000000206e-01 -1.784660000000000135e-01 -8.197349999999999914e-01
-1.431590000000000085e-01 -8.413199999999999845e-02 -5.904869999999999841e-01
2.448490000000000111e-01 6.973840000000000039e-01 3.054109999999999880e-01
-9.537780000000000147e-01 -1.234689999999999954e-01 -1.284210000000000074e-01
1.031090000000000062e-01 -7.946619999999999795e-01 5.841610000000000413e-01
4.002700000000000008e-02 8.036649999999999627e-01 -5.490140000000000020e-01
3.417379999999999862e-01 8.991710000000000536e-01 -1.682329999999999937e-01
-6.945099999999999885e-02 -9.268279999999999852e-01 3.435289999999999733e-01
-4.959600000000000120e-01 -8.379969999999999919e-01 1.439060000000000061e-01
-6.143799999999999956e-02 4.497820000000000151e-01 -8.652549999999999963e-01
-8.878470000000000528e-01 -3.698049999999999948e-01 1.514900000000000135e-01
2.855699999999999905e-02 -5.814920000000000089e-01 2.220219999999999971e-01
-6.200419999999999821e-01 -3.358309999999999906e-01 -2.191879999999999939e-01
4.080340000000000078e-01 4.892420000000000102e-01 1.740700000000000025e-01
9.900750000000000384e-01 2.903199999999999878e-02 9.407000000000000084e-02
4.401100000000000151e-02 -6.234450000000000269e-01 9.107000000000000511e-03
-1.671370000000000078e-01 -3.814620000000000233e-01 4.524810000000000221e-01
2.510000000000000009e-01 9.408199999999999896e-01 -2.850799999999999862e-02
4.497789999999999844e-01 3.407479999999999953e-01 -8.076200000000000045e-01
-4.939549999999999774e-01 9.178999999999999659e-03 -8.420549999999999979e-01
8.247980000000000311e-01 -3.156070000000000264e-01 -2.339600000000000013e-01
6.503799999999999859e-02 2.976050000000000084e-01 9.301599999999999868e-01
1.658930000000000127e-01 -5.812669999999999781e-01 4.474469999999999836e-01
-7.027870000000000505e-01 1.228159999999999946e-01 -3.490000000000000047e-03
-6.944970000000000310e-01 1.209849999999999953e-01 -5.561699999999999977e-02
-5.359350000000000502e-01 1.166910000000000031e-01 6.207139999999999880e-01
8.761280000000000179e-01 4.155880000000000130e-01 -1.963799999999999990e-01
-5.630249999999999977e-01 -1.758699999999999986e-01 7.763020000000000476e-01
2.272329999999999905e-01 -7.522339999999999582e-01 3.287909999999999999e-01
-2.135140000000000093e-01 -5.786689999999999889e-01 4.775599999999999984e-02
-7.774560000000000359e-01 1.448979999999999990e-01 1.646940000000000071e-01
1.761999999999999894e-03 9.510490000000000332e-01 1.986279999999999990e-01
-5.937149999999999928e-01 -2.260020000000000084e-01 7.398770000000000069e-01
-1.836319999999999897e-01 3.101039999999999908e-01 -4.853279999999999816e-01
3.451739999999999808e-01 4.635560000000000236e-01 -2.037609999999999977e-01
5.461510000000000531e-01 1.237329999999999958e-01 -8.151829999999999909e-01
1.798170000000000046e-01 -6.841399999999999704e-01 4.118769999999999931e-01
6.727119999999999767e-01 4.136779999999999902e-01 1.243319999999999981e-01
1.913370000000000071e-01 2.649520000000000208e-01 -5.186100000000000154e-01
5.154579999999999718e-01 2.982060000000000266e-01 -7.866079999999999739e-01
1.238700000000000044e-02 -9.795089999999999630e-01 -1.636940000000000062e-01
-1.739640000000000075e-01 -3.832169999999999743e-01 8.880869999999999598e-01
4.948710000000000053e-01 5.276830000000000132e-01 1.408560000000000090e-01
-7.616000000000000374e-03 9.671650000000000524e-01 -8.737000000000000322e-02
5.221120000000000205e-01 5.543930000000000247e-01 -6.221600000000000463e-01
-4.908139999999999725e-01 1.243859999999999966e-01 3.948019999999999863e-01
-8.829609999999999959e-01 2.015990000000000004e-01 1.195700000000000061e-02
-7.162539999999999463e-01 -3.581090000000000106e-01 -2.033929999999999905e-01
5.891570000000000418e-01 -1.631599999999999995e-01 -1.475760000000000127e-01
9.877550000000000496e-01 1.073199999999999987e-01 2.785299999999999929e-02
-9.170230000000000325e-01 -1.457779999999999909e-01 -2.850249999999999728e-01
5.895080000000000320e-01 1.839280000000000082e-01 -8.409899999999999320e-02
1.587739999999999985e-01 -3.283340000000000147e-01 9.167030000000000456e-01
6.409000000000000252e-01 7.410689999999999777e-01 -7.074099999999999833e-02
-6.985599999999999588e-01 -1.365240000000000065e-01 -6.653139999999999610e-01
-2.785369999999999790e-01 -3.340509999999999868e-01 4.309600000000000097e-01
2.300850000000000117e-01 -9.555590000000000472e-01 1.566710000000000047e-01
-2.925679999999999947e-01 -1.598910000000000053e-01 5.082489999999999508e-01
7.336529999999999996e-01 4.356849999999999890e-01 -4.968319999999999959e-01
7.562980000000000258e-01 2.999260000000000259e-01 -5.633839999999999959e-01
8.070300000000000251e-01 -3.065550000000000219e-01 -2.422209999999999919e-01
9.666639999999999677e-01 1.995250000000000079e-01 1.057460000000000067e-01
4.121989999999999821e-01 4.190780000000000061e-01 -1.792199999999999904e-01
-5.317840000000000344e-01 -8.041120000000000489e-01 1.941620000000000013e-01
2.284839999999999927e-01 9.407210000000000294e-01 1.082790000000000002e-01
-3.919079999999999786e-01 -4.701319999999999943e-01 -2.955599999999999894e-02
-4.496350000000000069e-01 -2.236640000000000017e-01 3.404710000000000236e-01
-5.488939999999999930e-01 -1.122120000000000062e-01 -2.223209999999999908e-01
-4.108500000000000346e-02 -6.104629999999999779e-01 -1.211150000000000004e-01
6.296730000000000382e-01 -1.408470000000000000e-01 -5.339690000000000270e-01
1.080839999999999995e-01 -6.115000000000000296e-02 -6.050400000000000222e-01
-5.975559999999999761e-01 -2.157959999999999878e-01 -3.453709999999999836e-01
-2.466009999999999869e-01 -9.178190000000000515e-01 2.719659999999999855e-01
-1.142930000000000057e-01 1.211160000000000014e-01 9.634350000000000414e-01
-5.144520000000000204e-01 -6.763200000000000323e-01 4.917549999999999977e-01
1.365109999999999935e-01 4.129840000000000177e-01 -8.783609999999999474e-01
-3.964889999999999803e-01 1.566049999999999942e-01 -6.023119999999999585e-01
8.414369999999999905e-01 -2.345859999999999890e-01 1.726260000000000017e-01
-1.936070000000000013e-01 -1.351839999999999986e-01 -5.855609999999999982e-01
-6.708960000000000479e-01 -3.814239999999999853e-01 -1.894180000000000030e-01
9.664369999999999905e-01 -2.050450000000000050e-01 -1.378880000000000106e-01
-8.537000000000000144e-02 -2.455380000000000063e-01 -9.496280000000000276e-01
-9.176649999999999530e-01 -2.202189999999999981e-01 2.321769999999999945e-01
-9.275130000000000319e-01 -2.833640000000000048e-01 -7.677799999999999903e-02
9.778700000000000170e-01 1.261249999999999871e-01 -1.260110000000000119e-01
7.854200000000000070e-01 -4.488530000000000020e-01 1.481069999999999887e-01
-4.939069999999999849e-01 1.239269999999999955e-01 4.314669999999999894e-01
-8.844399999999999484e-02 -7.271999999999999575e-01 -1.351469999999999894e-01
5.863420000000000298e-01 -9.669400000000000217e-02 -7.940970000000000528e-01
-7.827180000000000248e-01 -5.859699999999999909e-01 7.688000000000000389e-03
-3.557879999999999932e-01 -9.165200000000000014e-01 9.012499999999999678e-02
-7.835100000000000398e-02 -2.777599999999999861e-02 9.768569999999999753e-01
-8.087800000000000544e-02 -9.578729999999999745e-01 -2.441609999999999892e-01
-4.249809999999999977e-01 1.452410000000000090e-01 -6.280419999999999892e-01
4.985330000000000039e-01 -1.361199999999999910e-01 -5.760629999999999917e-01
3.281549999999999745e-01 5.145729999999999471e-01 2.161199999999999927e-02
-2.967839999999999923e-01 1.251079999999999970e-01 -9.230509999999999549e-01
-5.639399999999999968e-02 7.801379999999999981e-01 -5.790960000000000552e-01
-3.245250000000000079e-01 -7.691550000000000331e-01 5.237140000000000128e-01
-5.293459999999999832e-01 -2.895559999999999801e-01 5.598999999999999810e-02
-4.653070000000000261e-01 -1.416360000000000119e-01 -5.331630000000000535e-01
-2.635419999999999985e-01 -4.418590000000000018e-01 3.365719999999999823e-01
-4.051500000000000240e-02 -1.000599999999999927e-02 -9.819290000000000518e-01
5.473999999999999977e-01 1.339500000000000066e-02 -3.014299999999999757e-01
-3.439869999999999872e-01 -9.012529999999999708e-01 2.097930000000000073e-01
-5.562289999999999734e-01 -7.661510000000000264e-01 -1.457610000000000017e-01
5.687510000000000066e-01 -2.831279999999999908e-01 1.260010000000000019e-01
-1.969359999999999999e-01 -5.510389999999999455e-01 1.990159999999999985e-01
4.403800000000000076e-02 2.912159999999999749e-01 5.317490000000000272e-01
4.223959999999999937e-01 4.645130000000000092e-01 1.667119999999999991e-01
4.995859999999999745e-01 -7.262389999999999679e-01 1.393669999999999909e-01
8.078159999999999785e-01 6.687600000000000489e-02 -5.732150000000000301e-01
1.708000000000000143e-02 7.153140000000000054e-01 6.597340000000000426e-01
5.313330000000000553e-01 -3.212500000000000078e-02 -8.353460000000000329e-01
3.655539999999999901e-01 -6.398120000000000474e-01 1.977980000000000016e-01
-2.928100000000000147e-02 -9.811229999999999674e-01 -1.476639999999999897e-01
-5.240500000000000019e-02 4.101099999999999746e-01 8.834260000000000446e-01
1.376050000000000051e-01 -3.552480000000000082e-01 6.317000000000000393e-01
2.183879999999999988e-01 5.619429999999999703e-01 -7.717300000000000271e-01
-1.110600000000000059e-01 6.316399999999999793e-01 7.108250000000000401e-01
-3.159859999999999891e-01 -4.101569999999999938e-01 3.283380000000000187e-01
1.367649999999999977e-01 9.507999999999999785e-02 5.955669999999999575e-01
5.534010000000000318e-01 -1.639319999999999944e-01 -2.480819999999999970e-01
1.171119999999999939e-01 4.242890000000000272e-01 8.730489999999999640e-01
-4.821239999999999970e-01 -7.281539999999999679e-01 4.506549999999999723e-01
3.081050000000000177e-01 -8.843509999999999982e-01 2.408289999999999875e-01
1.475140000000000062e-01 5.123600000000000376e-01 7.163079999999999448e-01
2.340679999999999983e-01 5.358370000000000077e-01 1.665709999999999968e-01
-5.458229999999999471e-01 7.156899999999999373e-02 -8.043169999999999487e-01
9.403629999999999489e-01 -4.085799999999999849e-02 2.354080000000000061e-01
-3.344150000000000178e-01 3.447000000000000064e-02 9.161359999999999504e-01
-7.797659999999999592e-01 1.462150000000000116e-01 1.135349999999999970e-01
-3.695359999999999756e-01 1.700389999999999957e-01 -8.389459999999999695e-01
-1.106649999999999995e-01 9.040310000000000290e-01 -3.358869999999999911e-01
-4.834010000000000251e-01 -2.769969999999999932e-01 -2.437819999999999987e-01
-1.105440000000000034e-01 5.890379999999999505e-01 1.741439999999999932e-01
-9.218279999999999808e-01 2.317599999999999938e-01 1.316070000000000018e-01
5.315379999999999550e-01 2.692370000000000041e-01 -1.703820000000000057e-01
4.694799999999999668e-02 -6.051800000000000512e-01 7.802750000000000519e-01
-9.440159999999999663e-01 1.712519999999999876e-01 -1.222759999999999958e-01
5.373900000000000204e-02 -2.388750000000000040e-01 -9.556499999999999995e-01
4.551069999999999838e-01 -5.837869999999999449e-01 1.538920000000000010e-01
6.240099999999999536e-01 4.758000000000000007e-01 1.222329999999999944e-01
9.504449999999999843e-01 1.428840000000000110e-01 2.428680000000000005e-01
-1.328070000000000084e-01 4.537070000000000269e-01 5.074750000000000094e-01
3.786570000000000213e-01 8.117140000000000466e-01 -3.937519999999999909e-01
-4.928230000000000111e-01 -1.347049999999999914e-01 -6.302379999999999649e-01
-1.349289999999999934e-01 -6.039349999999999996e-01 -5.217000000000000109e-02
8.687970000000000415e-01 3.732849999999999779e-01 -2.929350000000000009e-01
5.391219999999999901e-01 -3.255890000000000173e-01 -2.272679999999999978e-01
3.407629999999999826e-01 -9.254930000000000101e-01 -1.467819999999999958e-01
7.646239999999999704e-01 -1.064920000000000033e-01 -6.264370000000000216e-01
-9.201610000000000067e-01 -2.358830000000000093e-01 -2.074139999999999873e-01
-1.487749999999999906e-01 1.450649999999999995e-01 9.543460000000000276e-01
2.421590000000000131e-01 9.128389999999999560e-01 -2.426319999999999866e-01
2.692669999999999786e-01 7.169539999999999802e-01 -6.085610000000000186e-01
-5.959560000000000413e-01 -7.788000000000000478e-02 7.091000000000000081e-03
-9.240249999999999853e-01 -2.788799999999999960e-02 2.913319999999999799e-01
5.018890000000000295e-01 8.340819999999999901e-01 1.079809999999999937e-01
-3.158400000000000096e-01 -5.471530000000000005e-01 7.529169999999999474e-01
-4.116000000000000214e-02 8.355200000000000127e-02 9.747679999999999678e-01
-4.522600000000000231e-02 -9.039999999999999425e-02 -6.064159999999999551e-01
-6.125669999999999726e-01 -4.633030000000000204e-01 6.055169999999999719e-01
-6.914499999999999813e-02 -3.295210000000000083e-01 9.242449999999999832e-01
-9.408659999999999801e-01 -2.306699999999999862e-01 6.840200000000000446e-02
-5.908039999999999958e-01 1.125730000000000064e-01 7.533060000000000311e-01
-6.846799999999999553e-01 -6.932380000000000209e-01 1.061430000000000012e-01
4.401200000000000251e-02 -1.418089999999999906e-01 -7.031230000000000535e-01
8.531020000000000270e-01 -2.198589999999999989e-01 1.773969999999999991e-01
-5.572099999999999831e-01 1.143210000000000059e-01 5.992309999999999581e-01
1.794240000000000002e-01 4.788319999999999799e-01 8.133770000000000167e-01
-1.758699999999999986e-01 -1.186180000000000012e-01 -5.747170000000000334e-01
-2.726810000000000067e-01 -5.043399999999999966e-02 -9.396809999999999885e-01
-9.258140000000000258e-01 -2.966969999999999885e-01 1.375600000000000087e-02
4.513300000000000090e-01 -7.219619999999999926e-01 1.552890000000000104e-01
1.374479999999999869e-01 -2.064120000000000121e-01 6.390759999999999774e-01
-7.940439999999999721e-01 1.521470000000000045e-01 -2.734639999999999849e-01
-1.470569999999999933e-01 8.504289999999999905e-01 -4.447840000000000127e-01
-1.109180000000000027e-01 6.351769999999999916e-01 4.059659999999999935e-01
-8.005149999999999766e-01 -5.556720000000000548e-01 -8.044600000000000362e-02
-9.148410000000000153e-01 -9.014800000000000590e-02 3.098119999999999763e-01
-3.650519999999999876e-01 -7.461480000000000334e-01 -1.397559999999999913e-01
-3.567250000000000143e-01 -3.861430000000000140e-01 8.279840000000000533e-01
-2.891130000000000089e-01 -5.443860000000000365e-01 4.193999999999999811e-03
-3.475090000000000123e-01 -2.683360000000000190e-01 8.756650000000000267e-01
8.322840000000000238e-01 4.774280000000000190e-01 -2.383129999999999971e-01
5.793160000000000531e-01 -2.088299999999999879e-02 -2.391600000000000115e-01
-7.811099999999999710e-01 1.469449999999999923e-01 -3.612100000000000033e-02
-4.948879999999999946e-01 -6.362999999999999733e-03 8.389689999999999648e-01
-5.167629999999999724e-01 1.194159999999999944e-01 3.182490000000000041e-01
-6.477169999999999872e-01 -7.372130000000000072e-01 -2.091700000000000156e-02
-8.010880000000000223e-01 -2.610190000000000010e-01 4.873239999999999794e-01
-2.154050000000000131e-01 9.067579999999999529e-01 1.453210000000000057e-01
2.760029999999999983e-01 -3.509400000000000019e-02 -5.552439999999999598e-01
-5.463879999999999848e-01 -7.105150000000000077e-01 4.012850000000000028e-01
-9.463470000000000493e-01 1.077499999999999986e-02 2.073409999999999975e-01
-7.893930000000000113e-01 -5.770159999999999734e-01 -2.221700000000000064e-02
8.212930000000000508e-01 -5.677959999999999674e-01 -4.154999999999999666e-02
7.883550000000000280e-01 -1.640330000000000121e-01 -4.479270000000000196e-01
7.105409999999999782e-01 1.208439999999999931e-01 -6.805470000000000130e-01
1.451439999999999952e-01 -2.061999999999999944e-01 -8.706190000000000317e-01
2.760839999999999961e-01 -6.545579999999999732e-01 2.714150000000000174e-01
-2.046469999999999956e-01 8.935039999999999649e-01 -1.052690000000000015e-01
-5.951499999999999846e-02 5.078930000000000389e-01 -8.317649999999999766e-01
6.112790000000000168e-01 -4.675599999999999895e-02 -1.344190000000000107e-01
-5.224910000000000387e-01 -1.768750000000000044e-01 2.466309999999999891e-01
-2.699529999999999985e-01 -1.602280000000000093e-01 -7.723149999999999737e-01
2.748600000000000002e-02 8.512920000000000487e-01 -4.708979999999999833e-01
-4.003419999999999757e-01 -6.298390000000000377e-01 -1.246300000000000047e-01
-1.429449999999999887e-01 7.794959999999999667e-01 -6.086699999999999749e-02
-6.066019999999999746e-01 -5.896839999999999860e-01 4.936510000000000065e-01
1.377790000000000126e-01 -4.269879999999999787e-01 5.811560000000000059e-01
-2.789440000000000253e-01 9.448099999999999554e-02 -5.293470000000000120e-01
2.022950000000000026e-01 -9.515419999999999989e-01 2.094479999999999953e-01
3.943099999999999938e-01 -4.635940000000000061e-01 1.813359999999999972e-01
1.425309999999999910e-01 4.027499999999999830e-02 6.887149999999999661e-01
4.113040000000000029e-01 -4.622310000000000030e-01 -1.192060000000000064e-01
6.964970000000000327e-01 3.956729999999999969e-01 -5.781279999999999752e-01
1.390429999999999999e-01 3.031499999999999750e-01 5.647499999999999742e-01
7.004699999999999815e-02 -1.746149999999999924e-01 -9.677949999999999608e-01
3.515860000000000096e-01 4.800300000000000122e-01 -1.435369999999999979e-01
-2.567470000000000030e-01 -5.062680000000000513e-01 8.027199999999999891e-01
2.244359999999999966e-01 2.982549999999999923e-01 8.921590000000000353e-01
-9.104759999999999520e-01 5.853300000000000169e-02 -3.276999999999999913e-01
1.376680000000000126e-01 -7.862419999999999964e-01 5.787369999999999459e-01
-4.472960000000000269e-01 -1.925999999999999934e-01 -3.837400000000000255e-01
