-1.695111095905303955e-01 9.248865246772766113e-01 2.567589282989501953e-01
-1.581661552190780640e-01 9.182571768760681152e-01 2.910598516464233398e-01
1.352544873952865601e-01 -9.654246568679809570e-01 1.827852129936218262e-01
1.431384980678558350e-01 -9.596588611602783203e-01 2.134287655353546143e-01
1.265030950307846069e-01 -9.525104761123657227e-01 2.341538965702056885e-01
1.344314217567443848e-01 -9.455441832542419434e-01 2.645337879657745361e-01
7.850500196218490601e-02 -4.327312111854553223e-01 8.776974081993103027e-01
4.779119044542312622e-02 -4.278630018234252930e-01 8.879195451736450195e-01
5.870293080806732178e-02 -4.009983539581298828e-01 8.960390686988830566e-01
2.477994188666343689e-02 -3.980697989463806152e-01 9.024961590766906738e-01
-8.476503491401672363e-01 1.757670789957046509e-01 2.694621086120605469e-01
-8.400016427040100098e-01 1.713726222515106201e-01 3.076892793178558350e-01
-8.670365214347839355e-01 1.840727478265762329e-01 3.007014989852905273e-01
-8.594550490379333496e-01 1.792463064193725586e-01 3.387902081012725830e-01
-1.099100522696971893e-02 2.719913423061370850e-01 9.332574605941772461e-01
-2.425407432019710541e-02 2.496212422847747803e-01 9.455763697624206543e-01
-3.506123274564743042e-02 2.885766625404357910e-01 9.287007451057434082e-01
-4.802902787923812866e-02 2.668876945972442627e-01 9.427738785743713379e-01
-8.380352258682250977e-01 -4.711636602878570557e-01 -1.639036983251571655e-01
-8.477291464805603027e-01 -4.826077818870544434e-01 -1.411475837230682373e-01
-8.580800294876098633e-01 -4.538581669330596924e-01 -1.594095677137374878e-01
-8.663485050201416016e-01 -4.637106955051422119e-01 -1.361074298620223999e-01
3.374971076846122742e-02 4.402281641960144043e-01 8.615103363990783691e-01
1.648004725575447083e-02 4.268733859062194824e-01 8.754508495330810547e-01
2.719214186072349548e-03 4.546496570110321045e-01 8.642624020576477051e-01
-1.361873745918273926e-02 4.402865171432495117e-01 8.818720579147338867e-01
9.490229487419128418e-01 4.224327951669692993e-02 -3.201862871646881104e-01
9.546201229095458984e-01 3.690804541110992432e-02 -2.836091518402099609e-01
9.517848491668701172e-01 6.355185061693191528e-02 -2.972509860992431641e-01
9.540081024169921875e-01 5.822773277759552002e-02 -2.591913342475891113e-01
-4.738591611385345459e-01 8.514575660228729248e-02 -3.646877706050872803e-01
-4.688110053539276123e-01 7.670610398054122925e-02 -3.325925171375274658e-01
-4.925718903541564941e-01 1.005087196826934814e-01 -3.464174568653106689e-01
-4.895647168159484863e-01 9.227693080902099609e-02 -3.131642639636993408e-01
-5.262886285781860352e-01 -1.534121856093406677e-02 -2.999376952648162842e-01
-5.361308455467224121e-01 -2.558401972055435181e-02 -2.625636458396911621e-01
-5.407735705375671387e-01 1.637611072510480881e-03 -2.802845239639282227e-01
-5.490906238555908203e-01 -7.029809523373842239e-03 -2.448704838752746582e-01
6.250873953104019165e-02 -1.132686510682106018e-01 5.954286456108093262e-01
4.311893880367279053e-02 -1.366083920001983643e-01 5.984238386154174805e-01
5.809612944722175598e-02 -8.001615107059478760e-02 6.055000424385070801e-01
3.909234330058097839e-02 -1.056897863745689392e-01 6.067514419555664062e-01
6.944487690925598145e-01 -7.077990174293518066e-01 -1.110725700855255127e-01
6.877448558807373047e-01 -7.209483981132507324e-01 -9.120911359786987305e-02
7.021774053573608398e-01 -7.016264200210571289e-01 -8.999323844909667969e-02
6.957383751869201660e-01 -7.102417349815368652e-01 -6.535443663597106934e-02
-3.297518491744995117e-01 -9.027525782585144043e-01 2.360711842775344849e-01
-3.173677623271942139e-01 -9.002327322959899902e-01 2.741850912570953369e-01
-3.515735864639282227e-01 -8.872355222702026367e-01 2.619565427303314209e-01
-3.391204476356506348e-01 -8.850409984588623047e-01 2.998772561550140381e-01
9.489441514015197754e-01 -2.768312990665435791e-01 1.772625297307968140e-01
9.360622763633728027e-01 -2.820559740066528320e-01 2.061409801244735718e-01
9.326040744781494141e-01 -2.594796419143676758e-01 2.008561640977859497e-01
9.203667044639587402e-01 -2.657021582126617432e-01 2.269526124000549316e-01
9.479118138551712036e-02 9.199785590171813965e-01 2.881107926368713379e-01
9.882262349128723145e-02 9.085911512374877930e-01 3.228247761726379395e-01
6.101866438984870911e-02 9.200631380081176758e-01 3.091757893562316895e-01
6.771750748157501221e-02 9.090530872344970703e-01 3.435357809066772461e-01
8.313239216804504395e-01 -8.689119666814804077e-02 -5.414819121360778809e-01
8.474100232124328613e-01 -9.039820730686187744e-02 -5.116006731986999512e-01
8.448160290718078613e-01 -6.464465707540512085e-02 -5.209330320358276367e-01
8.606685996055603027e-01 -6.544857472181320190e-02 -4.897200465202331543e-01
2.363155409693717957e-02 -1.894696205854415894e-01 -8.582282066345214844e-01
3.814085945487022400e-02 -1.808039993047714233e-01 -8.257693052291870117e-01
8.972777053713798523e-03 -1.760813593864440918e-01 -8.214427232742309570e-01
2.416267991065979004e-02 -1.684642434120178223e-01 -7.882448434829711914e-01
5.762310624122619629e-01 -2.358644306659698486e-01 -2.944161929190158844e-02
5.750725865364074707e-01 -2.449198067188262939e-01 -1.401853747665882111e-03
5.820422172546386719e-01 -2.212560176849365234e-01 -4.386147484183311462e-04
5.800951123237609863e-01 -2.305525392293930054e-01 2.843042463064193726e-02
3.804007172584533691e-02 -4.878656268119812012e-01 8.513798117637634277e-01
2.900966256856918335e-02 -4.721028506755828857e-01 8.642206788063049316e-01
3.214341774582862854e-02 -4.508878290653228760e-01 8.719251155853271484e-01
1.217663846909999847e-02 -4.410739243030548096e-01 8.817211985588073730e-01
1.003048047423362732e-01 -9.692363142967224121e-01 1.871588528156280518e-01
1.080007031559944153e-01 -9.630215764045715332e-01 2.179834246635437012e-01
7.714108377695083618e-02 -9.600898623466491699e-01 2.348982840776443481e-01
8.591543883085250854e-02 -9.527919888496398926e-01 2.651572823524475098e-01
3.041871488094329834e-01 9.142042398452758789e-01 9.830393642187118530e-02
3.095024526119232178e-01 9.123767614364624023e-01 1.254161149263381958e-01
2.821484506130218506e-01 9.260934591293334961e-01 1.143974661827087402e-01
2.895016670227050781e-01 9.234154820442199707e-01 1.431861221790313721e-01
-6.166051030158996582e-01 -1.874813735485076904e-01 7.209710478782653809e-01
-6.012654900550842285e-01 -1.850917786359786987e-01 7.419372200965881348e-01
-6.211968064308166504e-01 -1.629873216152191162e-01 7.296393513679504395e-01
-6.039633750915527344e-01 -1.604651510715484619e-01 7.525331377983093262e-01
-7.541522383689880371e-01 -4.740503728389739990e-01 3.711466789245605469e-01
-7.502005696296691895e-01 -4.717097878456115723e-01 4.108176827430725098e-01
-7.618836164474487305e-01 -4.515907466411590576e-01 4.008065760135650635e-01
-7.560707926750183105e-01 -4.477599561214447021e-01 4.404175281524658203e-01
-9.805702418088912964e-02 6.058644056320190430e-01 1.251906007528305054e-01
-1.011651009321212769e-01 5.974984765052795410e-01 1.663941293954849243e-01
-1.153428256511688232e-01 6.290963292121887207e-01 1.626699566841125488e-01
-1.201778799295425415e-01 6.220836639404296875e-01 2.032847553491592407e-01
-1.187087446451187134e-01 -9.877703785896301270e-01 -9.403247386217117310e-03
-1.083175539970397949e-01 -9.863531589508056641e-01 2.774648182094097137e-02
-1.340119242668151855e-01 -9.795723557472229004e-01 2.228524163365364075e-02
-1.234125941991806030e-01 -9.786748290061950684e-01 6.088553369045257568e-02
-5.116022825241088867e-01 -5.613407492637634277e-01 6.171297430992126465e-01
-5.020284056663513184e-01 -5.531122088432312012e-01 6.417441368103027344e-01
-5.196002721786499023e-01 -5.385728478431701660e-01 6.331906318664550781e-01
-5.107754468917846680e-01 -5.305613875389099121e-01 6.573780179023742676e-01
-8.914144039154052734e-01 -2.959815561771392822e-01 -2.423188388347625732e-01
-8.987004160881042480e-01 -3.043440878391265869e-01 -2.093571871519088745e-01
-9.103559255599975586e-01 -2.769310474395751953e-01 -2.169435471296310425e-01
-9.141023159027099609e-01 -2.832162976264953613e-01 -1.806214451789855957e-01
-2.410744279623031616e-01 -3.162242174148559570e-01 4.424342811107635498e-01
-2.267111241817474365e-01 -3.050159215927124023e-01 4.758544266223907471e-01
-2.545377612113952637e-01 -2.924591004848480225e-01 4.568708539009094238e-01
-2.387669831514358521e-01 -2.816357016563415527e-01 4.901888668537139893e-01
-1.925795674324035645e-01 -5.924068689346313477e-01 -8.843362331390380859e-02
-1.841589212417602539e-01 -5.904664397239685059e-01 -5.713684856891632080e-02
-2.109850496053695679e-01 -5.801538228988647461e-01 -6.631340086460113525e-02
-2.033593654632568359e-01 -5.807066559791564941e-01 -3.492113202810287476e-02
-1.557911634445190430e-01 -6.887548565864562988e-01 6.847478747367858887e-01
-1.441024839878082275e-01 -6.752986311912536621e-01 7.100260257720947266e-01
-1.626545488834381104e-01 -6.647832393646240234e-01 7.089551687240600586e-01
-1.506574153900146484e-01 -6.507905721664428711e-01 7.324532270431518555e-01
-1.050323396921157837e-01 4.749522805213928223e-01 -8.629211783409118652e-01
-1.196686401963233948e-01 4.719802439212799072e-01 -8.362810611724853516e-01
-1.124873012304306030e-01 5.027292966842651367e-01 -8.319578170776367188e-01
-1.275699287652969360e-01 5.007620453834533691e-01 -8.038013577461242676e-01
6.316370368003845215e-01 5.148303508758544922e-01 -5.682107806205749512e-01
6.455869078636169434e-01 5.230516195297241211e-01 -5.346838235855102539e-01
6.224798560142517090e-01 5.420990586280822754e-01 -5.379350185394287109e-01
6.326496005058288574e-01 5.506678819656372070e-01 -5.022863745689392090e-01
4.901574924588203430e-02 -1.425200849771499634e-01 -6.114181280136108398e-01
3.436176478862762451e-02 -1.589258015155792236e-01 -6.044425368309020996e-01
2.736975625157356262e-02 -1.267914474010467529e-01 -6.076396107673645020e-01
1.294045336544513702e-02 -1.419468224048614502e-01 -6.027532219886779785e-01
1.834532916545867920e-01 -9.060650467872619629e-01 3.569304347038269043e-01
1.669124364852905273e-01 -9.148526191711425781e-01 3.879186213016510010e-01
1.701877117156982422e-01 -8.760399222373962402e-01 3.943190276622772217e-01
1.488458365201950073e-01 -8.886525034904479980e-01 4.283505082130432129e-01
-4.733878001570701599e-02 4.049690067768096924e-01 8.742558956146240234e-01
-6.293865293264389038e-02 3.919451832771301270e-01 8.927450180053710938e-01
-6.814839690923690796e-02 4.151716828346252441e-01 8.784822225570678711e-01
-8.389914780855178833e-02 4.011412560939788818e-01 8.988013267517089844e-01
1.381957083940505981e-01 7.130941152572631836e-01 -6.634474396705627441e-01
1.522848010063171387e-01 7.290933132171630859e-01 -6.339055299758911133e-01
1.292997747659683228e-01 7.330608963966369629e-01 -6.318917870521545410e-01
1.431134939193725586e-01 7.491152286529541016e-01 -6.021289229393005371e-01
-1.851302683353424072e-01 -2.495583593845367432e-01 5.168836116790771484e-01
-1.633250415325164795e-01 -2.321857661008834839e-01 5.414897203445434570e-01
-2.085841596126556396e-01 -2.222186028957366943e-01 5.242453813552856445e-01
-1.852819174528121948e-01 -2.055017352104187012e-01 5.488401055335998535e-01
8.960621953010559082e-01 -3.075280785560607910e-01 -2.468876242637634277e-01
8.797476887702941895e-01 -3.281574249267578125e-01 -2.239133566617965698e-01
8.771257996559143066e-01 -2.919175326824188232e-01 -2.465325146913528442e-01
8.612877130508422852e-01 -3.124789595603942871e-01 -2.255958616733551025e-01
7.195587158203125000e-01 -2.609925270080566406e-01 -3.016938269138336182e-01
7.133299708366394043e-01 -2.808605432510375977e-01 -2.678677737712860107e-01
6.858534812927246094e-01 -2.559967935085296631e-01 -2.990034222602844238e-01
6.796295046806335449e-01 -2.763556540012359619e-01 -2.655785679817199707e-01
1.170405745506286621e-01 3.059299588203430176e-01 9.181251525878906250e-01
9.701617807149887085e-02 2.858107089996337891e-01 9.304298162460327148e-01
9.915255755186080933e-02 3.286215364933013916e-01 9.176308512687683105e-01
7.842357456684112549e-02 3.090042471885681152e-01 9.294393062591552734e-01
3.370397686958312988e-01 -4.971807599067687988e-01 1.782583147287368774e-01
3.233925402164459229e-01 -5.102282762527465820e-01 2.063454836606979370e-01
3.332867324352264404e-01 -4.821599423885345459e-01 2.058646827936172485e-01
3.194556534290313721e-01 -4.963705241680145264e-01 2.366245388984680176e-01
8.588936924934387207e-01 -5.050127506256103516e-01 -1.676360145211219788e-03
8.499032258987426758e-01 -5.120127797126770020e-01 3.231254220008850098e-02
8.595989942550659180e-01 -4.902268648147583008e-01 3.016754984855651855e-02
8.501519560813903809e-01 -4.967666566371917725e-01 6.563396006822586060e-02
9.761345386505126953e-01 -2.261880785226821899e-01 2.529998123645782471e-02
9.735703468322753906e-01 -2.331543415784835815e-01 6.023686379194259644e-02
9.681085944175720215e-01 -2.144565135240554810e-01 6.249150633811950684e-02
9.660173058509826660e-01 -2.203080654144287109e-01 9.640155732631683350e-02
-8.186466097831726074e-01 -5.291464328765869141e-01 3.715670481324195862e-02
-8.203647136688232422e-01 -5.305789709091186523e-01 7.601014524698257446e-02
-8.301345109939575195e-01 -5.110146403312683105e-01 5.669994652271270752e-02
-8.337068557739257812e-01 -5.120090246200561523e-01 9.998755902051925659e-02
7.768141478300094604e-02 -4.683051109313964844e-01 4.038354158401489258e-01
8.431492745876312256e-02 -4.548642337322235107e-01 4.366844296455383301e-01
5.625780671834945679e-02 -4.407619237899780273e-01 4.231147766113281250e-01
7.084230333566665649e-02 -4.233594238758087158e-01 4.534888267517089844e-01
3.924181461334228516e-01 7.010868191719055176e-01 1.733169555664062500e-01
3.657216131687164307e-01 6.958225965499877930e-01 1.952388435602188110e-01
3.724423944950103760e-01 7.237073183059692383e-01 1.891251355409622192e-01
3.500000238418579102e-01 7.174543142318725586e-01 2.127204835414886475e-01
5.251551866531372070e-01 -8.476918935775756836e-01 1.093748286366462708e-01
5.041655302047729492e-01 -8.545678257942199707e-01 1.344679892063140869e-01
5.019950270652770996e-01 -8.207772374153137207e-01 1.257876902818679810e-01
4.798553884029388428e-01 -8.266213536262512207e-01 1.485822498798370361e-01
-2.530980408191680908e-01 -8.822087049484252930e-01 3.559383749961853027e-01
-2.411625981330871582e-01 -8.770384192466735840e-01 3.895449042320251465e-01
-2.709970176219940186e-01 -8.706057667732238770e-01 3.823531270027160645e-01
-2.593009769916534424e-01 -8.647390007972717285e-01 4.155912697315216064e-01
5.922843888401985168e-02 -4.924717843532562256e-01 8.489686846733093262e-01
4.890288040041923523e-02 -4.775088429450988770e-01 8.610708713531494141e-01
5.544193834066390991e-02 -4.485486447811126709e-01 8.711420893669128418e-01
3.063677996397018433e-02 -4.412672221660614014e-01 8.795710206031799316e-01
-7.378498315811157227e-01 -5.719938278198242188e-01 2.451498508453369141e-01
-7.364182472229003906e-01 -5.732981562614440918e-01 2.921905219554901123e-01
-7.542052865028381348e-01 -5.540432333946228027e-01 2.824203372001647949e-01
-7.527510523796081543e-01 -5.540023446083068848e-01 3.260509669780731201e-01
-5.994671583175659180e-01 -7.835054397583007812e-01 -1.075919494032859802e-01
-6.117873787879943848e-01 -7.989445924758911133e-01 -7.889868319034576416e-02
-6.142279505729675293e-01 -7.562872171401977539e-01 -9.900544583797454834e-02
-6.192539334297180176e-01 -7.704593539237976074e-01 -6.282138079404830933e-02
-2.558146715164184570e-01 1.973432600498199463e-01 -5.231948494911193848e-01
-2.773637771606445312e-01 1.910929828882217407e-01 -5.052299499511718750e-01
-2.616599202156066895e-01 2.137929201126098633e-01 -5.038132667541503906e-01
-2.800152897834777832e-01 2.040093392133712769e-01 -4.841161668300628662e-01
5.689461827278137207e-01 7.858415246009826660e-01 -1.382702142000198364e-01
5.765918493270874023e-01 7.828889489173889160e-01 -9.453710913658142090e-02
5.512492060661315918e-01 8.034229278564453125e-01 -1.055341064929962158e-01
5.613461136817932129e-01 8.000209927558898926e-01 -6.130919978022575378e-02
6.708336472511291504e-01 -7.332093119621276855e-01 -1.163329333066940308e-01
6.707075834274291992e-01 -7.474417090415954590e-01 -9.430094063282012939e-02
6.758149266242980957e-01 -7.254119515419006348e-01 -1.019723638892173767e-01
6.718099713325500488e-01 -7.361974120140075684e-01 -7.930238544940948486e-02
-4.245480597019195557e-01 7.359699904918670654e-02 8.621580600738525391e-01
-4.022803902626037598e-01 6.686594337224960327e-02 8.865141868591308594e-01
-4.343865513801574707e-01 9.063927084207534790e-02 8.617182970046997070e-01
-4.158907234668731689e-01 7.811336964368820190e-02 8.864043354988098145e-01
-1.654881238937377930e-01 3.601858019828796387e-01 -8.779577016830444336e-01
-1.773036867380142212e-01 3.515853285789489746e-01 -8.487660288810729980e-01
-1.664829850196838379e-01 3.754731118679046631e-01 -8.511906266212463379e-01
-1.777317374944686890e-01 3.670952022075653076e-01 -8.212766647338867188e-01
9.390196204185485840e-01 -3.379458487033843994e-01 -1.965890079736709595e-01
9.214995503425598145e-01 -3.569539189338684082e-01 -1.670745611190795898e-01
9.224840998649597168e-01 -3.130638003349304199e-01 -1.910806894302368164e-01
9.067119359970092773e-01 -3.298965096473693848e-01 -1.584585309028625488e-01
3.830941021442413330e-01 -9.195482730865478516e-01 5.808514356613159180e-02
3.735994696617126465e-01 -9.288359880447387695e-01 9.458792209625244141e-02
3.814471662044525146e-01 -9.095335602760314941e-01 1.017330139875411987e-01
3.649302423000335693e-01 -9.164548516273498535e-01 1.332382559776306152e-01
-5.415266156196594238e-01 -8.427377045154571533e-02 -8.117785453796386719e-01
-5.621876120567321777e-01 -9.267786890268325806e-02 -7.871201634407043457e-01
-5.570870637893676758e-01 -5.199564993381500244e-02 -7.992359399795532227e-01
-5.783310532569885254e-01 -5.870086327195167542e-02 -7.748259902000427246e-01
7.923862934112548828e-01 -1.482121944427490234e-01 -5.353355407714843750e-01
8.042302727699279785e-01 -1.565674692392349243e-01 -5.030253529548645020e-01
7.915086746215820312e-01 -1.391871422529220581e-01 -5.192227363586425781e-01
8.019713759422302246e-01 -1.476390808820724487e-01 -4.872781634330749512e-01
-1.638962030410766602e-01 8.334531188011169434e-01 -3.457557260990142822e-01
-1.689108610153198242e-01 8.279661536216735840e-01 -3.117022514343261719e-01
-1.724814027547836304e-01 8.464356064796447754e-01 -3.162128329277038574e-01
-1.771130263805389404e-01 8.397884368896484375e-01 -2.792836129665374756e-01
1.328440308570861816e-01 4.173785746097564697e-01 -4.307952225208282471e-01
1.501490324735641479e-01 4.344571828842163086e-01 -4.008853137493133545e-01
1.285227835178375244e-01 4.395886063575744629e-01 -4.000505506992340088e-01
1.424203664064407349e-01 4.533174633979797363e-01 -3.691217303276062012e-01
-6.669057607650756836e-01 -6.103128194808959961e-01 3.664473295211791992e-01
-6.566595435142517090e-01 -6.084091663360595703e-01 3.992865383625030518e-01
-6.858685016632080078e-01 -5.894414186477661133e-01 3.862797319889068604e-01
-6.757826805114746094e-01 -5.860526561737060547e-01 4.204004108905792236e-01
3.273335099220275879e-01 -9.416609406471252441e-01 3.462205827236175537e-02
3.358681201934814453e-01 -9.413130283355712891e-01 6.962762773036956787e-02
3.280297517776489258e-01 -9.360262751579284668e-01 8.662193268537521362e-02
3.249723017215728760e-01 -9.385923147201538086e-01 1.185667812824249268e-01
-1.768583953380584717e-01 -7.518993616104125977e-01 6.010851263999938965e-01
-1.639944314956665039e-01 -7.408800721168518066e-01 6.285620927810668945e-01
-1.988300830125808716e-01 -7.368766069412231445e-01 6.287397146224975586e-01
-1.846444904804229736e-01 -7.256816029548645020e-01 6.547688841819763184e-01
1.593727767467498779e-01 9.461024999618530273e-01 -1.289746612310409546e-01
1.667885780334472656e-01 9.498363137245178223e-01 -9.515991061925888062e-02
1.455758661031723022e-01 9.523575901985168457e-01 -9.972453117370605469e-02
1.540765762329101562e-01 9.543136358261108398e-01 -6.658153235912322998e-02
-1.640771478414535522e-01 9.013418555259704590e-01 2.850093841552734375e-01
-1.523199826478958130e-01 8.950114250183105469e-01 3.211496472358703613e-01
-1.742329895496368408e-01 9.065133333206176758e-01 3.088803589344024658e-01
-1.663442254066467285e-01 9.023137092590332031e-01 3.476992845535278320e-01
-5.079680085182189941e-01 -4.459851086139678955e-01 6.995697617530822754e-01
-4.952116608619689941e-01 -4.395588934421539307e-01 7.223181128501892090e-01
-5.196503400802612305e-01 -4.208222031593322754e-01 7.168717384338378906e-01
-5.042455792427062988e-01 -4.135852158069610596e-01 7.401832938194274902e-01
9.056185483932495117e-01 1.211931481957435608e-01 -4.107427895069122314e-01
9.119078516960144043e-01 1.206392869353294373e-01 -3.786356747150421143e-01
9.043620824813842773e-01 1.395806670188903809e-01 -3.885821104049682617e-01
9.092243313789367676e-01 1.393070369958877563e-01 -3.553138077259063721e-01
8.635485917329788208e-02 -6.445913314819335938e-01 7.355357408523559570e-01
9.400470554828643799e-02 -6.309844851493835449e-01 7.631714940071105957e-01
7.450407743453979492e-02 -6.157558560371398926e-01 7.689110040664672852e-01
7.947141677141189575e-02 -5.992749929428100586e-01 7.949966788291931152e-01
-3.799045085906982422e-01 7.669223845005035400e-02 -9.035561084747314453e-01
-4.013772308826446533e-01 7.475137710571289062e-02 -8.833979368209838867e-01
-3.923995196819305420e-01 9.725753217935562134e-02 -8.854036331176757812e-01
-4.136931598186492920e-01 9.520415961742401123e-02 -8.637658953666687012e-01
7.245051264762878418e-01 5.951160565018653870e-02 -6.782695651054382324e-01
7.417733073234558105e-01 6.057049706578254700e-02 -6.539089679718017578e-01
7.282767891883850098e-01 8.717109262943267822e-02 -6.631808280944824219e-01
7.450093030929565430e-01 8.884251862764358521e-02 -6.386129856109619141e-01
-3.794305622577667236e-01 -3.948410749435424805e-01 2.694700360298156738e-01
-3.691417276859283447e-01 -3.901255726814270020e-01 3.044914007186889648e-01
-3.884395360946655273e-01 -3.774567842483520508e-01 3.044428825378417969e-01
-3.788312673568725586e-01 -3.709672093391418457e-01 3.399759829044342041e-01
-5.759999155998229980e-01 -1.340265423059463501e-01 -4.999457299709320068e-02
-5.827453136444091797e-01 -1.429514586925506592e-01 -2.048193290829658508e-02
-5.892747640609741211e-01 -1.172969713807106018e-01 -2.966054901480674744e-02
-5.960045456886291504e-01 -1.268009543418884277e-01 -3.209365531802177429e-03
2.062682211399078369e-01 2.888468503952026367e-01 -9.263982176780700684e-01
2.264122515916824341e-01 3.136739134788513184e-01 -9.086943268775939941e-01
1.975218206644058228e-01 3.195293247699737549e-01 -9.043458700180053711e-01
2.178043574094772339e-01 3.449016809463500977e-01 -8.861706256866455078e-01
7.402368783950805664e-01 2.757378220558166504e-01 -6.030290126800537109e-01
7.505825161933898926e-01 2.754295766353607178e-01 -5.805317759513854980e-01
7.315107583999633789e-01 2.969434261322021484e-01 -5.903639197349548340e-01
7.430268526077270508e-01 2.952578365802764893e-01 -5.671905875205993652e-01
-5.858417749404907227e-01 5.592187866568565369e-03 1.050813496112823486e-01
-5.861091017723083496e-01 2.620272338390350342e-03 1.485817432403564453e-01
-5.903888344764709473e-01 3.471576049923896790e-02 1.341284960508346558e-01
-5.906756520271301270e-01 3.398112580180168152e-02 1.789713054895401001e-01
4.567108750343322754e-01 -6.125704944133758545e-02 -8.836515545845031738e-01
4.806949496269226074e-01 -6.063013151288032532e-02 -8.633615970611572266e-01
4.427295327186584473e-01 -3.384608030319213867e-02 -8.809164166450500488e-01
4.688071012496948242e-01 -3.108466789126396179e-02 -8.640580773353576660e-01
-5.402367711067199707e-01 -8.221537470817565918e-01 5.103954672813415527e-02
-5.335890054702758789e-01 -8.273216485977172852e-01 9.492740035057067871e-02
-5.522781014442443848e-01 -8.118937015533447266e-01 8.461742103099822998e-02
-5.468687415122985840e-01 -8.152731657028198242e-01 1.258352398872375488e-01
-2.802778966724872589e-02 -1.006865873932838440e-01 -9.846683144569396973e-01
-5.309988185763359070e-02 -1.217016801238059998e-01 -9.737886786460876465e-01
-5.302727594971656799e-02 -7.663764804601669312e-02 -9.818339347839355469e-01
-7.863157987594604492e-02 -9.775922447443008423e-02 -9.713759422302246094e-01
-3.510845303535461426e-01 -4.094789922237396240e-01 2.711720168590545654e-01
-3.378199934959411621e-01 -4.041215181350708008e-01 3.077672421932220459e-01
-3.573828637599945068e-01 -3.886649906635284424e-01 3.046095669269561768e-01
-3.451977372169494629e-01 -3.823956251144409180e-01 3.411830365657806396e-01
5.298371911048889160e-01 3.893311321735382080e-01 1.072673127055168152e-01
5.286134481430053711e-01 3.884887695312500000e-01 1.403595358133316040e-01
5.107647180557250977e-01 4.177592396736145020e-01 1.244157999753952026e-01
5.083636045455932617e-01 4.163452982902526855e-01 1.566573977470397949e-01
-7.304403781890869141e-01 1.249234825372695923e-01 -4.871447682380676270e-01
-7.225179076194763184e-01 1.226772591471672058e-01 -4.492036998271942139e-01
-7.452651858329772949e-01 1.422453373670578003e-01 -4.611544311046600342e-01
-7.338861823081970215e-01 1.383841335773468018e-01 -4.218795597553253174e-01
9.350246191024780273e-02 -7.049850225448608398e-01 6.832714676856994629e-01
9.982293844223022461e-02 -6.946061253547668457e-01 7.113354802131652832e-01
6.340660154819488525e-02 -6.866083741188049316e-01 7.135592699050903320e-01
7.390525937080383301e-02 -6.702027916908264160e-01 7.412091493606567383e-01
-6.687942743301391602e-01 -2.657892704010009766e-01 6.382502317428588867e-01
-6.548187732696533203e-01 -2.636214196681976318e-01 6.630135178565979004e-01
-6.709418296813964844e-01 -2.375209033489227295e-01 6.556950211524963379e-01
-6.560975909233093262e-01 -2.363719791173934937e-01 6.789166927337646484e-01
4.710616469383239746e-01 -1.807732433080673218e-01 -4.233608841896057129e-01
4.767892062664031982e-01 -1.830172240734100342e-01 -3.924962580204010010e-01
4.660571515560150146e-01 -1.549888253211975098e-01 -4.105136394500732422e-01
4.717234969139099121e-01 -1.589726507663726807e-01 -3.791675865650177002e-01
3.310476839542388916e-01 3.977967798709869385e-01 -8.401184082031250000e-01
3.505096137523651123e-01 4.168845117092132568e-01 -8.180677294731140137e-01
3.313757181167602539e-01 4.356539547443389893e-01 -8.309728503227233887e-01
3.489641845226287842e-01 4.537876546382904053e-01 -8.063786625862121582e-01
1.223081164062023163e-02 -1.208394095301628113e-01 -6.067985296249389648e-01
-2.198491711169481277e-03 -1.359947770833969116e-01 -6.019121408462524414e-01
-9.199158288538455963e-03 -9.785521030426025391e-02 -6.051406264305114746e-01
-2.333117276430130005e-02 -1.120118424296379089e-01 -6.009478569030761719e-01
-1.072165369987487793e-01 5.416048765182495117e-01 5.737749934196472168e-01
-1.128430813550949097e-01 5.340976119041442871e-01 6.209369897842407227e-01
-1.120688989758491516e-01 5.673485994338989258e-01 6.034865379333496094e-01
-1.147557199001312256e-01 5.579212307929992676e-01 6.502162218093872070e-01
-3.072132170200347900e-01 3.721583634614944458e-04 -9.386537075042724609e-01
-3.321008384227752686e-01 -2.605895744636654854e-03 -9.229601025581359863e-01
-3.222275376319885254e-01 2.202691696584224701e-02 -9.269348382949829102e-01
-3.462020754814147949e-01 2.026787586510181427e-02 -9.104591012001037598e-01
-2.098367661237716675e-01 9.103990197181701660e-01 1.046094223856925964e-01
-2.058956623077392578e-01 9.023459553718566895e-01 1.328687965869903564e-01
-2.200167775154113770e-01 9.183077216148376465e-01 1.276674121618270874e-01
-2.162615209817886353e-01 9.103767871856689453e-01 1.547713428735733032e-01
-1.034165173768997192e-01 5.331573486328125000e-01 -7.350373864173889160e-01
-1.155667454004287720e-01 5.256640315055847168e-01 -7.049227356910705566e-01
-1.119665652513504028e-01 5.546635389328002930e-01 -7.133337259292602539e-01
-1.219874918460845947e-01 5.438452959060668945e-01 -6.818915009498596191e-01
-6.802266836166381836e-01 -4.794516563415527344e-01 5.049365162849426270e-01
-6.702840924263000488e-01 -4.774787425994873047e-01 5.301502346992492676e-01
-6.799281835556030273e-01 -4.550485312938690186e-01 5.269901156425476074e-01
-6.687933802604675293e-01 -4.533226490020751953e-01 5.525547266006469727e-01
7.116115093231201172e-01 4.634365439414978027e-01 -5.078790187835693359e-01
7.232568264007568359e-01 4.696309268474578857e-01 -4.745600819587707520e-01
7.071895003318786621e-01 4.881384968757629395e-01 -4.800379276275634766e-01
7.171458601951599121e-01 4.945421516895294189e-01 -4.428800940513610840e-01
-7.978925481438636780e-03 -8.318306505680084229e-02 -9.865555763244628906e-01
-3.261335194110870361e-02 -1.066607013344764709e-01 -9.778741002082824707e-01
-3.292611986398696899e-02 -5.790103971958160400e-02 -9.842075705528259277e-01
-5.871695280075073242e-02 -8.030987530946731567e-02 -9.746558666229248047e-01
-4.423779249191284180e-01 -3.588469326496124268e-01 2.076557576656341553e-01
-4.396172761917114258e-01 -3.564774096012115479e-01 2.380723506212234497e-01
-4.493399858474731445e-01 -3.351829051971435547e-01 2.316243946552276611e-01
-4.463378190994262695e-01 -3.328890204429626465e-01 2.614185512065887451e-01
-1.713283918797969818e-02 -7.467430830001831055e-01 -1.594114601612091064e-01
-2.692400664091110229e-02 -7.294523119926452637e-01 -1.333246380090713501e-01
-3.668919205665588379e-02 -7.112765312194824219e-01 -1.396466642618179321e-01
-3.367060422897338867e-02 -6.930446028709411621e-01 -1.113623082637786865e-01
1.832633614540100098e-01 -1.542835980653762817e-01 -6.857046484947204590e-01
1.946819573640823364e-01 -1.435706019401550293e-01 -6.471670866012573242e-01
1.746598482131958008e-01 -1.319870650768280029e-01 -6.584001183509826660e-01
1.838842779397964478e-01 -1.197447180747985840e-01 -6.238360404968261719e-01
-4.418080747127532959e-01 -5.341605544090270996e-01 -1.377116441726684570e-01
-4.566821157932281494e-01 -5.607289671897888184e-01 -1.294145733118057251e-01
-4.586223065853118896e-01 -5.082525610923767090e-01 -1.390945017337799072e-01
-4.744341969490051270e-01 -5.332024097442626953e-01 -1.300539225339889526e-01
-2.525829672813415527e-01 -5.198033452033996582e-01 7.867833375930786133e-01
-2.436670958995819092e-01 -5.053268671035766602e-01 8.053731918334960938e-01
-2.707589864730834961e-01 -4.973655641078948975e-01 8.051139116287231445e-01
-2.620364725589752197e-01 -4.829995632171630859e-01 8.248901367187500000e-01
-9.992090053856372833e-03 9.290322065353393555e-01 -2.955916523933410645e-01
3.074361011385917664e-04 9.343291521072387695e-01 -2.683245241641998291e-01
-2.379378490149974823e-02 9.358396530151367188e-01 -2.565747797489166260e-01
-1.437664218246936798e-02 9.399477243423461914e-01 -2.300695478916168213e-01
8.383900523185729980e-01 3.244098424911499023e-01 -4.368007779121398926e-01
8.394775986671447754e-01 3.247497081756591797e-01 -4.029630720615386963e-01
8.213706612586975098e-01 3.528774082660675049e-01 -4.153394997119903564e-01
8.216469883918762207e-01 3.532609045505523682e-01 -3.809243142604827881e-01
2.220678478479385376e-01 -1.788216680288314819e-01 8.572850823402404785e-01
2.154513448476791382e-01 -1.881150007247924805e-01 8.964949846267700195e-01
2.243949323892593384e-01 -1.428479999303817749e-01 8.875132203102111816e-01
2.151167541742324829e-01 -1.542681753635406494e-01 9.253602027893066406e-01
-6.170814484357833862e-02 6.034262180328369141e-01 -7.697736620903015137e-01
-7.826983928680419922e-02 6.044594049453735352e-01 -7.452748417854309082e-01
-7.319062948226928711e-02 6.320375204086303711e-01 -7.451000213623046875e-01
-9.081606566905975342e-02 6.289566159248352051e-01 -7.185678482055664062e-01
2.941298782825469971e-01 5.464363098144531250e-01 2.470885515213012695e-01
2.757346928119659424e-01 5.377117991447448730e-01 2.772019207477569580e-01
2.824739217758178711e-01 5.707070827484130859e-01 2.617458999156951904e-01
2.627044618129730225e-01 5.638846158981323242e-01 2.901864051818847656e-01
8.821174502372741699e-01 4.026806354522705078e-01 -2.252459079027175903e-01
8.852799534797668457e-01 4.008553922176361084e-01 -1.938534528017044067e-01
8.743936419486999512e-01 4.219480156898498535e-01 -1.983129233121871948e-01
8.759710788726806641e-01 4.215858578681945801e-01 -1.661020815372467041e-01
1.975623890757560730e-03 3.882614374160766602e-01 -9.081578254699707031e-01
-3.037839755415916443e-02 3.940839767456054688e-01 -8.949214220046997070e-01
-2.084132470190525055e-02 4.186838865280151367e-01 -8.898599743843078613e-01
-4.538703337311744690e-02 4.262833297252655029e-01 -8.751007318496704102e-01
-3.311049640178680420e-01 1.917419880628585815e-01 -6.097095608711242676e-01
-3.397921621799468994e-01 1.835811585187911987e-01 -5.837382078170776367e-01
-3.198997378349304199e-01 2.015967220067977905e-01 -5.768733620643615723e-01
-3.296619355678558350e-01 1.923716962337493896e-01 -5.508855581283569336e-01
6.888043284416198730e-01 6.644833087921142578e-01 -2.431838065385818481e-01
6.925001144409179688e-01 6.649107933044433594e-01 -2.154434770345687866e-01
6.731811761856079102e-01 6.790441870689392090e-01 -2.223262041807174683e-01
6.771638393402099609e-01 6.790855526924133301e-01 -1.928697824478149414e-01
1.935720592737197876e-01 -1.320900209248065948e-02 9.440426826477050781e-01
1.740743368864059448e-01 -2.083137631416320801e-02 9.650830626487731934e-01
1.843388527631759644e-01 1.854902133345603943e-02 9.570206999778747559e-01
1.633429825305938721e-01 1.052710786461830139e-02 9.769337177276611328e-01
-3.964260220527648926e-01 -1.203869655728340149e-01 -9.064488410949707031e-01
-4.039149582386016846e-01 -1.298683881759643555e-01 -8.761013150215148926e-01
-4.168673753738403320e-01 -9.925023466348648071e-02 -8.871407508850097656e-01
-4.299451708793640137e-01 -1.092490032315254211e-01 -8.578307032585144043e-01
1.476925313472747803e-01 5.337914228439331055e-01 5.596124529838562012e-01
1.427820771932601929e-01 5.271276235580444336e-01 6.010321974754333496e-01
1.349447220563888550e-01 5.626584887504577637e-01 5.795762538909912109e-01
1.311098784208297729e-01 5.543398857116699219e-01 6.181673407554626465e-01
-3.717708215117454529e-02 -4.174149930477142334e-01 4.525150060653686523e-01
-2.696683257818222046e-02 -3.991161286830902100e-01 4.738401472568511963e-01
-5.495314672589302063e-02 -3.881501257419586182e-01 4.761613309383392334e-01
-4.467256367206573486e-02 -3.706543445587158203e-01 4.947597086429595947e-01
-4.285673797130584717e-01 -4.041654467582702637e-01 1.384517848491668701e-01
-4.230636060237884521e-01 -4.043862521648406982e-01 1.780113875865936279e-01
-4.485245347023010254e-01 -3.798833787441253662e-01 1.618392467498779297e-01
-4.437365531921386719e-01 -3.788266479969024658e-01 1.960710585117340088e-01
5.279191136360168457e-01 3.642630875110626221e-01 -7.534257173538208008e-01
5.403221249580383301e-01 3.716845214366912842e-01 -7.326343059539794922e-01
5.189167261123657227e-01 3.911812901496887207e-01 -7.405285835266113281e-01
5.330845117568969727e-01 3.976358771324157715e-01 -7.186048626899719238e-01
-5.125505924224853516e-01 -2.212598323822021484e-01 -3.515927493572235107e-01
-5.135486721992492676e-01 -2.330623716115951538e-01 -3.211885988712310791e-01
-5.421478152275085449e-01 -2.263301461935043335e-01 -3.364144861698150635e-01
-5.446239709854125977e-01 -2.403919696807861328e-01 -3.086057901382446289e-01
-4.980311095714569092e-01 -8.506857156753540039e-01 -6.611911952495574951e-02
-5.012912154197692871e-01 -8.537729978561401367e-01 -2.964616566896438599e-02
-5.216789245605468750e-01 -8.305927515029907227e-01 -5.111983418464660645e-02
-5.228459239006042480e-01 -8.347329497337341309e-01 -1.233882084488868713e-02
2.362009435892105103e-01 -5.848042964935302734e-01 3.039811253547668457e-01
2.203533649444580078e-01 -5.886020064353942871e-01 3.405606448650360107e-01
2.262089997529983521e-01 -5.568941831588745117e-01 3.332720696926116943e-01
2.102878242731094360e-01 -5.619033575057983398e-01 3.713488280773162842e-01
-1.002436317503452301e-02 -9.152383208274841309e-01 -2.442185431718826294e-01
-1.016397494822740555e-02 -9.224176406860351562e-01 -2.197365462779998779e-01
-3.937004506587982178e-02 -9.124246239662170410e-01 -2.316544651985168457e-01
-4.359199106693267822e-02 -9.198075532913208008e-01 -2.055332958698272705e-01
-2.284830361604690552e-01 -1.692474335432052612e-01 9.328598380088806152e-01
-2.060468494892120361e-01 -1.646731048822402954e-01 9.412468671798706055e-01
-2.376253753900527954e-01 -1.397919952869415283e-01 9.389417767524719238e-01
-2.176167815923690796e-01 -1.375405788421630859e-01 9.455963969230651855e-01
-6.201634407043457031e-01 -1.397458761930465698e-01 -7.357408404350280762e-01
-6.103202104568481445e-01 -1.430899649858474731e-01 -7.031793594360351562e-01
-6.358395218849182129e-01 -1.363643854856491089e-01 -7.075569033622741699e-01
-6.261552572250366211e-01 -1.377710998058319092e-01 -6.743558049201965332e-01
5.762750655412673950e-02 -9.764079749584197998e-02 9.714986681938171387e-01
4.337848722934722900e-02 -1.130589768290519714e-01 9.719051718711853027e-01
4.364103823900222778e-02 -7.294730842113494873e-02 9.766949415206909180e-01
2.966666780412197113e-02 -9.028504043817520142e-02 9.766159653663635254e-01
2.818616926670074463e-01 -1.505213230848312378e-01 -7.535161375999450684e-01
2.928126156330108643e-01 -1.442313045263290405e-01 -7.120907306671142578e-01
2.636168897151947021e-01 -1.400187015533447266e-01 -7.177679538726806641e-01
2.743492126464843750e-01 -1.331207454204559326e-01 -6.755870580673217773e-01
8.125298023223876953e-01 -5.949243307113647461e-01 1.820514723658561707e-02
8.025461435317993164e-01 -6.025019288063049316e-01 5.213377624750137329e-02
8.115224838256835938e-01 -5.805646777153015137e-01 4.284965619444847107e-02
8.011750578880310059e-01 -5.865597724914550781e-01 7.856447249650955200e-02
1.805127710103988647e-01 9.409299492835998535e-01 -1.621071100234985352e-01
1.869864463806152344e-01 9.459402561187744141e-01 -1.271715015172958374e-01
1.625909060239791870e-01 9.488046765327453613e-01 -1.379391252994537354e-01
1.700067073106765747e-01 9.525384902954101562e-01 -1.041243746876716614e-01
8.422130346298217773e-01 -1.888030618429183960e-01 1.674762219190597534e-01
8.732650876045227051e-01 -1.852274388074874878e-01 1.819863170385360718e-01
8.336590528488159180e-01 -1.587528288364410400e-01 1.743891686201095581e-01
8.631793260574340820e-01 -1.571838259696960449e-01 1.888598650693893433e-01
8.073266148567199707e-01 -1.986625641584396362e-01 1.507833451032638550e-01
8.231624364852905273e-01 -2.093485146760940552e-01 1.582745015621185303e-01
8.010182380676269531e-01 -1.540863215923309326e-01 1.514352411031723022e-01
8.100570440292358398e-01 -1.689894646406173706e-01 1.585354655981063843e-01
7.036675810813903809e-01 -7.108199596405029297e-01 -5.426437035202980042e-02
6.965212225914001465e-01 -7.179765105247497559e-01 -2.835396304726600647e-02
7.102603316307067871e-01 -7.023701071739196777e-01 -2.825218811631202698e-02
7.021932005882263184e-01 -7.090550661087036133e-01 -1.220326870679855347e-03
1.952535808086395264e-01 -9.167540073394775391e-01 3.259350955486297607e-01
1.833051145076751709e-01 -9.229862689971923828e-01 3.568324446678161621e-01
1.891222298145294189e-01 -8.881098628044128418e-01 3.622682690620422363e-01
1.682682931423187256e-01 -9.006289839744567871e-01 3.958303034305572510e-01
-3.895024061203002930e-01 1.569505035877227783e-01 5.805280208587646484e-01
-3.960636854171752930e-01 1.531693339347839355e-01 6.100514531135559082e-01
-3.835577368736267090e-01 1.680226176977157593e-01 6.323292255401611328e-01
-3.916798830032348633e-01 1.625605076551437378e-01 6.633266806602478027e-01
1.839579828083515167e-02 2.885660231113433838e-01 -9.460725188255310059e-01
-1.843446306884288788e-02 2.946059703826904297e-01 -9.369668364524841309e-01
2.943266183137893677e-03 3.210408091545104980e-01 -9.283619523048400879e-01
-3.305968642234802246e-02 3.277092278003692627e-01 -9.182850122451782227e-01
1.627568602561950684e-01 -1.552632749080657959e-01 7.527486681938171387e-01
1.636009663343429565e-01 -1.593439280986785889e-01 7.890012860298156738e-01
1.602798253297805786e-01 -1.301045417785644531e-01 7.700625658035278320e-01
1.641654372215270996e-01 -1.356462836265563965e-01 8.053402304649353027e-01
5.901608467102050781e-01 1.772891134023666382e-01 7.756907492876052856e-02
5.912799835205078125e-01 1.809180080890655518e-01 1.122907623648643494e-01
5.803976655006408691e-01 1.991921365261077881e-01 9.928388148546218872e-02
5.887373089790344238e-01 2.049944698810577393e-01 1.336575448513031006e-01
9.703378081321716309e-01 2.231441885232925415e-01 6.951443850994110107e-02
9.644384384155273438e-01 2.167642861604690552e-01 1.131007745862007141e-01
9.572511911392211914e-01 2.446790784597396851e-01 1.019664630293846130e-01
9.504224658012390137e-01 2.386872768402099609e-01 1.475083678960800171e-01
1.758661121129989624e-02 4.327237904071807861e-01 -8.832433223724365234e-01
1.959792524576187134e-02 4.504656195640563965e-01 -8.642893433570861816e-01
8.243525400757789612e-03 4.611044228076934814e-01 -8.627126812934875488e-01
8.903924375772476196e-03 4.783969223499298096e-01 -8.426151871681213379e-01
-2.058893740177154541e-01 1.796914786100387573e-01 -9.470849633216857910e-01
-2.387075573205947876e-01 1.783975362777709961e-01 -9.315933585166931152e-01
-2.233985215425491333e-01 2.003538161516189575e-01 -9.323096871376037598e-01
-2.543062567710876465e-01 1.983522921800613403e-01 -9.129435420036315918e-01
1.280689686536788940e-01 1.714127510786056519e-02 5.861111283302307129e-01
1.364611685276031494e-01 1.110919564962387085e-02 6.091278791427612305e-01
1.208499297499656677e-01 4.140459001064300537e-02 5.974053740501403809e-01
1.227844282984733582e-01 2.996758930385112762e-02 6.179820299148559570e-01
7.482048273086547852e-01 2.058488726615905762e-01 -6.284785866737365723e-01
7.619010210037231445e-01 2.068278938531875610e-01 -6.020868420600891113e-01
7.379826307296752930e-01 2.267199009656906128e-01 -6.146188974380493164e-01
7.494848370552062988e-01 2.279087901115417480e-01 -5.905302166938781738e-01
7.949902415275573730e-01 3.985816836357116699e-01 -4.571809470653533936e-01
7.981559634208679199e-01 3.997772336006164551e-01 -4.248719513416290283e-01
7.825469970703125000e-01 4.292586147785186768e-01 -4.362390339374542236e-01
7.863621711730957031e-01 4.309029877185821533e-01 -4.025061726570129395e-01
-5.517624616622924805e-01 -4.071373343467712402e-01 6.847331523895263672e-01
-5.356831550598144531e-01 -4.013358652591705322e-01 7.107744216918945312e-01
-5.609889030456542969e-01 -3.796923160552978516e-01 7.102831006050109863e-01
-5.426079034805297852e-01 -3.724386394023895264e-01 7.344357371330261230e-01
-9.647983312606811523e-01 5.660485476255416870e-04 -8.010838925838470459e-02
-9.686000943183898926e-01 -4.716071765869855881e-03 -4.734381288290023804e-02
-9.714684486389160156e-01 2.904121018946170807e-02 -5.936364829540252686e-02
-9.752251505851745605e-01 2.470747195184230804e-02 -2.498525008559226990e-02
-1.321853399276733398e-01 4.513242542743682861e-01 -7.231344580650329590e-01
-1.397211849689483643e-01 4.452678263187408447e-01 -6.896720528602600098e-01
-1.316607892513275146e-01 4.776738286018371582e-01 -7.006052732467651367e-01
-1.398014128208160400e-01 4.712226390838623047e-01 -6.674451828002929688e-01
-3.857893943786621094e-01 -1.375509947538375854e-01 -7.053304314613342285e-01
-3.721481561660766602e-01 -1.329382210969924927e-01 -6.702603697776794434e-01
-4.043139517307281494e-01 -1.338413059711456299e-01 -6.648608446121215820e-01
-3.910585343837738037e-01 -1.295041590929031372e-01 -6.292753219604492188e-01
7.310861349105834961e-02 -8.355135321617126465e-01 -1.951207965612411499e-01
6.633873283863067627e-02 -8.281072378158569336e-01 -1.633951067924499512e-01
5.941458791494369507e-02 -8.065611720085144043e-01 -1.736721694469451904e-01
3.824538737535476685e-02 -7.970021367073059082e-01 -1.471295952796936035e-01
6.069188714027404785e-01 1.651486456394195557e-01 -7.735648155212402344e-01
6.249163150787353516e-01 1.721239238977432251e-01 -7.514740228652954102e-01
5.989063978195190430e-01 1.842327564954757690e-01 -7.617614865303039551e-01
6.157564520835876465e-01 1.909167915582656860e-01 -7.408686280250549316e-01
-4.611112177371978760e-01 -8.236238956451416016e-01 2.727946639060974121e-01
-4.544129967689514160e-01 -8.206554055213928223e-01 3.129771649837493896e-01
-4.711930453777313232e-01 -8.076094985008239746e-01 3.024232387542724609e-01
-4.641632735729217529e-01 -8.040655851364135742e-01 3.402977585792541504e-01
8.242796659469604492e-01 5.333881378173828125e-01 -1.383011043071746826e-01
8.230286240577697754e-01 5.334608554840087891e-01 -9.633142501115798950e-02
8.066755533218383789e-01 5.555662512779235840e-01 -1.080787330865859985e-01
8.089461326599121094e-01 5.541875362396240234e-01 -6.602673977613449097e-02
3.019367158412933350e-01 7.157484292984008789e-01 -6.024158000946044922e-01
3.066088557243347168e-01 7.235345840454101562e-01 -5.786514282226562500e-01
2.797399163246154785e-01 7.301935553550720215e-01 -5.803475379943847656e-01
2.841772735118865967e-01 7.377877831459045410e-01 -5.562732815742492676e-01
4.079693555831909180e-01 1.883808374404907227e-01 -4.323222339153289795e-01
4.253506362438201904e-01 1.946512460708618164e-01 -4.069826900959014893e-01
4.077584445476531982e-01 2.169302403926849365e-01 -4.149711132049560547e-01
4.267213642597198486e-01 2.219388037919998169e-01 -3.891896605491638184e-01
4.488666057586669922e-01 3.164312839508056641e-01 -2.838789224624633789e-01
4.568133056163787842e-01 3.209425210952758789e-01 -2.559181153774261475e-01
4.392138719558715820e-01 3.363957703113555908e-01 -2.608069479465484619e-01
4.468706846237182617e-01 3.398253619670867920e-01 -2.334002703428268433e-01
2.747892141342163086e-01 1.594599634408950806e-01 -5.323426723480224609e-01
2.962344288825988770e-01 1.720305681228637695e-01 -5.122020840644836426e-01
2.803332209587097168e-01 1.931478530168533325e-01 -5.140568017959594727e-01
3.016043603420257568e-01 2.053851485252380371e-01 -4.925377070903778076e-01
-8.918709158897399902e-01 -4.359304532408714294e-02 -3.949008584022521973e-01
-8.984483480453491211e-01 -4.889630526304244995e-02 -3.590807318687438965e-01
-9.028609395027160645e-01 -2.426872588694095612e-02 -3.570427298545837402e-01
-9.099448323249816895e-01 -2.509805373847484589e-02 -3.224091827869415283e-01
-8.967357873916625977e-01 -8.197530359029769897e-02 -3.650733828544616699e-01
-9.031205773353576660e-01 -8.788914978504180908e-02 -3.281384706497192383e-01
-9.091489911079406738e-01 -6.024361401796340942e-02 -3.342419266700744629e-01
-9.161108732223510742e-01 -6.277864426374435425e-02 -2.969784736633300781e-01
8.658851981163024902e-01 3.873136341571807861e-01 -3.046086728572845459e-01
8.714625239372253418e-01 3.833363354206085205e-01 -2.706376910209655762e-01
8.535903096199035645e-01 4.053278565406799316e-01 -2.811650335788726807e-01
8.587167859077453613e-01 4.021755158901214600e-01 -2.493898868560791016e-01
-7.239522337913513184e-01 -1.375120282173156738e-01 -5.223767757415771484e-01
-7.214989066123962402e-01 -1.527756601572036743e-01 -4.874852001667022705e-01
-7.537024617195129395e-01 -1.372795850038528442e-01 -5.003443956375122070e-01
-7.530044317245483398e-01 -1.522054672241210938e-01 -4.641385376453399658e-01
8.288429677486419678e-02 8.155974745750427246e-01 -5.329764485359191895e-01
9.379914402961730957e-02 8.285852074623107910e-01 -5.018184185028076172e-01
5.654928088188171387e-02 8.356469869613647461e-01 -4.957474768161773682e-01
6.727726012468338013e-02 8.476561307907104492e-01 -4.642130434513092041e-01
5.231345295906066895e-01 -1.751084923744201660e-01 -8.154270052909851074e-01
5.392302274703979492e-01 -1.818239241838455200e-01 -7.833592295646667480e-01
5.106300115585327148e-01 -1.603051573038101196e-01 -8.012602925300598145e-01
5.269067287445068359e-01 -1.638542711734771729e-01 -7.690193057060241699e-01
