5.236079999999999623e-01 -3.691309999999999869e-01 -2.330440000000000011e-01
9.992099999999999593e-02 3.783790000000000209e-01 -5.836160000000000236e-01
-3.501929999999999765e-01 5.177380000000000315e-01 -2.661609999999999809e-01
-4.885410000000000030e-01 3.108700000000000005e-02 4.687729999999999952e-01
-3.171840000000000215e-01 6.932420000000000249e-01 -3.168499999999999789e-02
-5.142000000000000043e-02 -3.584669999999999801e-01 -6.292959999999999665e-01
-4.417320000000000135e-01 -3.611130000000000173e-01 -3.381009999999999849e-01
2.389910000000000090e-01 6.512630000000000363e-01 -2.576080000000000036e-01
7.120039999999999702e-01 -1.578660000000000063e-01 2.669270000000000254e-01
7.539679999999999715e-01 2.460130000000000094e-01 -1.384110000000000062e-01
-2.744050000000000100e-01 9.862700000000000633e-02 7.389970000000000150e-01
-4.602200000000000041e-02 1.841109999999999969e-01 -8.813170000000000170e-01
-3.908840000000000092e-01 -5.859029999999999516e-01 2.288600000000000009e-02
6.417829999999999924e-01 2.465509999999999924e-01 2.560520000000000018e-01
4.098399999999999960e-02 -9.506149999999999878e-01 -1.137090000000000045e-01
2.341090000000000115e-01 -4.814499999999999891e-01 -4.049070000000000169e-01
-3.369900000000000118e-01 -4.973520000000000163e-01 -3.069419999999999926e-01
6.291299999999999670e-01 3.359690000000000176e-01 -1.310080000000000133e-01
-7.946819999999999995e-01 -6.738099999999999645e-02 -2.482010000000000050e-01
4.534750000000000170e-01 4.884700000000000153e-01 1.042890000000000067e-01
-1.242270000000000041e-01 -8.604640000000000066e-01 1.687939999999999996e-01
-2.543199999999999905e-01 -5.091170000000000417e-01 3.660919999999999730e-01
1.468450000000000033e-01 7.086339999999999861e-01 -2.757240000000000246e-01
-1.815229999999999899e-01 -8.928920000000000190e-01 9.383000000000000715e-03
-3.633219999999999783e-01 -3.320239999999999858e-01 4.427269999999999817e-01
2.543899999999999981e-02 8.490389999999999882e-01 2.116510000000000058e-01
1.945729999999999960e-01 -8.324470000000000480e-01 -1.243960000000000066e-01
3.862079999999999957e-01 -5.846379999999999910e-01 5.674699999999999883e-02
3.737679999999999891e-01 -3.989590000000000081e-01 3.644740000000000202e-01
-3.057400000000000118e-01 7.071990000000000220e-01 -5.503199999999999759e-02
-5.378030000000000310e-01 3.876510000000000233e-01 -1.754690000000000139e-01
6.938199999999999923e-02 -2.320550000000000113e-01 -8.164360000000000506e-01
-3.215740000000000265e-01 3.366140000000000243e-01 -4.804760000000000142e-01
-8.916129999999999889e-01 -6.414100000000000357e-02 -1.722080000000000000e-01
5.335999999999999632e-01 -3.523709999999999898e-01 2.424479999999999968e-01
-1.727440000000000087e-01 4.394549999999999845e-01 4.772390000000000243e-01
6.893690000000000095e-01 1.255189999999999917e-01 -2.981369999999999854e-01
-2.376590000000000091e-01 -4.350530000000000230e-01 4.457720000000000016e-01
6.171000000000000270e-03 -3.937320000000000264e-01 -5.830119999999999747e-01
-8.579000000000000514e-02 9.331150000000000277e-01 -1.108520000000000061e-01
-4.821250000000000258e-01 4.577269999999999950e-01 1.188040000000000068e-01
-1.259049999999999891e-01 2.432219999999999938e-01 7.662160000000000082e-01
-8.325399999999999467e-01 -2.299440000000000095e-01 -1.169800000000000006e-02
-9.001869999999999594e-01 -1.031050000000000022e-01 -1.436260000000000037e-01
5.302160000000000206e-01 -3.085669999999999802e-01 -3.028919999999999946e-01
4.608349999999999946e-01 3.981000000000000094e-01 -2.662959999999999772e-01
5.270989999999999842e-01 -1.774969999999999881e-01 3.938869999999999871e-01
-9.198299999999999532e-02 -8.010500000000000398e-01 2.342180000000000095e-01
7.115100000000000591e-02 -5.010900000000000354e-01 4.517169999999999797e-01
6.047289999999999610e-01 5.834999999999999909e-02 -3.721389999999999976e-01
-1.873740000000000128e-01 -4.185300000000000131e-01 -4.976289999999999880e-01
-2.413879999999999915e-01 2.037899999999999989e-01 -7.088069999999999649e-01
1.644249999999999878e-01 7.992970000000000352e-01 1.908279999999999976e-01
7.938520000000000021e-01 2.510160000000000169e-01 -3.031700000000000020e-02
-3.167550000000000088e-01 6.474109999999999587e-01 1.509320000000000106e-01
-1.256559999999999899e-01 -7.741550000000000376e-01 -2.419719999999999926e-01
-2.938209999999999988e-01 -2.937089999999999979e-01 -5.569420000000000481e-01
4.718260000000000232e-01 9.763299999999999756e-02 -4.736589999999999967e-01
-3.021539999999999782e-01 -2.514419999999999988e-01 5.887820000000000276e-01
-7.032690000000000330e-01 -1.965560000000000085e-01 2.504649999999999932e-01
-1.504840000000000066e-01 -8.530320000000000125e-01 -1.572310000000000096e-01
-2.874630000000000241e-01 3.172800000000000065e-01 -5.350059999999999816e-01
9.563089999999999646e-01 6.279099999999999959e-02 8.833000000000000573e-02
1.816740000000000022e-01 2.257270000000000110e-01 7.437319999999999487e-01
3.194469999999999810e-01 3.371730000000000005e-01 -4.795260000000000078e-01
5.450220000000000065e-01 5.881100000000000216e-02 4.140719999999999956e-01
-3.065189999999999859e-01 -2.535470000000000224e-01 5.815780000000000394e-01
7.879369999999999985e-01 -2.322059999999999957e-01 1.192140000000000005e-01
8.056520000000000348e-01 -1.031600000000000017e-01 -2.273110000000000130e-01
5.026840000000000197e-01 1.686930000000000096e-01 -4.196159999999999890e-01
2.634679999999999800e-01 -5.070040000000000102e-01 3.598210000000000020e-01
-7.771839999999999860e-01 -2.664869999999999739e-01 -3.210099999999999759e-02
9.198779999999999735e-01 1.216769999999999935e-01 -9.360599999999999477e-02
-5.733500000000000263e-01 -3.737119999999999886e-01 -1.493319999999999925e-01
-3.511250000000000204e-01 -5.601709999999999745e-01 2.142860000000000043e-01
-6.450350000000000250e-01 2.536229999999999873e-01 -2.505109999999999837e-01
-8.759400000000000519e-02 -5.693519999999999692e-01 3.930420000000000025e-01
-6.050119999999999942e-01 9.152799999999999825e-02 3.651050000000000129e-01
4.029229999999999756e-01 -4.427550000000000097e-01 -2.856920000000000015e-01
-7.255749999999999700e-01 -1.037440000000000029e-01 2.819539999999999824e-01
4.379910000000000192e-01 1.035849999999999965e-01 5.056969999999999521e-01
-9.345280000000000253e-01 5.761999999999999761e-03 -1.403830000000000078e-01
-2.999580000000000024e-01 7.065649999999999986e-01 8.434600000000000430e-02
-4.840999999999999748e-01 2.316249999999999976e-01 -4.039249999999999785e-01
-9.324300000000000643e-02 -4.822670000000000012e-01 -4.677450000000000219e-01
2.946599999999999914e-02 -3.382689999999999864e-01 -6.629279999999999617e-01
-3.032340000000000035e-01 -4.647439999999999904e-01 -3.700669999999999793e-01
5.255769999999999609e-01 3.304320000000000035e-01 -2.795290000000000274e-01
9.091299999999999382e-02 -3.142840000000000078e-01 -6.845689999999999831e-01
3.161869999999999958e-01 -5.074849999999999639e-01 -3.163020000000000276e-01
1.802340000000000053e-01 2.869300000000000184e-01 6.653480000000000505e-01
-1.046000000000000055e-03 -5.153790000000000315e-01 4.453119999999999856e-01
-4.627560000000000007e-01 1.603940000000000088e-01 -4.624460000000000237e-01
4.943119999999999736e-01 -8.854800000000000171e-02 -4.553809999999999802e-01
5.395099999999999896e-02 -5.608170000000000099e-01 -4.070360000000000089e-01
-4.261670000000000180e-01 -4.293500000000000094e-01 2.725549999999999917e-01
1.105929999999999969e-01 -4.038410000000000055e-01 5.480960000000000276e-01
5.046770000000000422e-01 -2.838789999999999925e-01 3.457669999999999910e-01
9.282589999999999453e-01 -4.362699999999999911e-02 1.365899999999999892e-01
5.513369999999999660e-01 4.124410000000000021e-01 2.691699999999999995e-02
-2.415009999999999935e-01 -8.141880000000000228e-01 -3.210400000000000059e-02
1.518220000000000125e-01 8.496350000000000291e-01 1.521679999999999977e-01
1.497860000000000025e-01 -5.096300000000000135e-02 -9.163170000000000481e-01
-2.126170000000000004e-01 6.767250000000000210e-01 2.582729999999999748e-01
7.555000000000000084e-03 -3.955670000000000019e-01 5.780610000000000470e-01
9.082470000000000265e-01 3.694399999999999767e-02 -1.612899999999999889e-01
-5.474440000000000417e-01 3.541400000000000103e-01 2.216239999999999877e-01
-2.768519999999999870e-01 7.586159999999999570e-01 -2.777200000000000155e-02
-7.177609999999999824e-01 7.904500000000000415e-02 -2.951429999999999887e-01
-6.305229999999999446e-01 2.121899999999999897e-01 2.950300000000000145e-01
-3.812840000000000118e-01 -3.775379999999999847e-01 -3.831959999999999811e-01
4.989169999999999994e-01 3.899259999999999948e-01 2.254369999999999985e-01
-3.524630000000000263e-01 -1.660999999999999976e-01 -5.928409999999999513e-01
-7.917300000000000448e-01 -1.580779999999999963e-01 -2.094880000000000075e-01
1.155270000000000047e-01 -2.747729999999999895e-01 7.300389999999999935e-01
4.628499999999999975e-02 -8.307959999999999789e-01 2.244790000000000119e-01
7.442959999999999576e-01 -8.560199999999999754e-02 -2.758959999999999746e-01
-2.080289999999999917e-01 5.128100000000000019e-02 8.510259999999999492e-01
-3.309750000000000192e-01 -9.619800000000000573e-02 6.554499999999999771e-01
-1.013690000000000008e-01 -8.582699999999999774e-01 1.846069999999999933e-01
-4.373790000000000178e-01 -5.190489999999999826e-01 -7.864400000000000557e-02
-7.448860000000000481e-01 -2.822230000000000016e-01 -6.292999999999999983e-02
-2.373399999999999954e-01 -3.695370000000000044e-01 -5.217399999999999816e-01
-2.014140000000000097e-01 -2.325589999999999880e-01 -7.242439999999999989e-01
2.943169999999999953e-01 3.419760000000000022e-01 4.962099999999999844e-01
8.368160000000000043e-01 1.074429999999999968e-01 1.962029999999999885e-01
6.573700000000000376e-02 -3.863799999999999873e-02 -9.788949999999999596e-01
-6.885069999999999801e-01 -3.228969999999999896e-01 3.726999999999999844e-03
1.974579999999999946e-01 3.089160000000000239e-01 -6.246990000000000043e-01
2.950030000000000152e-01 3.732929999999999859e-01 -4.642319999999999780e-01
-2.625100000000000211e-01 3.343889999999999918e-01 5.370949999999999891e-01
-1.852310000000000068e-01 -3.194710000000000050e-01 6.226439999999999753e-01
9.586500000000000021e-01 -9.906900000000000428e-02 -4.368500000000000161e-02
-1.570819999999999994e-01 4.446439999999999837e-01 -4.814329999999999998e-01
3.048540000000000139e-01 1.418999999999999949e-02 7.108079999999999954e-01
5.061449999999999561e-01 -4.429259999999999864e-01 9.329400000000000193e-02
-2.020849999999999869e-01 4.196170000000000178e-01 -4.845679999999999987e-01
4.004200000000000120e-02 -5.649380000000000512e-01 -4.054139999999999966e-01
-1.114799999999999958e-01 4.145030000000000103e-01 -5.338920000000000332e-01
2.188180000000000125e-01 -5.737999999999999767e-01 3.354710000000000192e-01
9.304050000000000376e-01 -1.390750000000000042e-01 3.052200000000000052e-02
-1.306489999999999874e-01 -2.485300000000000009e-02 -9.422479999999999745e-01
2.122259999999999980e-01 2.098649999999999960e-01 -7.325519999999999810e-01
-3.669180000000000219e-01 -2.391159999999999952e-01 -5.233139999999999459e-01
-1.138640000000000069e-01 2.808959999999999790e-01 7.198470000000000146e-01
2.205860000000000043e-01 -9.302599999999999758e-02 -8.186649999999999761e-01
1.160149999999999931e-01 2.802699999999999983e-02 9.479999999999999538e-01
-2.611580000000000013e-01 -7.031410000000000160e-01 1.834349999999999870e-01
3.521500000000000324e-02 -2.815770000000000217e-01 7.497960000000000180e-01
4.592919999999999781e-01 -3.121860000000000190e-01 -3.654939999999999856e-01
2.171500000000000097e-01 -3.207269999999999843e-01 5.940419999999999590e-01
-8.670590000000000241e-01 -2.431300000000000128e-02 -2.023639999999999883e-01
-6.440989999999999771e-01 1.671800000000000022e-02 3.484920000000000240e-01
-1.511409999999999976e-01 9.178359999999999852e-01 3.768699999999999828e-02
-8.586489999999999956e-01 1.883900000000000019e-01 -9.152799999999999825e-02
1.694749999999999868e-01 -3.239650000000000030e-01 6.256140000000000034e-01
2.318500000000000005e-01 1.301899999999999932e-02 -8.261370000000000102e-01
-2.121470000000000022e-01 -2.087559999999999971e-01 -7.402969999999999828e-01
6.504410000000000469e-01 3.408370000000000011e-01 -4.299100000000000144e-02
8.537670000000000536e-01 -2.124280000000000057e-01 -8.885999999999999802e-03
-2.570339999999999847e-01 -3.680910000000000015e-01 5.052820000000000089e-01
9.118800000000000516e-02 4.978150000000000075e-01 -4.506999999999999895e-01
-1.063240000000000018e-01 -2.766580000000000150e-01 -7.364570000000000283e-01
6.893169999999999575e-01 1.220569999999999988e-01 2.973410000000000220e-01
1.275989999999999902e-01 -8.858199999999999408e-02 -9.202019999999999644e-01
-3.992519999999999958e-01 -5.343689999999999829e-01 -1.622149999999999981e-01
3.516560000000000241e-01 2.137819999999999998e-01 -5.561319999999999597e-01
8.939329999999999776e-01 -5.216599999999999709e-02 -1.716179999999999928e-01
-2.723809999999999842e-01 -6.189769999999999994e-01 -2.582459999999999756e-01
-1.329609999999999959e-01 9.379269999999999552e-01 7.837999999999999481e-03
-4.007350000000000079e-01 -4.989109999999999934e-01 2.152650000000000119e-01
-4.081420000000000048e-01 -2.601780000000000204e-01 4.576180000000000248e-01
9.532110000000000305e-01 -1.051079999999999931e-01 4.726000000000000340e-02
4.219499999999999917e-01 2.008350000000000135e-01 -4.817949999999999733e-01
2.048000000000000098e-01 5.309949999999999948e-01 3.753710000000000102e-01
2.590790000000000037e-01 6.183819999999999872e-01 2.647820000000000173e-01
3.857160000000000033e-01 5.552129999999999566e-01 1.401880000000000071e-01
-6.617560000000000109e-01 -3.102159999999999918e-01 -1.503670000000000007e-01
3.939170000000000171e-01 5.391900000000000165e-02 -5.746689999999999854e-01
-2.280619999999999870e-01 7.067229999999999901e-01 -2.199780000000000069e-01
-2.599910000000000276e-01 9.570499999999999841e-02 -7.647840000000000193e-01
7.639920000000000044e-01 -2.463829999999999909e-01 -1.292399999999999938e-01
-2.148029999999999939e-01 -2.728940000000000254e-01 6.592409999999999659e-01
-3.846970000000000112e-01 2.389030000000000042e-01 4.979239999999999777e-01
-2.041139999999999899e-01 -4.609489999999999976e-01 -4.435760000000000258e-01
-6.880479999999999929e-01 1.527249999999999996e-01 2.868669999999999831e-01
1.180340000000000000e-01 1.143480000000000052e-01 9.086940000000000017e-01
-2.195370000000000099e-01 -1.140390000000000015e-01 -8.115250000000000519e-01
-1.469290000000000040e-01 1.701519999999999977e-01 -8.416609999999999925e-01
9.828689999999999927e-01 4.674099999999999783e-02 -4.058599999999999708e-02
-2.440589999999999982e-01 5.707449999999999468e-01 3.200359999999999872e-01
-4.024659999999999904e-01 -5.442770000000000108e-01 -1.326859999999999984e-01
-3.726209999999999800e-01 -1.694950000000000068e-01 5.615970000000000129e-01
5.551999999999999991e-02 -7.389999999999999347e-02 -9.700710000000000166e-01
-2.788320000000000243e-01 -3.201030000000000264e-01 5.406389999999999807e-01
-7.508639999999999759e-01 -2.322490000000000110e-01 1.709990000000000121e-01
1.689009999999999956e-01 -5.693600000000000050e-02 8.929040000000000310e-01
2.045780000000000098e-01 2.329650000000000054e-01 7.128079999999999972e-01
7.478190000000000115e-01 2.210640000000000105e-01 -1.847080000000000111e-01
3.344630000000000103e-01 4.065300000000000025e-01 3.911069999999999824e-01
-7.645880000000000454e-01 1.039839999999999931e-01 -2.570709999999999940e-01
-2.445800000000000057e-02 -5.775999999999999884e-03 -9.964110000000000467e-01
8.889829999999999677e-01 1.720990000000000020e-01 -5.644899999999999918e-02
8.800780000000000269e-01 -1.753530000000000089e-01 7.732999999999999596e-02
-1.232830000000000037e-01 1.117039999999999977e-01 9.071040000000000214e-01
-1.206400000000000007e-02 -9.461289999999999978e-01 -1.275129999999999875e-01
-3.215470000000000272e-01 -6.894719999999999738e-01 -3.023500000000000146e-02
-6.228960000000000052e-01 -7.940200000000000036e-02 3.559109999999999774e-01
-4.569200000000000345e-02 -7.578160000000000451e-01 2.745890000000000275e-01
2.778010000000000201e-01 7.247590000000000421e-01 -1.116810000000000025e-01
2.825739999999999919e-01 -3.557870000000000199e-01 4.949879999999999836e-01
9.187299999999999633e-02 4.807739999999999791e-01 -4.663789999999999880e-01
6.631800000000000195e-02 3.831099999999999783e-02 -9.785660000000000469e-01
-3.971210000000000018e-01 5.371580000000000243e-01 1.530789999999999929e-01
-9.005699999999999816e-02 -4.975620000000000043e-01 4.517749999999999821e-01
1.212000000000000022e-01 -2.235640000000000127e-01 7.981239999999999446e-01
-6.288299999999999446e-02 2.144610000000000127e-01 -8.390800000000000480e-01
-1.681449999999999889e-01 -7.947499999999999565e-01 -1.989799999999999902e-01
5.563890000000000224e-01 -3.714560000000000084e-01 -1.805299999999999960e-01
-2.706959999999999922e-01 -3.416850000000000165e-01 -5.267899999999999805e-01
-4.619739999999999958e-01 2.021270000000000011e-01 -4.421300000000000230e-01
-3.595240000000000102e-01 -2.084010000000000029e-01 -5.551530000000000076e-01
-4.464380000000000015e-01 -3.002710000000000101e-01 3.879380000000000051e-01
-5.256100000000000216e-01 -6.505700000000000371e-02 4.311869999999999870e-01
-2.124209999999999987e-01 8.527489999999999792e-01 9.580999999999999239e-03
-6.435899999999999954e-01 -1.532119999999999871e-01 3.191229999999999900e-01
-6.577979999999999938e-01 -3.226049999999999751e-01 1.228839999999999932e-01
2.387799999999999923e-01 7.319710000000000383e-01 -1.782769999999999910e-01
1.926339999999999997e-01 -6.982140000000000013e-01 2.561599999999999988e-01
1.077729999999999938e-01 -2.492030000000000078e-01 -7.738460000000000338e-01
2.174030000000000129e-01 -5.584740000000000260e-01 -3.503609999999999780e-01
3.359650000000000136e-01 3.991959999999999953e-01 3.970110000000000028e-01
2.321459999999999912e-01 -5.984350000000000502e-01 -3.091450000000000031e-01
-4.615500000000000158e-02 -3.122679999999999900e-01 6.992239999999999567e-01
-9.571009999999999796e-01 -1.584999999999999951e-02 -1.122329999999999994e-01
3.032750000000000168e-01 2.745300000000000171e-02 -7.139739999999999975e-01
-4.804019999999999957e-01 -4.790019999999999833e-01 3.373000000000000304e-02
-4.262549999999999950e-01 2.939900000000000152e-02 5.371899999999999453e-01
-3.542109999999999981e-01 -1.362130000000000007e-01 -6.065009999999999568e-01
9.392699999999999660e-02 4.520699999999999719e-02 9.590959999999999486e-01
-3.817999999999999866e-02 3.089000000000000166e-03 9.913910000000000222e-01
-6.465049999999999963e-01 3.372720000000000162e-01 8.773499999999999355e-02
-3.853800000000000003e-01 -1.707210000000000116e-01 -5.462069999999999981e-01
-9.153639999999999555e-01 1.569780000000000064e-01 -2.245199999999999974e-02
8.381999999999999451e-01 -5.854199999999999682e-02 -2.175960000000000116e-01
3.107940000000000147e-01 -4.942599999999999771e-01 -3.340730000000000088e-01
-9.904669999999999863e-01 3.318999999999999902e-03 4.535100000000000242e-02
-9.377699999999999925e-02 -3.623580000000000134e-01 -6.125690000000000301e-01
-3.729160000000000252e-01 3.395420000000000105e-01 4.230209999999999804e-01
-2.119840000000000058e-01 -8.518829999999999458e-01 -4.373300000000000104e-02
-3.099060000000000148e-01 -6.746299999999999519e-02 6.974129999999999496e-01
3.721550000000000136e-01 -3.797849999999999837e-01 -3.873849999999999794e-01
2.128069999999999962e-01 5.275879999999999459e-01 3.734870000000000134e-01
-7.312929999999999708e-01 2.572800000000000087e-01 1.499810000000000032e-01
4.987719999999999931e-01 -4.014619999999999855e-01 2.116069999999999895e-01
4.355499999999999927e-01 -3.502460000000000018e-01 -3.532020000000000159e-01
-5.736100000000000226e-02 -3.633359999999999923e-01 -6.208700000000000330e-01
-6.277000000000000635e-02 8.440010000000000012e-01 2.089119999999999866e-01
-7.392429999999999835e-01 5.214400000000000285e-02 2.845610000000000084e-01
-2.530490000000000239e-01 1.871899999999999953e-02 -7.986889999999999823e-01
4.391650000000000276e-01 -2.291710000000000136e-01 -4.467630000000000212e-01
-7.646960000000000424e-01 1.148880000000000040e-01 2.502349999999999852e-01
1.686189999999999911e-01 -2.303469999999999962e-01 7.529860000000000442e-01
-2.504310000000000147e-01 5.531000000000000326e-03 -8.036990000000000522e-01
-1.372970000000000024e-01 7.989039999999999475e-01 2.125869999999999982e-01
7.636600000000000332e-02 -1.665900000000000020e-02 -9.779550000000000187e-01
4.328389999999999738e-01 -3.518740000000000201e-01 -3.542589999999999906e-01
1.048420000000000046e-01 7.597150000000000292e-01 2.557209999999999761e-01
4.741279999999999939e-01 1.432479999999999865e-01 4.539900000000000047e-01
2.859849999999999892e-01 -2.680830000000000157e-01 5.877930000000000099e-01
-1.421260000000000023e-01 -9.231000000000000316e-01 5.845100000000000295e-02
-4.341740000000000044e-01 -5.150059999999999638e-01 1.052229999999999971e-01
6.944909999999999695e-01 -1.731350000000000111e-01 -2.738490000000000091e-01
-6.124849999999999461e-01 1.936299999999999827e-02 3.698000000000000176e-01
-1.652139999999999997e-01 6.898769999999999625e-01 -2.810090000000000088e-01
4.892489999999999895e-01 -3.527739999999999765e-01 -2.952380000000000004e-01
-4.334890000000000132e-01 -2.578019999999999756e-01 4.332869999999999777e-01
5.555029999999999690e-01 -4.084439999999999737e-01 5.990000000000000185e-02
-1.453430000000000000e-01 -3.521000000000000241e-01 -6.046319999999999473e-01
-5.836759999999999726e-01 3.906939999999999857e-01 -2.112000000000000162e-03
3.531960000000000099e-01 5.856019999999999559e-01 -1.662329999999999919e-01
1.577860000000000096e-01 -3.125530000000000252e-01 -6.517779999999999685e-01
-3.794899999999999940e-01 -2.935989999999999989e-01 -4.639340000000000130e-01
1.886160000000000059e-01 4.526749999999999940e-01 4.539230000000000209e-01
3.286080000000000112e-01 5.210909999999999709e-01 2.841359999999999997e-01
-2.660509999999999819e-01 -2.190819999999999990e-01 6.638720000000000176e-01
1.521560000000000135e-01 -9.069409999999999972e-01 6.857900000000000107e-02
-1.415180000000000049e-01 -8.064700000000000202e-01 -2.081199999999999994e-01
-1.929770000000000096e-01 -2.783070000000000266e-01 6.722329999999999695e-01
-6.259710000000000552e-01 3.596300000000000052e-01 2.921500000000000138e-02
-2.812109999999999888e-01 -6.924489999999999812e-01 1.627879999999999883e-01
-8.026759999999999451e-01 1.174200000000000070e-02 2.482499999999999984e-01
1.312290000000000123e-01 2.809139999999999970e-01 -7.104089999999999572e-01
-3.912530000000000174e-01 -1.951100000000000056e-02 5.833220000000000072e-01
-2.045990000000000031e-01 3.685129999999999795e-01 5.409169999999999812e-01
4.433079999999999798e-01 3.847860000000000169e-01 -3.042799999999999949e-01
-1.332289999999999863e-01 3.346140000000000225e-01 6.302269999999999817e-01
3.230970000000000231e-01 -2.360700000000000021e-01 -5.766639999999999544e-01
-1.790160000000000085e-01 -4.271789999999999754e-01 -4.928500000000000103e-01
-2.214280000000000137e-01 8.087839999999999474e-01 1.071710000000000024e-01
4.545089999999999963e-01 -1.790269999999999917e-01 -4.608849999999999891e-01
-6.233060000000000267e-01 -2.437529999999999974e-01 -2.816069999999999962e-01
-6.946870000000000545e-01 3.123839999999999950e-01 5.345599999999999657e-02
2.129359999999999864e-01 -5.910729999999999595e-01 -3.278860000000000108e-01
2.964370000000000061e-01 5.874540000000000317e-01 2.542530000000000068e-01
-8.152600000000000124e-02 3.124730000000000008e-01 -6.870549999999999713e-01
4.941490000000000049e-01 -3.490999999999999659e-02 4.612280000000000268e-01
1.327429999999999999e-01 -3.324849999999999750e-01 6.356079999999999508e-01
-6.456749999999999989e-01 -2.013909999999999867e-01 -2.945969999999999978e-01
-5.457009999999999916e-01 2.111639999999999906e-01 3.617159999999999820e-01
6.176500000000000046e-02 3.937829999999999941e-01 -5.733829999999999760e-01
4.852210000000000134e-01 3.803570000000000007e-01 2.576640000000000041e-01
4.369399999999999951e-01 3.642110000000000070e-01 3.317649999999999766e-01
3.741229999999999833e-01 1.508619999999999961e-01 5.650490000000000235e-01
6.319329999999999670e-01 3.205399999999999916e-01 1.614420000000000022e-01
3.153770000000000184e-01 -5.248099999999999987e-01 -3.001619999999999844e-01
5.738459999999999672e-01 3.897090000000000276e-01 -7.677399999999999503e-02
4.772680000000000256e-01 4.715579999999999772e-01 -7.599799999999999611e-02
-3.765930000000000111e-01 2.257669999999999955e-01 5.175899999999999945e-01
-5.573329999999999673e-01 3.421049999999999924e-01 -2.302299999999999902e-01
5.672289999999999832e-01 6.257999999999999674e-02 -3.987010000000000276e-01
-5.376410000000000355e-01 8.302000000000000351e-03 -4.287969999999999837e-01
1.739410000000000123e-01 8.785530000000000284e-01 7.691699999999999926e-02
-1.699300000000000116e-02 -1.920000000000000049e-04 9.953910000000000258e-01
-1.840489999999999904e-01 -5.590669999999999806e-01 3.670900000000000274e-01
7.819979999999999709e-01 1.805299999999999960e-01 -1.954059999999999964e-01
1.855179999999999885e-01 -4.593510000000000093e-01 -4.537300000000000222e-01
2.998250000000000082e-01 -6.852099999999999858e-02 7.093390000000000528e-01
-1.447589999999999988e-01 -6.134920000000000373e-01 3.438019999999999965e-01
9.841729999999999645e-01 -6.153299999999999742e-02 5.764000000000000026e-03
-2.312450000000000061e-01 1.037779999999999953e-01 7.978939999999999921e-01
5.047749999999999737e-01 3.532000000000000139e-01 -2.735830000000000206e-01
-1.421910000000000118e-01 -4.648189999999999822e-01 -4.697529999999999761e-01
-3.160370000000000124e-01 4.685759999999999925e-01 3.503140000000000143e-01
-3.990469999999999851e-01 2.239259999999999862e-01 4.919140000000000179e-01
-1.048300000000000065e-01 6.362769999999999815e-01 -3.418030000000000235e-01
1.144570000000000032e-01 -9.524510000000000476e-01 -2.481200000000000072e-02
8.684920000000000417e-01 2.963000000000000009e-02 1.960459999999999980e-01
-4.546370000000000133e-01 6.790499999999999314e-02 4.984210000000000029e-01
-5.762610000000000232e-01 -2.368129999999999957e-01 -3.252459999999999796e-01
8.541790000000000216e-01 -3.344699999999999757e-02 2.073160000000000003e-01
-1.887580000000000091e-01 -4.675909999999999789e-01 4.430499999999999994e-01
-1.503420000000000034e-01 4.492399999999999727e-01 4.769889999999999963e-01
-2.475219999999999920e-01 -8.511399999999999522e-02 7.862780000000000324e-01
-2.040460000000000051e-01 6.870889999999999498e-01 -2.583190000000000208e-01
8.786199999999999566e-02 -1.649819999999999898e-01 8.853480000000000238e-01
1.694940000000000058e-01 -5.237690000000000401e-01 -4.038249999999999895e-01
-4.717040000000000122e-01 3.973600000000000049e-02 4.849220000000000197e-01
7.735940000000000039e-01 1.323110000000000119e-01 -2.362259999999999915e-01
2.097469999999999890e-01 -2.665759999999999796e-01 6.697910000000000252e-01
-3.315799999999999997e-02 -9.323090000000000543e-01 1.373199999999999976e-01
2.273830000000000018e-01 -5.140599999999999614e-01 -3.809060000000000223e-01
-2.121850000000000125e-01 7.395140000000000047e-01 -2.069390000000000118e-01
-4.225180000000000047e-01 4.905089999999999728e-01 -1.871230000000000115e-01
8.084240000000000315e-01 2.400200000000000111e-01 3.748200000000000143e-02
4.027970000000000161e-01 5.475809999999999844e-01 1.057420000000000027e-01
-5.678990000000000427e-01 2.859590000000000187e-01 2.869590000000000196e-01
-1.266399999999999991e-02 -1.197919999999999957e-01 -9.513859999999999539e-01
8.925300000000000455e-01 1.212939999999999990e-01 1.317490000000000050e-01
4.315030000000000254e-01 -3.050410000000000066e-01 -3.978090000000000237e-01
1.515869999999999995e-01 8.137099999999999889e-02 -9.018070000000000253e-01
3.382939999999999836e-01 9.410100000000000409e-02 6.406920000000000393e-01
1.751799999999999885e-02 5.664470000000000338e-01 4.012890000000000068e-01
4.365450000000000164e-01 -4.719700000000000284e-02 5.199080000000000368e-01
-1.536780000000000090e-01 -7.112640000000000073e-01 2.715259999999999896e-01
-6.465999999999999526e-02 -8.600199999999999512e-02 9.593949999999999978e-01
-3.465590000000000059e-01 6.003600000000000048e-01 1.596299999999999941e-01
1.885860000000000036e-01 4.549019999999999730e-01 4.518409999999999926e-01
2.035049999999999915e-01 2.957049999999999956e-01 6.350280000000000369e-01
3.421199999999999797e-01 2.215910000000000102e-01 5.603719999999999812e-01
8.911040000000000072e-01 -1.567310000000000092e-01 9.273900000000000199e-02
3.421500000000000236e-02 2.406719999999999970e-01 8.080589999999999717e-01
-5.963319999999999732e-01 5.608500000000000291e-02 -3.802329999999999877e-01
-6.643130000000000424e-01 2.273270000000000013e-01 -2.587590000000000168e-01
1.212180000000000063e-01 -5.688950000000000395e-01 3.839230000000000143e-01
4.570810000000000151e-01 6.759999999999999516e-04 -5.024530000000000385e-01
2.602920000000000234e-01 1.737539999999999918e-01 7.068159999999999998e-01
3.201160000000000116e-01 -2.696129999999999916e-01 -5.500770000000000381e-01
-9.220329999999999915e-01 1.333900000000000086e-01 7.235300000000000065e-02
-1.005599999999999966e-01 2.839059999999999917e-01 7.212250000000000050e-01
4.058970000000000078e-01 5.593409999999999771e-01 2.794999999999999915e-02
-8.959799999999999986e-01 1.053299999999999931e-01 1.433450000000000002e-01
3.775910000000000100e-01 1.949549999999999894e-01 5.346180000000000376e-01
9.680330000000000323e-01 -4.577000000000000339e-03 9.024600000000000677e-02
-9.071029999999999927e-01 -7.924399999999999500e-02 1.479139999999999899e-01
8.320710000000000051e-01 -1.138480000000000047e-01 -2.009990000000000110e-01
1.819820000000000049e-01 1.463869999999999894e-01 -8.275200000000000333e-01
1.299470000000000069e-01 8.653229999999999533e-01 -1.573900000000000021e-01
-6.989349999999999730e-01 -2.808880000000000265e-01 1.540449999999999875e-01
3.453620000000000023e-01 1.147380000000000067e-01 -6.242680000000000451e-01
-8.415920000000000067e-01 2.097070000000000045e-01 -7.205799999999999705e-02
-2.135229999999999906e-01 -7.748110000000000275e-01 1.693580000000000085e-01
5.964469999999999494e-01 3.758319999999999994e-01 -5.748899999999999844e-02
4.398799999999999932e-02 5.180660000000000265e-01 -4.406869999999999954e-01
2.728869999999999907e-01 3.224500000000000283e-02 7.602649999999999686e-01
1.948000000000000079e-03 -2.538050000000000028e-01 -7.986999999999999655e-01
3.663410000000000277e-01 2.173630000000000007e-01 -5.356769999999999587e-01
3.123420000000000085e-01 -4.265920000000000267e-01 -3.968900000000000206e-01
1.684609999999999996e-01 -7.953000000000000000e-03 -9.042999999999999927e-01
4.826989999999999892e-01 4.615589999999999971e-01 -9.677299999999999791e-02
-2.470350000000000046e-01 2.118279999999999885e-01 -6.939790000000000125e-01
-4.912210000000000187e-01 3.940219999999999834e-01 2.332569999999999921e-01
3.546150000000000135e-01 1.221069999999999933e-01 6.053640000000000132e-01
-6.085850000000000426e-01 -3.583560000000000079e-01 -1.192399999999999988e-01
-6.345099999999999352e-02 -6.968050000000000077e-01 -3.124609999999999888e-01
-1.740639999999999965e-01 -2.092670000000000086e-01 7.756739999999999746e-01
3.265879999999999894e-01 -5.910530000000000506e-01 2.109300000000000064e-01
-1.936209999999999876e-01 -4.193870000000000098e-01 -4.932130000000000125e-01
-3.324139999999999873e-01 -3.778460000000000152e-01 -4.297110000000000096e-01
-3.420779999999999932e-01 -3.875029999999999863e-01 -4.105509999999999993e-01
-1.766709999999999947e-01 2.276310000000000000e-01 -7.499719999999999720e-01
4.094559999999999866e-01 -5.171790000000000553e-01 -1.656549999999999967e-01
7.816279999999999895e-01 4.474899999999999711e-02 2.572309999999999874e-01
7.216630000000000544e-01 -1.760599999999999943e-01 -2.515660000000000118e-01
1.491649999999999920e-01 -1.384380000000000055e-01 8.666469999999999452e-01
-2.353159999999999974e-01 -2.758180000000000076e-01 6.363109999999999600e-01
-8.362309999999999466e-01 1.552800000000000014e-01 1.655089999999999895e-01
8.271180000000000199e-01 2.108399999999999996e-01 9.424399999999999444e-02
1.428679999999999950e-01 4.634119999999999906e-01 -4.667330000000000090e-01
3.780209999999999959e-01 -5.141459999999999919e-01 -2.305470000000000019e-01
8.782699999999999951e-01 1.819739999999999969e-01 -5.748400000000000037e-02
-4.722819999999999796e-01 4.744530000000000136e-01 9.256499999999999451e-02
-1.969499999999999862e-01 -7.679190000000000182e-01 1.946080000000000032e-01
7.647009999999999641e-01 -1.142449999999999993e-01 2.499270000000000103e-01
3.930859999999999910e-01 5.774310000000000276e-01 -1.821700000000000055e-02
-1.676700000000000065e-02 -6.895029999999999770e-01 3.196510000000000185e-01
1.505330000000000001e-01 7.839329999999999909e-01 -2.172699999999999909e-01
1.634919999999999984e-01 -2.374249999999999972e-01 7.480630000000000335e-01
-5.620169999999999888e-01 -6.841400000000000259e-02 -4.041310000000000180e-01
-1.989990000000000092e-01 6.303779999999999939e-01 -3.055559999999999943e-01
-2.757100000000000106e-01 1.896420000000000050e-01 -6.778680000000000261e-01
2.634989999999999832e-01 -4.003320000000000212e-01 4.618039999999999923e-01
-1.410049999999999915e-01 -2.539899999999999936e-01 7.452839999999999465e-01
-6.450500000000000678e-02 1.034309999999999952e-01 -9.497640000000000526e-01
-8.195900000000000407e-02 9.116800000000000459e-01 1.388260000000000050e-01
-8.303599999999999870e-01 2.218430000000000124e-01 -6.033199999999999674e-02
3.580550000000000122e-01 -3.020289999999999919e-01 -4.763330000000000064e-01
4.417599999999999860e-01 -4.630469999999999864e-01 1.983320000000000083e-01
-1.862560000000000049e-01 -8.635270000000000445e-01 9.037800000000000000e-02
4.309549999999999770e-01 1.382879999999999943e-01 5.010900000000000354e-01
4.944350000000000134e-01 -4.622990000000000155e-01 -4.856499999999999706e-02
-1.301789999999999892e-01 3.712509999999999977e-01 -5.824820000000000553e-01
4.249839999999999729e-01 2.738160000000000038e-01 -4.266719999999999957e-01
1.664450000000000096e-01 -3.391890000000000183e-01 6.068799999999999750e-01
-5.963110000000000355e-01 -2.440479999999999872e-01 -3.040510000000000157e-01
1.172400000000000005e-02 -7.717810000000000503e-01 -2.709960000000000147e-01
-2.259500000000000050e-02 -1.020210000000000006e-01 9.616470000000000296e-01
-1.844590000000000118e-01 4.944189999999999974e-01 -4.203330000000000122e-01
-1.509919999999999873e-01 2.078480000000000050e-01 7.935389999999999944e-01
-5.246619999999999617e-01 -2.061299999999999938e-02 -4.393310000000000271e-01
-7.042800000000000449e-02 -9.822859999999999925e-01 -1.086600000000000066e-02
2.673969999999999958e-01 7.629099999999999770e-02 -7.583969999999999878e-01
3.038500000000000090e-01 -6.474560000000000315e-01 -1.795970000000000066e-01
-3.082699999999999885e-01 4.105750000000000233e-01 4.129189999999999805e-01
-6.428009999999999557e-01 -2.367950000000000055e-01 2.688619999999999899e-01
-1.645989999999999953e-01 -1.609440000000000037e-01 -8.372840000000000282e-01
5.190800000000000275e-02 -4.277000000000000419e-03 -9.894319999999999782e-01
-5.160280000000000422e-01 -4.094840000000000146e-01 1.712859999999999938e-01
-5.013600000000000279e-01 1.649249999999999883e-01 -4.244829999999999992e-01
-7.753710000000000324e-01 -2.475819999999999965e-01 1.087560000000000054e-01
5.021069999999999700e-01 1.422110000000000041e-01 -4.309680000000000177e-01
1.839189999999999992e-01 8.972800000000000220e-02 8.614340000000000330e-01
-3.423550000000000204e-01 1.270050000000000068e-01 6.243560000000000221e-01
-3.415710000000000135e-01 5.017139999999999933e-01 2.920829999999999815e-01
6.588900000000000312e-02 -7.449989999999999668e-01 -2.811899999999999955e-01
3.216490000000000182e-01 9.874099999999999544e-02 -6.666290000000000271e-01
8.010439999999999783e-01 -2.444780000000000009e-01 -5.773600000000000260e-02
5.591490000000000071e-01 3.597060000000000257e-01 -1.940119999999999900e-01
3.681340000000000168e-01 5.848839999999999595e-01 1.266140000000000043e-01
-2.803399999999999781e-01 1.485710000000000086e-01 -7.033019999999999827e-01
-5.568980000000000041e-01 3.001199999999999979e-01 2.827200000000000268e-01
2.908040000000000069e-01 -2.865940000000000154e-01 5.636120000000000019e-01
-1.823619999999999963e-01 -8.696639999999999926e-01 -8.958199999999999497e-02
4.373380000000000045e-01 -4.941369999999999929e-01 -1.474870000000000070e-01
9.360600000000000032e-01 6.667199999999999516e-02 -1.188239999999999991e-01
-4.652499999999999969e-01 2.392980000000000107e-01 -4.159320000000000239e-01
-4.389589999999999881e-01 -1.307299999999999955e-02 -5.247600000000000042e-01
-1.033519999999999994e-01 3.742360000000000131e-01 5.868060000000000498e-01
5.075039999999999552e-01 4.476180000000000159e-01 4.465500000000000025e-02
-7.787100000000000133e-01 -2.566620000000000013e-01 -7.794700000000000240e-02
1.905270000000000019e-01 8.081650000000000222e-01 1.554679999999999951e-01
5.768020000000000369e-01 7.287599999999999634e-02 -3.903550000000000075e-01
-4.542200000000000126e-01 -3.003000000000000114e-02 5.046669999999999767e-01
-3.239279999999999937e-01 2.934649999999999759e-01 5.196439999999999948e-01
7.477799999999999725e-02 7.691869999999999541e-01 2.590669999999999917e-01
-3.589269999999999960e-01 1.711630000000000096e-01 5.769030000000000546e-01
-2.047600000000000114e-02 -1.766429999999999945e-01 8.949359999999999538e-01
7.526249999999999885e-01 -2.252979999999999983e-01 -1.785799999999999887e-01
-5.182330000000000547e-01 -3.577049999999999952e-01 -2.587780000000000080e-01
-4.925550000000000206e-01 1.348540000000000016e-01 -4.446789999999999909e-01
6.034650000000000292e-01 -2.987810000000000188e-01 -2.410470000000000113e-01
6.934639999999999693e-01 -5.721999999999999656e-03 -3.182150000000000256e-01
-1.585599999999999857e-02 -4.147899999999999920e-01 -5.550739999999999563e-01
3.348099999999999965e-01 6.378329999999999833e-01 -1.154249999999999998e-01
-3.933249999999999802e-01 -3.452819999999999778e-01 3.993459999999999788e-01
5.004939999999999944e-01 -2.061179999999999957e-01 -4.041989999999999750e-01
2.715750000000000108e-01 -4.173910000000000120e-01 4.372039999999999815e-01
5.416640000000000343e-01 4.205439999999999734e-01 1.645800000000000041e-02
-1.997299999999999909e-01 -8.524610000000000243e-01 8.176700000000000634e-02
6.176500000000000323e-01 2.596829999999999972e-01 -2.673800000000000066e-01
-4.110349999999999837e-01 -5.567480000000000206e-01 4.259299999999999892e-02
9.228880000000000416e-01 1.244750000000000023e-01 -8.439499999999999780e-02
-3.121740000000000070e-01 -5.619910000000000183e-01 -2.696200000000000263e-01
-4.475279999999999814e-01 4.502450000000000063e-01 -2.116969999999999963e-01
-5.030890000000000084e-01 2.442920000000000091e-01 3.760789999999999966e-01
6.854519999999999502e-01 -1.676279999999999992e-01 2.809269999999999823e-01
1.660629999999999884e-01 3.256169999999999898e-01 -6.244539999999999536e-01
4.523630000000000151e-01 -4.641970000000000263e-01 -1.765960000000000030e-01
4.424139999999999739e-01 -2.932919999999999972e-01 -3.971270000000000078e-01
1.974470000000000114e-01 -6.588669999999999805e-01 -2.854369999999999963e-01
-2.845670000000000144e-01 -7.034610000000000030e-01 -1.422910000000000008e-01
4.415640000000000120e-01 -1.648910000000000098e-01 -4.813279999999999781e-01
-3.293800000000000061e-01 1.008970000000000006e-01 -6.568709999999999827e-01
-1.353270000000000028e-01 -5.897639999999999549e-01 3.644979999999999887e-01
4.540440000000000031e-01 -5.060670000000000446e-01 5.270000000000000162e-04
-4.446430000000000105e-01 -4.897549999999999959e-01 1.425309999999999910e-01
-2.790810000000000235e-01 6.353499999999999426e-02 7.460780000000000189e-01
2.261599999999999999e-01 4.040369999999999795e-01 4.824100000000000055e-01
-4.215490000000000070e-01 -3.849000000000000338e-02 5.421639999999999793e-01
7.869099999999999706e-02 -2.893680000000000141e-01 7.251560000000000228e-01
3.346169999999999978e-01 5.178380000000000205e-01 -2.829300000000000148e-01
-3.485900000000000110e-02 7.672870000000000523e-01 -2.707269999999999954e-01
-9.765000000000000069e-02 -9.606190000000000007e-01 4.670900000000000052e-02
-3.948420000000000263e-01 -5.345229999999999704e-01 1.694259999999999933e-01
-5.687630000000000186e-01 1.738599999999999868e-02 4.013349999999999973e-01
-1.371229999999999949e-01 3.411680000000000268e-01 -6.207470000000000487e-01
7.734889999999999821e-01 -2.655080000000000218e-01 4.268799999999999678e-02
1.014020000000000060e-01 -9.599729999999999652e-01 3.099999999999999978e-02
-9.014389999999999903e-01 2.570100000000000162e-02 1.696330000000000060e-01
4.858350000000000168e-01 4.699130000000000251e-01 -8.985999999999999197e-03
4.955800000000000205e-01 -4.553570000000000118e-01 -8.401699999999999446e-02
-6.056340000000000057e-01 1.783210000000000073e-01 3.334480000000000222e-01
-5.951700000000000046e-02 1.652889999999999915e-01 8.953029999999999600e-01
-6.001549999999999940e-01 1.993360000000000132e-01 3.261789999999999967e-01
3.654780000000000251e-01 -5.578680000000000305e-01 1.865789999999999949e-01
5.717400000000000260e-01 -3.893190000000000262e-01 9.559099999999999542e-02
-2.084719999999999906e-01 5.922030000000000349e-01 -3.286209999999999964e-01
-2.243219999999999936e-01 4.310590000000000255e-01 4.560259999999999869e-01
4.475599999999999717e-02 9.376320000000000210e-01 1.244399999999999951e-01
-1.425319999999999920e-01 1.750690000000000024e-01 8.375350000000000295e-01
1.401380000000000126e-01 -5.140930000000000222e-01 4.213890000000000136e-01
2.531309999999999949e-01 -7.956680000000000419e-01 -1.524999999999999967e-02
3.749549999999999828e-01 3.402729999999999921e-01 -4.201570000000000027e-01
1.921160000000000090e-01 -4.007379999999999831e-01 5.121919999999999806e-01
2.977000000000000202e-01 -7.200250000000000261e-01 -4.889299999999999896e-02
1.365010000000000112e-01 2.516180000000000083e-01 7.464650000000000452e-01
5.462399999999999894e-02 -3.822300000000000142e-01 -5.940790000000000237e-01
-9.522580000000000489e-01 1.170019999999999949e-01 -2.031999999999999952e-03
3.651599999999999846e-01 -4.122259999999999813e-01 3.591960000000000153e-01
-4.037290000000000045e-01 1.036949999999999955e-01 5.497279999999999944e-01
1.898529999999999940e-01 2.372529999999999917e-01 7.216820000000000457e-01
-1.388989999999999947e-01 9.312740000000000462e-01 -2.527899999999999939e-02
9.054800000000000348e-02 -2.658079999999999887e-01 -7.584159999999999791e-01
9.697249999999999481e-01 4.333499999999999852e-02 7.640099999999999669e-02
-7.939420000000000366e-01 2.466649999999999954e-01 -6.474100000000000688e-02
-4.715999999999999706e-03 -4.940939999999999777e-01 -4.672930000000000139e-01
1.359960000000000058e-01 -9.353150000000000075e-01 1.964399999999999827e-02
7.828100000000000336e-02 1.520529999999999937e-01 -9.025750000000000162e-01
9.737759999999999749e-01 6.412299999999999944e-02 4.813599999999999823e-02
7.064890000000000336e-01 2.335619999999999918e-01 -2.121669999999999945e-01
6.667020000000000168e-01 2.614929999999999755e-01 -2.183889999999999998e-01
-6.987729999999999775e-01 3.064040000000000097e-01 -7.468099999999999739e-02
-3.427979999999999916e-01 4.061989999999999768e-01 3.859380000000000033e-01
-8.827629999999999644e-01 -1.754630000000000078e-01 -7.773700000000000054e-02
-4.871999999999999942e-02 -2.534529999999999839e-01 -7.932329999999999659e-01
4.326119999999999965e-01 6.322000000000000362e-03 5.274950000000000472e-01
4.596770000000000023e-01 -1.993610000000000104e-01 4.429810000000000136e-01
3.767940000000000178e-01 5.835460000000000091e-01 9.945800000000000474e-02
-4.764780000000000126e-01 -3.904980000000000118e-01 2.611370000000000080e-01
3.498990000000000156e-01 2.727049999999999752e-01 5.077540000000000386e-01
-5.845970000000000333e-01 -1.674740000000000117e-01 -3.578479999999999994e-01
-7.090959999999999486e-01 2.916949999999999821e-01 -1.067599999999999938e-01
-5.084700000000000331e-02 -4.362090000000000134e-01 -5.254499999999999726e-01
-2.207770000000000010e-01 7.580699999999999938e-02 -8.282810000000000450e-01
-1.544520000000000060e-01 2.614529999999999910e-01 7.216240000000000432e-01
2.846409999999999774e-01 3.862400000000000277e-01 -4.587709999999999844e-01
-3.955540000000000167e-01 1.270679999999999865e-01 -5.537630000000000052e-01
1.097950000000000037e-01 1.551460000000000061e-01 8.794880000000000475e-01
-5.833490000000000064e-01 -3.432339999999999836e-01 1.965139999999999942e-01
-5.512289999999999690e-01 -3.943010000000000126e-01 -1.393570000000000086e-01
9.468500000000000527e-02 -5.250240000000000462e-01 -4.284629999999999828e-01
4.660639999999999783e-01 3.927450000000000108e-01 2.645719999999999739e-01
-4.785610000000000142e-01 -4.728510000000000213e-01 8.550699999999999967e-02
-2.838500000000000051e-02 -2.135900000000000021e-01 8.508539999999999992e-01
1.894200000000000050e-01 -4.458399999999999863e-02 8.736439999999999761e-01
8.629799999999999971e-02 6.876489999999999547e-01 3.088319999999999954e-01
4.363100000000000311e-02 -8.466310000000000224e-01 -2.151949999999999974e-01
-9.338910000000000267e-01 -9.729599999999999360e-02 -1.036080000000000056e-01
-7.815239999999999965e-01 -1.463210000000000066e-01 -2.253539999999999988e-01
-5.543289999999999607e-01 -3.153730000000000144e-01 -2.734750000000000236e-01
4.299310000000000076e-01 4.363339999999999996e-01 2.527209999999999734e-01
2.094820000000000015e-01 -8.150799999999999712e-02 8.362100000000000088e-01
3.330000000000000061e-03 -9.903950000000000253e-01 -5.151599999999999929e-02
-6.698099999999999887e-02 -5.285239999999999938e-01 4.289299999999999780e-01
1.180869999999999975e-01 -3.830509999999999748e-01 5.720490000000000297e-01
-5.836689999999999934e-01 -3.470010000000000039e-01 -1.917750000000000010e-01
-4.327949999999999853e-01 3.670280000000000209e-01 -3.379349999999999854e-01
-2.462119999999999864e-01 7.300520000000000342e-01 1.713959999999999928e-01
-5.079479999999999551e-01 3.790500000000000119e-02 -4.523889999999999856e-01
8.238860000000000072e-01 2.219820000000000126e-01 6.905999999999999639e-02
-8.121829999999999883e-01 -1.507189999999999919e-01 1.949210000000000109e-01
4.098729999999999873e-01 -1.970999999999999835e-02 -5.577109999999999568e-01
-7.695880000000000498e-01 1.231730000000000047e-01 -2.455170000000000130e-01
6.895299999999999763e-01 -2.873550000000000271e-01 1.512050000000000061e-01
4.239720000000000155e-01 -8.479000000000000425e-02 -5.306170000000000053e-01
6.348059999999999814e-01 -1.428879999999999872e-01 3.279839999999999978e-01
2.078689999999999982e-01 3.393590000000000217e-01 5.737020000000000453e-01
-1.839310000000000112e-01 -8.056069999999999620e-01 1.712339999999999973e-01
8.346310000000000118e-01 1.822529999999999983e-01 1.341650000000000065e-01
-8.680899999999999728e-02 -3.153540000000000232e-01 -6.856109999999999705e-01
-7.693510000000000071e-01 2.692060000000000008e-01 -2.579000000000000042e-02
1.124409999999999993e-01 -2.930969999999999964e-01 7.045470000000000343e-01
-7.611850000000000005e-01 2.584929999999999728e-01 9.789699999999999791e-02
-4.935439999999999827e-01 -4.084980000000000278e-01 -2.125370000000000037e-01
1.149369999999999975e-01 4.898379999999999956e-01 4.486859999999999737e-01
2.351100000000000065e-02 -1.897850000000000092e-01 8.796509999999999607e-01
1.918229999999999935e-01 6.653609999999999802e-01 2.794579999999999842e-01
-1.313999999999999890e-01 3.301200000000000245e-01 6.376020000000000021e-01
-1.763480000000000047e-01 -7.697349999999999470e-01 2.114640000000000131e-01
5.527999999999999581e-01 3.846100000000000074e-01 1.473859999999999892e-01
-6.937940000000000218e-01 2.450799999999999923e-01 2.114449999999999941e-01
-1.259510000000000074e-01 5.888189999999999813e-01 -3.685169999999999835e-01
4.687410000000000188e-01 4.564440000000000164e-01 1.507739999999999914e-01
3.594439999999999857e-01 -4.647530000000000272e-01 -3.128759999999999875e-01
7.781900000000000484e-01 8.119899999999999340e-02 -2.536630000000000273e-01
2.914189999999999836e-01 1.166739999999999999e-01 -7.032429999999999515e-01
1.937329999999999885e-01 -1.870110000000000106e-01 -7.800650000000000084e-01
