-1.350099742412567139e-01 9.680539369583129883e-02 -9.050047397613525391e-01
-1.274442672729492188e-01 1.132811754941940308e-01 -9.040259122848510742e-01
-1.408578604459762573e-01 1.115041673183441162e-01 -8.848855495452880859e-01
1.052508428692817688e-01 -5.631069540977478027e-01 -4.046818614006042480e-01
9.160954505205154419e-02 -5.789723992347717285e-01 -3.886121213436126709e-01
8.374775201082229614e-02 -5.622881054878234863e-01 -4.052315354347229004e-01
6.960975378751754761e-02 -5.774811506271362305e-01 -3.883385062217712402e-01
2.868377566337585449e-01 -7.431327104568481445e-01 3.145434334874153137e-02
2.789455354213714600e-01 -7.486332058906555176e-01 5.732286721467971802e-02
2.904996275901794434e-01 -7.317970395088195801e-01 5.528081208467483521e-02
2.822498977184295654e-01 -7.373943328857421875e-01 8.226618915796279907e-02
6.530060172080993652e-01 -3.069780468940734863e-01 1.437361985445022583e-01
6.456543207168579102e-01 -3.115680813789367676e-01 1.674877107143402100e-01
6.557878851890563965e-01 -2.942360937595367432e-01 1.716957092285156250e-01
6.480994820594787598e-01 -2.985632717609405518e-01 1.957492083311080933e-01
-2.246226519346237183e-01 -8.287241458892822266e-01 -5.016874521970748901e-02
-2.268102765083312988e-01 -8.337947130203247070e-01 -1.831024885177612305e-02
-2.396808713674545288e-01 -8.144887089729309082e-01 -2.936345338821411133e-02
-2.416553199291229248e-01 -8.194596767425537109e-01 2.654189243912696838e-03
-4.747751951217651367e-01 1.138026714324951172e-01 -4.733656942844390869e-01
-4.882327318191528320e-01 1.135133057832717896e-01 -4.519163966178894043e-01
-4.817786514759063721e-01 1.284618824720382690e-01 -4.552926719188690186e-01
-4.949029088020324707e-01 1.281399875879287720e-01 -4.354219734668731689e-01
1.295278668403625488e-01 -7.574695944786071777e-01 -2.558309137821197510e-01
1.235226690769195557e-01 -7.778407931327819824e-01 -2.403958439826965332e-01
1.112986803054809570e-01 -7.477847933769226074e-01 -2.671880125999450684e-01
1.053404361009597778e-01 -7.671133875846862793e-01 -2.540047764778137207e-01
3.573287129402160645e-01 4.168155491352081299e-01 -3.703850805759429932e-01
3.664569854736328125e-01 4.230256974697113037e-01 -3.473725318908691406e-01
3.467008173465728760e-01 4.369738101959228516e-01 -3.550445735454559326e-01
3.548219203948974609e-01 4.440368115901947021e-01 -3.320699036121368408e-01
5.751873254776000977e-01 -5.919333174824714661e-02 -3.974249660968780518e-01
5.902124047279357910e-01 -5.809888616204261780e-02 -3.814482986927032471e-01
5.729957222938537598e-01 -4.184353351593017578e-02 -3.950518667697906494e-01
5.876654982566833496e-01 -3.997869789600372314e-02 -3.799035251140594482e-01
-8.250752687454223633e-01 2.178244479000568390e-02 2.291712760925292969e-01
-8.082621693611145020e-01 2.112917974591255188e-02 2.436302602291107178e-01
-8.234527111053466797e-01 3.915129229426383972e-02 2.326786816120147705e-01
-8.067578673362731934e-01 3.801022097468376160e-02 2.479735910892486572e-01
3.478247821331024170e-01 1.920249164104461670e-01 5.612740516662597656e-01
3.465105593204498291e-01 1.859968155622482300e-01 5.839484930038452148e-01
3.389320671558380127e-01 2.071534544229507446e-01 5.808092951774597168e-01
3.378219306468963623e-01 2.006608396768569946e-01 6.038254499435424805e-01
2.661932706832885742e-01 3.442572653293609619e-01 5.121190547943115234e-01
2.632292211055755615e-01 3.394419550895690918e-01 5.326208472251892090e-01
2.483613640069961548e-01 3.584227561950683594e-01 5.174561738967895508e-01
2.466058880090713501e-01 3.526531457901000977e-01 5.410416126251220703e-01
-3.957685530185699463e-01 -1.921236366033554077e-01 5.132931470870971680e-01
-3.858992159366607666e-01 -1.881622225046157837e-01 5.327743887901306152e-01
-4.017460644245147705e-01 -1.751633882522583008e-01 5.249598622322082520e-01
-3.912813663482666016e-01 -1.707537472248077393e-01 5.436907410621643066e-01
4.127133190631866455e-01 -3.288387358188629150e-01 -3.981553912162780762e-01
4.212819635868072510e-01 -3.368356227874755859e-01 -3.800170719623565674e-01
4.285449981689453125e-01 -3.198730945587158203e-01 -3.867981731891632080e-01
4.369552731513977051e-01 -3.275728225708007812e-01 -3.696911036968231201e-01
3.782576322555541992e-02 3.052387535572052002e-01 -7.172189354896545410e-01
4.540412500500679016e-02 3.124751746654510498e-01 -6.991388797760009766e-01
1.616254076361656189e-02 3.160749077796936035e-01 -7.006402611732482910e-01
2.409799396991729736e-02 3.239646553993225098e-01 -6.809477210044860840e-01
5.457798019051551819e-02 -1.878958642482757568e-01 8.666838407516479492e-01
4.758013039827346802e-02 -1.811408400535583496e-01 8.822336196899414062e-01
4.729650914669036865e-02 -1.682046204805374146e-01 8.940559029579162598e-01
3.969854861497879028e-02 -1.623077839612960815e-01 9.081463813781738281e-01
3.282361328601837158e-01 -3.186579346656799316e-01 4.878635704517364502e-01
3.165796399116516113e-01 -3.172538876533508301e-01 5.046201348304748535e-01
3.252857029438018799e-01 -3.019534051418304443e-01 5.069283246994018555e-01
3.132274746894836426e-01 -3.001048564910888672e-01 5.238489508628845215e-01
-6.979791820049285889e-02 4.335586130619049072e-01 5.129092931747436523e-01
-7.357102632522583008e-02 4.201577603816986084e-01 5.309295654296875000e-01
-9.049257636070251465e-02 4.301534593105316162e-01 5.144106149673461914e-01
-9.411147236824035645e-02 4.174459576606750488e-01 5.328618288040161133e-01
4.601352512836456299e-01 7.089488208293914795e-02 -4.946534037590026855e-01
4.779984951019287109e-01 7.196188718080520630e-02 -4.724688827991485596e-01
4.561198651790618896e-01 9.409852325916290283e-02 -4.856088757514953613e-01
4.744078814983367920e-01 9.641870856285095215e-02 -4.626452922821044922e-01
3.854877948760986328e-01 -5.841829180717468262e-01 -5.863009393215179443e-02
3.815687298774719238e-01 -5.897873044013977051e-01 -3.571091964840888977e-02
3.958829045295715332e-01 -5.714095234870910645e-01 -3.133798763155937195e-02
3.915197551250457764e-01 -5.769661068916320801e-01 -6.215969100594520569e-03
4.270381033420562744e-01 4.734589755535125732e-01 -2.208924889564514160e-01
4.364800751209259033e-01 4.738946259021759033e-01 -1.931283622980117798e-01
4.201364219188690186e-01 4.874840080738067627e-01 -1.939070969820022583e-01
4.265442490577697754e-01 4.887629151344299316e-01 -1.694897711277008057e-01
3.804674744606018066e-01 -5.769341588020324707e-01 1.238136515021324158e-01
3.699349164962768555e-01 -5.813068151473999023e-01 1.484090238809585571e-01
3.781215250492095947e-01 -5.610429048538208008e-01 1.445789933204650879e-01
3.672100603580474854e-01 -5.663667321205139160e-01 1.701721847057342529e-01
-1.499761193990707397e-01 9.466542303562164307e-02 -9.053562283515930176e-01
-1.634444594383239746e-01 9.369548410177230835e-02 -8.876609206199645996e-01
-1.593434065580368042e-01 1.118128001689910889e-01 -8.891933560371398926e-01
-1.717958897352218628e-01 1.110087186098098755e-01 -8.704767823219299316e-01
-1.389572173357009888e-01 6.924372315406799316e-01 2.865450084209442139e-01
-1.433759927749633789e-01 6.761996746063232422e-01 3.033174574375152588e-01
-1.578405499458312988e-01 6.910783052444458008e-01 2.856315672397613525e-01
-1.564303636550903320e-01 6.770888566970825195e-01 3.049971759319305420e-01
-2.646529972553253174e-01 5.665971040725708008e-01 -3.105848729610443115e-01
-2.814349532127380371e-01 5.660473108291625977e-01 -2.882293462753295898e-01
-2.774994373321533203e-01 5.830435752868652344e-01 -2.873393893241882324e-01
-2.926360070705413818e-01 5.819404125213623047e-01 -2.658142149448394775e-01
-2.064022421836853027e-01 -4.303841292858123779e-01 -4.785102009773254395e-01
-2.128431051969528198e-01 -4.388542175292968750e-01 -4.569990336894989014e-01
-2.284050285816192627e-01 -4.235779643058776855e-01 -4.685500562191009521e-01
-2.342545241117477417e-01 -4.317814409732818604e-01 -4.468084871768951416e-01
-2.268330603837966919e-01 3.048169910907745361e-01 -6.173915863037109375e-01
-2.361207455396652222e-01 3.110141158103942871e-01 -5.961905717849731445e-01
-2.398710697889328003e-01 3.204374611377716064e-01 -5.811463594436645508e-01
-2.494431734085083008e-01 3.268241584300994873e-01 -5.586234927177429199e-01
-4.722753465175628662e-01 -3.804734051227569580e-01 2.677369713783264160e-01
-4.656935632228851318e-01 -3.752219974994659424e-01 2.932883799076080322e-01
-4.827455580234527588e-01 -3.630597889423370361e-01 2.866770923137664795e-01
-4.754294157028198242e-01 -3.581021428108215332e-01 3.129662275314331055e-01
-1.673272550106048584e-01 1.923515945672988892e-01 7.951740026473999023e-01
-1.580327451229095459e-01 1.820223331451416016e-01 8.149899840354919434e-01
-1.503090411424636841e-01 1.998747885227203369e-01 8.061192631721496582e-01
-1.413072645664215088e-01 1.896255761384963989e-01 8.260262608528137207e-01
5.712357163429260254e-01 1.505774855613708496e-01 3.549780249595642090e-01
5.570448040962219238e-01 1.452450454235076904e-01 3.780651688575744629e-01
5.590610504150390625e-01 1.746015548706054688e-01 3.671191036701202393e-01
5.461179018020629883e-01 1.686289459466934204e-01 3.924838006496429443e-01
3.988044857978820801e-01 5.175197124481201172e-01 -1.796614378690719604e-01
4.030073285102844238e-01 5.183351635932922363e-01 -1.567051708698272705e-01
3.918324112892150879e-01 5.338702797889709473e-01 -1.635703593492507935e-01
3.955172598361968994e-01 5.341545343399047852e-01 -1.408279836177825928e-01
1.723713278770446777e-01 7.457025349140167236e-02 8.751864433288574219e-01
1.601897925138473511e-01 6.990584731101989746e-02 8.967041969299316406e-01
1.523099988698959351e-01 9.806295484304428101e-02 8.839574456214904785e-01
1.405370086431503296e-01 9.203284978866577148e-02 9.059073328971862793e-01
-5.808559060096740723e-01 -4.094782099127769470e-02 3.828653097152709961e-01
-5.665645599365234375e-01 -3.976199030876159668e-02 3.966442942619323730e-01
-5.816576480865478516e-01 -1.910688355565071106e-02 3.877395987510681152e-01
-5.663433074951171875e-01 -1.824860088527202606e-02 4.040101766586303711e-01
4.103850126266479492e-01 -1.105958744883537292e-01 -5.433778166770935059e-01
4.259694218635559082e-01 -1.160755753517150879e-01 -5.224304795265197754e-01
4.175919890403747559e-01 -9.432568401098251343e-02 -5.342755317687988281e-01
4.329524934291839600e-01 -9.773416817188262939e-02 -5.116301774978637695e-01
2.413945347070693970e-01 -2.364082634449005127e-01 -6.791025996208190918e-01
2.490605264902114868e-01 -2.473957836627960205e-01 -6.516053676605224609e-01
2.557022571563720703e-01 -2.161062210798263550e-01 -6.641336679458618164e-01
2.629493474960327148e-01 -2.267404496669769287e-01 -6.386475563049316406e-01
-1.456107497215270996e-01 -9.166618585586547852e-01 -6.423699110746383667e-02
-1.461061537265777588e-01 -9.232145547866821289e-01 -3.529702872037887573e-02
-1.590684950351715088e-01 -9.070644378662109375e-01 -4.017326608300209045e-02
-1.591179817914962769e-01 -9.135953783988952637e-01 -1.030568964779376984e-02
-5.584492906928062439e-02 -6.646636128425598145e-01 -3.391791582107543945e-01
-6.691968441009521484e-02 -6.757805943489074707e-01 -3.254928886890411377e-01
-8.108992874622344971e-02 -6.630834937095642090e-01 -3.335205912590026855e-01
-9.143859148025512695e-02 -6.739746928215026855e-01 -3.194322586059570312e-01
-8.708029985427856445e-01 7.005520910024642944e-02 -1.972120851278305054e-01
-8.841928839683532715e-01 6.839759647846221924e-02 -1.747718900442123413e-01
-8.829706907272338867e-01 8.418827503919601440e-02 -1.791779845952987671e-01
-8.952900171279907227e-01 8.271102607250213623e-02 -1.577649712562561035e-01
-5.133193135261535645e-01 -3.383484482765197754e-01 -2.960147261619567871e-01
-5.160724520683288574e-01 -3.453434109687805176e-01 -2.758543491363525391e-01
-5.285238623619079590e-01 -3.305330276489257812e-01 -2.843690514564514160e-01
-5.305175781250000000e-01 -3.384363949298858643e-01 -2.630912363529205322e-01
-5.298578739166259766e-01 3.268157243728637695e-01 -2.831836938858032227e-01
-5.448219776153564453e-01 3.277282118797302246e-01 -2.591447830200195312e-01
-5.283378362655639648e-01 3.470847308635711670e-01 -2.547110319137573242e-01
-5.431133508682250977e-01 3.468932211399078369e-01 -2.301800996065139771e-01
-7.863040566444396973e-01 -6.473927944898605347e-02 2.502566874027252197e-01
-7.759940624237060547e-01 -6.124437227845191956e-02 2.623222172260284424e-01
-7.918059825897216797e-01 -5.061356723308563232e-02 2.554325759410858154e-01
-7.812498807907104492e-01 -4.760990291833877563e-02 2.666563987731933594e-01
-1.436506360769271851e-01 -9.044659137725830078e-01 8.066740632057189941e-02
-1.338527500629425049e-01 -9.015835523605346680e-01 1.107227578759193420e-01
-1.552016139030456543e-01 -8.892427682876586914e-01 1.021526455879211426e-01
-1.478876918554306030e-01 -8.835296034812927246e-01 1.283283531665802002e-01
9.419119954109191895e-01 1.072100177407264709e-01 -8.329266309738159180e-02
9.481461048126220703e-01 1.101890802383422852e-01 -5.740312859416007996e-02
9.334056973457336426e-01 1.269711554050445557e-01 -6.589304655790328979e-02
9.392220377922058105e-01 1.294863373041152954e-01 -3.925387188792228699e-02
-3.782813623547554016e-02 -5.968021750450134277e-01 3.757607638835906982e-01
-2.868233807384967804e-02 -5.832098722457885742e-01 3.944630026817321777e-01
-4.911766201257705688e-02 -5.806151628494262695e-01 3.894905745983123779e-01
-4.010309651494026184e-02 -5.681431889533996582e-01 4.061761796474456787e-01
7.203642129898071289e-01 -8.815322816371917725e-02 -2.970494031906127930e-01
7.313475608825683594e-01 -9.011863172054290771e-02 -2.822889685630798340e-01
7.202121019363403320e-01 -7.406820356845855713e-02 -2.941083908081054688e-01
7.316585779190063477e-01 -7.641198486089706421e-02 -2.786305248737335205e-01
3.773173689842224121e-01 5.403653383255004883e-01 1.800769269466400146e-01
3.753979504108428955e-01 5.335493683815002441e-01 2.057476043701171875e-01
3.658053278923034668e-01 5.560593605041503906e-01 1.932168006896972656e-01
3.635211288928985596e-01 5.479879379272460938e-01 2.185920178890228271e-01
-4.394890666007995605e-01 9.357290714979171753e-02 -5.183734297752380371e-01
-4.530219435691833496e-01 9.383352845907211304e-02 -4.969061911106109619e-01
-4.460893273353576660e-01 1.135150417685508728e-01 -5.000609159469604492e-01
-4.594630002975463867e-01 1.144711226224899292e-01 -4.784967303276062012e-01
4.204328954219818115e-01 -3.606207966804504395e-01 3.544651269912719727e-01
4.064675569534301758e-01 -3.604915142059326172e-01 3.722995221614837646e-01
4.163703620433807373e-01 -3.438865244388580322e-01 3.727383613586425781e-01
4.015817344188690186e-01 -3.441624045372009277e-01 3.902595639228820801e-01
-3.782208561897277832e-01 -2.237828448414802551e-02 5.911697745323181152e-01
-3.658757805824279785e-01 -2.339971438050270081e-02 6.112089753150939941e-01
-3.783430457115173340e-01 -4.865185357630252838e-03 6.012666225433349609e-01
-3.663281500339508057e-01 -6.142677273601293564e-03 6.220712661743164062e-01
-8.764851689338684082e-01 1.714808344841003418e-01 -9.928671270608901978e-02
-8.860667943954467773e-01 1.678944081068038940e-01 -7.920411229133605957e-02
-8.764144182205200195e-01 1.827865391969680786e-01 -7.881735265254974365e-02
-8.856719732284545898e-01 1.783160716295242310e-01 -5.759931355714797974e-02
-2.690272778272628784e-02 4.564972221851348877e-01 -5.079326033592224121e-01
-2.293223515152931213e-02 4.696575999259948730e-01 -4.839583635330200195e-01
-3.555800393223762512e-02 4.791341125965118408e-01 -4.770143032073974609e-01
-3.950976580381393433e-02 4.911070168018341064e-01 -4.547959864139556885e-01
-1.401886940002441406e-01 5.079653859138488770e-01 4.220482707023620605e-01
-1.465330421924591064e-01 4.904201924800872803e-01 4.383474886417388916e-01
-1.617034673690795898e-01 5.173213481903076172e-01 4.078531563282012939e-01
-1.666655242443084717e-01 5.007544755935668945e-01 4.251195192337036133e-01
-3.695292174816131592e-01 6.032134294509887695e-01 -8.345777541399002075e-02
-3.778297901153564453e-01 5.963253974914550781e-01 -5.800630152225494385e-02
-3.665829002857208252e-01 6.190986037254333496e-01 -6.268911063671112061e-02
-3.740531504154205322e-01 6.118742227554321289e-01 -3.793292865157127380e-02
-3.497214615345001221e-01 -4.410950839519500732e-01 3.355531096458435059e-01
-3.422263562679290771e-01 -4.329318106174468994e-01 3.612451553344726562e-01
-3.558334410190582275e-01 -4.234478771686553955e-01 3.578561544418334961e-01
-3.479325473308563232e-01 -4.154968559741973877e-01 3.829554319381713867e-01
-1.169188469648361206e-01 5.602471828460693359e-01 -3.935307264328002930e-01
-1.391173899173736572e-01 5.649276375770568848e-01 -3.766176104545593262e-01
-1.245120912790298462e-01 5.869359374046325684e-01 -3.679307997226715088e-01
-1.494234204292297363e-01 5.896896719932556152e-01 -3.513557612895965576e-01
8.028051853179931641e-01 3.040784969925880432e-02 2.359225898981094360e-01
7.868334650993347168e-01 2.732506394386291504e-02 2.551319599151611328e-01
7.891552448272705078e-01 4.782228171825408936e-02 2.521725893020629883e-01
7.729152441024780273e-01 4.458131268620491028e-02 2.711402475833892822e-01
4.070127606391906738e-01 -4.407341778278350830e-01 -2.869934439659118652e-01
4.070028364658355713e-01 -4.517966806888580322e-01 -2.650103569030761719e-01
4.253632128238677979e-01 -4.330673515796661377e-01 -2.692647278308868408e-01
4.241441488265991211e-01 -4.436858594417572021e-01 -2.484872937202453613e-01
-1.667140275239944458e-01 -8.579050898551940918e-01 1.259182542562484741e-01
-1.604039967060089111e-01 -8.514980077743530273e-01 1.487572342157363892e-01
-1.754774153232574463e-01 -8.384164571762084961e-01 1.474902033805847168e-01
-1.694245338439941406e-01 -8.322671055793762207e-01 1.697249263525009155e-01
5.742794871330261230e-01 1.593336462974548340e-01 -3.754864037036895752e-01
5.870375037193298340e-01 1.673812568187713623e-01 -3.541823625564575195e-01
5.726692080497741699e-01 1.808501183986663818e-01 -3.625880479812622070e-01
5.844818949699401855e-01 1.889814585447311401e-01 -3.411270976066589355e-01
-2.997061610221862793e-01 -9.517887234687805176e-02 6.953271031379699707e-01
-2.899408638477325439e-01 -9.468472748994827271e-02 7.148948311805725098e-01
-3.012839555740356445e-01 -7.636521756649017334e-02 7.083079218864440918e-01
-2.920159399509429932e-01 -7.587671279907226562e-02 7.270931005477905273e-01
-1.106188893318176270e-01 -4.579033255577087402e-01 4.828818738460540771e-01
-1.008109524846076965e-01 -4.489473402500152588e-01 5.031611919403076172e-01
-1.227335631847381592e-01 -4.412539303302764893e-01 5.026032328605651855e-01
-1.126238629221916199e-01 -4.331074655055999756e-01 5.240560173988342285e-01
3.771354258060455322e-01 5.270557999610900879e-01 1.938948929309844971e-01
3.757087588310241699e-01 5.184028744697570801e-01 2.188715338706970215e-01
3.632389605045318604e-01 5.355517864227294922e-01 2.127354890108108521e-01
3.606726825237274170e-01 5.269004702568054199e-01 2.379664182662963867e-01
-6.820645332336425781e-01 -1.395378112792968750e-01 2.934482693672180176e-01
-6.671974062919616699e-01 -1.374907195568084717e-01 3.093058466911315918e-01
-6.839196085929870605e-01 -1.235079020261764526e-01 3.066858351230621338e-01
-6.697323322296142578e-01 -1.211368441581726074e-01 3.215541541576385498e-01
-8.935285732150077820e-03 -1.584441363811492920e-01 -9.224821925163269043e-01
-1.505755260586738586e-02 -1.692435592412948608e-01 -9.017168283462524414e-01
-3.644102439284324646e-02 -1.520182341337203979e-01 -9.186941981315612793e-01
-4.156026244163513184e-02 -1.630853414535522461e-01 -8.951764702796936035e-01
-4.113021790981292725e-01 4.426300898194313049e-02 -5.611460804939270020e-01
-4.241860210895538330e-01 4.076125100255012512e-02 -5.379298329353332520e-01
-4.222234189510345459e-01 6.254237890243530273e-02 -5.430006980895996094e-01
-4.355544447898864746e-01 6.108057871460914612e-02 -5.214293003082275391e-01
-1.945733465254306793e-02 2.768434882164001465e-01 7.466156482696533203e-01
-2.351339720189571381e-02 2.628673315048217773e-01 7.705435752868652344e-01
-4.355077072978019714e-02 2.728982269763946533e-01 7.538979053497314453e-01
-4.833938181400299072e-02 2.575438618659973145e-01 7.771787643432617188e-01
2.801635861396789551e-01 -7.754445075988769531e-02 7.354685068130493164e-01
2.688824236392974854e-01 -7.789200544357299805e-02 7.625414133071899414e-01
2.682654261589050293e-01 -4.920512437820434570e-02 7.580494284629821777e-01
2.563002109527587891e-01 -4.915973916649818420e-02 7.835137844085693359e-01
-4.629760980606079102e-01 2.155583053827285767e-01 -4.377301931381225586e-01
-4.776544272899627686e-01 2.163515239953994751e-01 -4.200118482112884521e-01
-4.641062617301940918e-01 2.342664152383804321e-01 -4.193105399608612061e-01
-4.802405834197998047e-01 2.347449511289596558e-01 -4.003323316574096680e-01
2.787612676620483398e-01 2.040806263685226440e-01 6.482233405113220215e-01
2.741587460041046143e-01 2.007014751434326172e-01 6.677228808403015137e-01
2.682001292705535889e-01 2.143309563398361206e-01 6.581248044967651367e-01
2.624608576297760010e-01 2.105158269405364990e-01 6.766563057899475098e-01
-1.669181287288665771e-01 -1.925245486199855804e-02 -9.066320061683654785e-01
-1.798959076404571533e-01 -2.275761589407920837e-02 -8.847044706344604492e-01
-1.810866594314575195e-01 6.945317727513611317e-04 -8.954045176506042480e-01
-1.932341754436492920e-01 -1.970254350453615189e-03 -8.748243451118469238e-01
2.580312788486480713e-01 -7.474360466003417969e-01 1.248249560594558716e-01
2.474197894334793091e-01 -7.492602467536926270e-01 1.470434367656707764e-01
2.589828968048095703e-01 -7.291545271873474121e-01 1.470846533775329590e-01
2.475119680166244507e-01 -7.300600409507751465e-01 1.682051122188568115e-01
-5.840680096298456192e-04 1.632606983184814453e-01 -9.164369106292724609e-01
2.663417719304561615e-03 1.711626946926116943e-01 -8.965169787406921387e-01
-1.760109700262546539e-02 1.781667023897171021e-01 -8.922811746597290039e-01
-1.715296320617198944e-02 1.861634403467178345e-01 -8.740698695182800293e-01
-1.961703002452850342e-01 -7.725138664245605469e-01 -2.075674384832382202e-01
-2.006879299879074097e-01 -7.828016877174377441e-01 -1.823108792304992676e-01
-2.099103331565856934e-01 -7.547909021377563477e-01 -1.938264369964599609e-01
-2.134559899568557739e-01 -7.645621299743652344e-01 -1.690304428339004517e-01
-4.072600305080413818e-01 1.179648470133543015e-02 -5.608351826667785645e-01
-4.217803478240966797e-01 5.981249734759330750e-03 -5.360320210456848145e-01
-4.164343178272247314e-01 3.369875252246856689e-02 -5.430206656455993652e-01
-4.304341673851013184e-01 2.923815324902534485e-02 -5.192609429359436035e-01
7.886615395545959473e-01 2.566919326782226562e-01 1.083127968013286591e-02
7.914067506790161133e-01 2.536053955554962158e-01 3.976639360189437866e-02
7.731549739837646484e-01 2.685121297836303711e-01 3.377542644739151001e-02
7.756449580192565918e-01 2.642852962017059326e-01 6.384457647800445557e-02
-4.622286185622215271e-02 -1.716912090778350830e-01 8.918659687042236328e-01
-3.884091600775718689e-02 -1.619201004505157471e-01 9.102330207824707031e-01
-6.518214941024780273e-02 -1.559753119945526123e-01 9.010749459266662598e-01
-5.726032704114913940e-02 -1.458681374788284302e-01 9.208668470382690430e-01
5.752054452896118164e-01 -2.160432487726211548e-01 3.386352062225341797e-01
5.583346486091613770e-01 -2.153446525335311890e-01 3.561930060386657715e-01
5.683315992355346680e-01 -1.993711292743682861e-01 3.547297716140747070e-01
5.522118806838989258e-01 -1.995638459920883179e-01 3.719074130058288574e-01
-1.523301899433135986e-01 -2.103312611579895020e-01 -8.033910393714904785e-01
-1.559733599424362183e-01 -2.204778939485549927e-01 -7.831100821495056152e-01
-1.702381223440170288e-01 -2.005523592233657837e-01 -7.944073081016540527e-01
-1.746399402618408203e-01 -2.084722667932510376e-01 -7.746639847755432129e-01
4.285796880722045898e-01 -5.193825960159301758e-01 9.689408540725708008e-02
4.197826087474822998e-01 -5.247492194175720215e-01 1.237930953502655029e-01
4.271375536918640137e-01 -5.084806084632873535e-01 1.217975914478302002e-01
4.181229472160339355e-01 -5.140485763549804688e-01 1.485704779624938965e-01
7.738580703735351562e-01 -1.907582394778728485e-02 -2.719888389110565186e-01
7.893741726875305176e-01 -2.164470776915550232e-02 -2.551785111427307129e-01
7.684443593025207520e-01 8.953281678259372711e-03 -2.727958858013153076e-01
7.863153815269470215e-01 8.946261368691921234e-03 -2.539351284503936768e-01
-4.253653585910797119e-01 -4.870467782020568848e-01 1.832634508609771729e-01
-4.210368096828460693e-01 -4.844879209995269775e-01 2.075612992048263550e-01
-4.390003383159637451e-01 -4.723083376884460449e-01 1.970775425434112549e-01
-4.340626299381256104e-01 -4.694716632366180420e-01 2.206117957830429077e-01
1.754334270954132080e-01 8.262481689453125000e-01 -1.671410948038101196e-01
1.842681467533111572e-01 8.292701840400695801e-01 -1.407149434089660645e-01
1.730602830648422241e-01 8.431033492088317871e-01 -1.401266008615493774e-01
1.801559180021286011e-01 8.476631641387939453e-01 -1.142903268337249756e-01
-4.014901518821716309e-01 -2.587977349758148193e-01 -4.786611199378967285e-01
-4.071059226989746094e-01 -2.691911160945892334e-01 -4.501097202301025391e-01
-4.220046997070312500e-01 -2.412257790565490723e-01 -4.657180607318878174e-01
-4.286044836044311523e-01 -2.504928112030029297e-01 -4.377318024635314941e-01
6.323733329772949219e-01 -2.689827978610992432e-01 -2.531147301197052002e-01
6.328511238098144531e-01 -2.812601327896118164e-01 -2.295111268758773804e-01
6.475142240524291992e-01 -2.630206346511840820e-01 -2.377900630235671997e-01
6.468049287796020508e-01 -2.747501432895660400e-01 -2.143487930297851562e-01
4.849222600460052490e-01 4.997353255748748779e-02 -4.770909845829010010e-01
5.027984976768493652e-01 5.146005377173423767e-02 -4.552531540393829346e-01
4.855304956436157227e-01 6.940185278654098511e-02 -4.636057019233703613e-01
5.035913586616516113e-01 7.117733359336853027e-02 -4.410414397716522217e-01
4.301533102989196777e-01 5.248988866806030273e-01 3.383587673306465149e-02
4.311339557170867920e-01 5.224694609642028809e-01 5.456604436039924622e-02
4.164766073226928711e-01 5.395208001136779785e-01 4.713675007224082947e-02
4.169082045555114746e-01 5.374076366424560547e-01 6.895972788333892822e-02
3.400301933288574219e-01 -1.678317934274673462e-01 -6.070517301559448242e-01
3.496033251285552979e-01 -1.720704585313796997e-01 -5.912396311759948730e-01
3.491191864013671875e-01 -1.505253016948699951e-01 -5.929464101791381836e-01
3.608796000480651855e-01 -1.571539044380187988e-01 -5.764036178588867188e-01
3.476231694221496582e-01 2.717692852020263672e-01 -5.169456005096435547e-01
3.534086346626281738e-01 2.764761149883270264e-01 -4.956040084362030029e-01
3.449062705039978027e-01 2.873979508876800537e-01 -5.030543804168701172e-01
3.515430986881256104e-01 2.919869720935821533e-01 -4.815350472927093506e-01
9.547147899866104126e-02 5.144904851913452148e-01 -4.416284561157226562e-01
1.067619398236274719e-01 5.249553322792053223e-01 -4.211075007915496826e-01
8.270908892154693604e-02 5.323038697242736816e-01 -4.188144803047180176e-01
9.456662088632583618e-02 5.428433418273925781e-01 -3.977515399456024170e-01
4.899145066738128662e-01 -1.811186075210571289e-01 -4.269598424434661865e-01
5.054610967636108398e-01 -1.860884428024291992e-01 -4.080339670181274414e-01
5.045329332351684570e-01 -1.647420823574066162e-01 -4.185628890991210938e-01
5.216785669326782227e-01 -1.698867082595825195e-01 -3.997282981872558594e-01
5.216701626777648926e-01 4.076300859451293945e-01 1.423568874597549438e-01
5.223563909530639648e-01 4.009558856487274170e-01 1.653450876474380493e-01
5.091945528984069824e-01 4.147796034812927246e-01 1.658898890018463135e-01
5.084132552146911621e-01 4.086936414241790771e-01 1.881018728017807007e-01
1.373011171817779541e-01 -5.674350857734680176e-01 -3.931728005409240723e-01
1.268602013587951660e-01 -5.839700102806091309e-01 -3.753283023834228516e-01
1.252107918262481689e-01 -5.586333870887756348e-01 -3.952852785587310791e-01
1.126222088932991028e-01 -5.748705267906188965e-01 -3.778744637966156006e-01
-4.737571775913238525e-01 -2.533053457736968994e-01 3.880453407764434814e-01
-4.633639454841613770e-01 -2.484876513481140137e-01 4.094421565532684326e-01
-4.840655326843261719e-01 -2.343292385339736938e-01 4.006600379943847656e-01
-4.714262187480926514e-01 -2.295759171247482300e-01 4.237546026706695557e-01
7.929953932762145996e-02 3.103963434696197510e-01 6.837332844734191895e-01
7.438515871763229370e-02 2.985747754573822021e-01 7.105286121368408203e-01
4.952389001846313477e-02 3.078944683074951172e-01 6.995036005973815918e-01
4.561103135347366333e-02 2.944462001323699951e-01 7.255880236625671387e-01
4.144510626792907715e-01 -5.278614163398742676e-01 -1.141600236296653748e-01
4.129758179187774658e-01 -5.368010997772216797e-01 -9.210752695798873901e-02
4.269596934318542480e-01 -5.205194950103759766e-01 -9.633745998144149780e-02
4.256875216960906982e-01 -5.282270908355712891e-01 -7.470630109310150146e-02
-3.480907976627349854e-01 -5.074040889739990234e-01 -2.908672392368316650e-01
-3.533338308334350586e-01 -5.142097473144531250e-01 -2.675149738788604736e-01
-3.687934875488281250e-01 -4.895296990871429443e-01 -2.827798128128051758e-01
-3.733457624912261963e-01 -4.960320293903350830e-01 -2.604762613773345947e-01
1.990439593791961670e-01 3.776682317256927490e-01 -5.467396378517150879e-01
2.087161689996719360e-01 3.822859227657318115e-01 -5.232954025268554688e-01
1.885267496109008789e-01 3.944953083992004395e-01 -5.255903601646423340e-01
1.983676850795745850e-01 3.997534811496734619e-01 -5.023329854011535645e-01
2.808875441551208496e-01 5.837142467498779297e-01 2.624522745609283447e-01
2.744708359241485596e-01 5.766736865043640137e-01 2.861210405826568604e-01
2.714428305625915527e-01 5.996838808059692383e-01 2.700692117214202881e-01
2.636626660823822021e-01 5.909997820854187012e-01 2.933426201343536377e-01
5.450417473912239075e-02 -4.014973044395446777e-01 5.542854070663452148e-01
6.048841401934623718e-02 -3.893601596355438232e-01 5.806391835212707520e-01
3.663052618503570557e-02 -3.866954743862152100e-01 5.787254571914672852e-01
4.483971744775772095e-02 -3.756403923034667969e-01 6.070321798324584961e-01
4.816394299268722534e-03 -2.126186043024063110e-01 -8.684550523757934570e-01
-4.676156677305698395e-04 -2.238232344388961792e-01 -8.499171733856201172e-01
-1.792122609913349152e-02 -2.100134789943695068e-01 -8.635268807411193848e-01
-2.306283637881278992e-02 -2.212587445974349976e-01 -8.430960774421691895e-01
-6.524579524993896484e-01 2.906226180493831635e-02 -3.494765162467956543e-01
-6.657508611679077148e-01 2.864707075059413910e-02 -3.357933163642883301e-01
-6.576758027076721191e-01 4.923002794384956360e-02 -3.394664824008941650e-01
-6.715283393859863281e-01 4.953750595450401306e-02 -3.254138231277465820e-01
-3.540787696838378906e-01 6.179639697074890137e-01 -7.853996008634567261e-02
-3.628107309341430664e-01 6.108498573303222656e-01 -5.325195193290710449e-02
-3.510648608207702637e-01 6.353411674499511719e-01 -5.846973136067390442e-02
-3.591497838497161865e-01 6.279442310333251953e-01 -3.278848528861999512e-02
4.528540670871734619e-01 5.036514401435852051e-01 -4.909260943531990051e-02
4.547900855541229248e-01 5.026618838310241699e-01 -2.882084064185619354e-02
4.422233104705810547e-01 5.160179734230041504e-01 -2.961893938481807709e-02
4.436208605766296387e-01 5.149978995323181152e-01 -1.003197953104972839e-02
-1.580863296985626221e-01 6.949357986450195312e-01 2.724079489707946777e-01
-1.532955169677734375e-01 6.808413267135620117e-01 2.939602732658386230e-01
-1.428654938936233521e-01 7.129084467887878418e-01 2.777689695358276367e-01
-1.403932571411132812e-01 6.966210007667541504e-01 2.970471680164337158e-01
5.518988370895385742e-01 -3.923758864402770996e-01 -1.413283646106719971e-01
5.483401417732238770e-01 -4.005482792854309082e-01 -1.184284687042236328e-01
5.656467676162719727e-01 -3.874439597129821777e-01 -1.221148148179054260e-01
5.620905756950378418e-01 -3.950871229171752930e-01 -9.950487315654754639e-02
6.241880655288696289e-01 -2.516011297702789307e-01 2.630593776702880859e-01
6.081967353820800781e-01 -2.517685294151306152e-01 2.819638550281524658e-01
6.142166852951049805e-01 -2.356190979480743408e-01 2.859397530555725098e-01
5.983116626739501953e-01 -2.346750646829605103e-01 3.044888079166412354e-01
6.010211706161499023e-01 3.484804928302764893e-01 1.308241486549377441e-01
6.003680229187011719e-01 3.428607285022735596e-01 1.570301353931427002e-01
5.893473029136657715e-01 3.556851744651794434e-01 1.462395936250686646e-01
5.894046425819396973e-01 3.494215309619903564e-01 1.708512902259826660e-01
-5.069371461868286133e-01 4.441938698291778564e-01 3.712335228919982910e-02
-5.132504105567932129e-01 4.375152289867401123e-01 6.065946817398071289e-02
-5.014714598655700684e-01 4.564089179039001465e-01 5.566588416695594788e-02
-5.061668753623962402e-01 4.484697878360748291e-01 8.140250295400619507e-02
-1.888961195945739746e-01 1.611054688692092896e-01 8.092703819274902344e-01
-1.780752390623092651e-01 1.512214541435241699e-01 8.290088772773742676e-01
-1.692929714918136597e-01 1.726481616497039795e-01 8.225270509719848633e-01
-1.584814786911010742e-01 1.617879122495651245e-01 8.426453471183776855e-01
7.748661637306213379e-01 -2.698838710784912109e-01 1.389086805284023285e-02
7.667500376701354980e-01 -2.725492417812347412e-01 3.474012389779090881e-02
7.787233591079711914e-01 -2.599682509899139404e-01 4.301537945866584778e-02
7.701167464256286621e-01 -2.630145847797393799e-01 6.425624340772628784e-02
-1.374148130416870117e-01 -1.130966022610664368e-01 -9.072638154029846191e-01
-1.488097310066223145e-01 -1.208974942564964294e-01 -8.826588392257690430e-01
-1.548921912908554077e-01 -9.855876863002777100e-02 -8.976625204086303711e-01
-1.662278622388839722e-01 -1.047522127628326416e-01 -8.731557130813598633e-01
-9.768930077552795410e-01 -7.435142248868942261e-02 1.277878694236278534e-02
-9.770692586898803711e-01 -7.395552098751068115e-02 3.019128553569316864e-02
-9.829997420310974121e-01 -6.523126363754272461e-02 2.663475833833217621e-02
-9.816365838050842285e-01 -6.402727961540222168e-02 4.566971212625503540e-02
-3.586151897907257080e-01 -4.056907296180725098e-01 -3.864510357379913330e-01
-3.660237491130828857e-01 -4.129452705383300781e-01 -3.634634017944335938e-01
-3.807775974273681641e-01 -3.975340723991394043e-01 -3.648885488510131836e-01
-3.890731334686279297e-01 -4.043314158916473389e-01 -3.421083688735961914e-01
3.433375060558319092e-01 -4.616433084011077881e-01 3.266636729240417480e-01
3.265301287174224854e-01 -4.625809788703918457e-01 3.485327959060668945e-01
3.392386734485626221e-01 -4.449569284915924072e-01 3.535391986370086670e-01
3.243685066699981689e-01 -4.451791346073150635e-01 3.740893006324768066e-01
3.074764013290405273e-01 -7.091873288154602051e-01 -6.905134022235870361e-02
3.014863431453704834e-01 -7.192248702049255371e-01 -4.128050804138183594e-02
3.082750141620635986e-01 -6.988263726234436035e-01 -4.190329462289810181e-02
3.007744550704956055e-01 -7.085610628128051758e-01 -1.364004984498023987e-02
8.029739260673522949e-01 -1.739438921213150024e-01 -1.824147552251815796e-01
8.143119215965270996e-01 -1.826322823762893677e-01 -1.623386144638061523e-01
8.233686089515686035e-01 -1.634134948253631592e-01 -1.703007966279983521e-01
8.340169191360473633e-01 -1.717934459447860718e-01 -1.499314308166503906e-01
-7.774226069450378418e-01 2.667935192584991455e-01 -1.476051658391952515e-02
-7.861372232437133789e-01 2.592464387416839600e-01 9.673324413597583771e-03
-7.701612114906311035e-01 2.738602757453918457e-01 8.525094948709011078e-03
-7.782675623893737793e-01 2.650561630725860596e-01 3.625907376408576965e-02
-6.883137822151184082e-01 -5.677760392427444458e-02 3.106314241886138916e-01
-6.743581295013427734e-01 -5.379092320799827576e-02 3.273918926715850830e-01
-6.955475211143493652e-01 -3.736028447747230530e-02 3.165125250816345215e-01
-6.815702915191650391e-01 -3.471630439162254333e-02 3.340767920017242432e-01
-1.963609158992767334e-01 -3.509042859077453613e-01 -5.810047388076782227e-01
-2.030340433120727539e-01 -3.590256571769714355e-01 -5.598993301391601562e-01
-2.170819491147994995e-01 -3.445025086402893066e-01 -5.712961554527282715e-01
-2.235688269138336182e-01 -3.528545200824737549e-01 -5.480502247810363770e-01
2.897426187992095947e-01 5.079863667488098145e-01 -3.462837040424346924e-01
3.016642928123474121e-01 5.139892101287841797e-01 -3.217120766639709473e-01
2.777819037437438965e-01 5.279820561408996582e-01 -3.286657035350799561e-01
2.904452681541442871e-01 5.341618657112121582e-01 -3.042599558830261230e-01
2.581752538681030273e-01 -1.471488177776336670e-01 7.158203125000000000e-01
2.451074719429016113e-01 -1.482041925191879272e-01 7.478743791580200195e-01
2.519615888595581055e-01 -1.232053488492965698e-01 7.428184747695922852e-01
2.403777390718460083e-01 -1.233344599604606628e-01 7.720571160316467285e-01
1.368692815303802490e-01 -7.746551632881164551e-01 2.203984260559082031e-01
1.178435012698173523e-01 -7.735874652862548828e-01 2.412870377302169800e-01
1.365695148706436157e-01 -7.523295879364013672e-01 2.405188977718353271e-01
1.151953414082527161e-01 -7.501500248908996582e-01 2.621333301067352295e-01
5.702462196350097656e-01 -3.995756208896636963e-01 5.920017510652542114e-02
5.595855712890625000e-01 -4.042494595050811768e-01 8.282989263534545898e-02
5.618006587028503418e-01 -3.952670395374298096e-01 8.580591529607772827e-02
5.517070889472961426e-01 -3.992447853088378906e-01 1.067619696259498596e-01
-3.131766915321350098e-01 4.988654851913452148e-01 3.196355700492858887e-01
-2.984862327575683594e-01 4.899234473705291748e-01 3.455294072628021240e-01
-2.945955395698547363e-01 5.146835446357727051e-01 3.280058503150939941e-01
-2.807303071022033691e-01 5.072686672210693359e-01 3.528133034706115723e-01
-8.899840116500854492e-01 1.298529803752899170e-01 -1.387437731027603149e-01
-8.984441161155700684e-01 1.280347704887390137e-01 -1.236726641654968262e-01
-8.940336108207702637e-01 1.404564827680587769e-01 -1.233725696802139282e-01
-9.024432897567749023e-01 1.383802145719528198e-01 -1.074458062648773193e-01
2.871423959732055664e-01 -7.150672078132629395e-01 1.109110116958618164e-01
2.767493724822998047e-01 -7.170736193656921387e-01 1.332653760910034180e-01
2.812361717224121094e-01 -7.028871774673461914e-01 1.345037370920181274e-01
2.705742716789245605e-01 -7.044095993041992188e-01 1.569047570228576660e-01
-2.356562763452529907e-01 -3.016954660415649414e-01 6.008348464965820312e-01
-2.261436283588409424e-01 -2.953483462333679199e-01 6.235038638114929199e-01
-2.523010969161987305e-01 -2.849716544151306152e-01 6.163240075111389160e-01
-2.424608469009399414e-01 -2.798865735530853271e-01 6.397778391838073730e-01
7.131898403167724609e-01 -2.582166790962219238e-01 1.648683547973632812e-01
7.021543979644775391e-01 -2.620752751827239990e-01 1.888479292392730713e-01
7.069575190544128418e-01 -2.465661168098449707e-01 1.940836757421493530e-01
6.932060122489929199e-01 -2.491933852434158325e-01 2.174512296915054321e-01
8.640809655189514160e-01 -1.910960823297500610e-01 -9.078828245401382446e-02
8.612437248229980469e-01 -1.980813443660736084e-01 -6.478892266750335693e-02
8.757312893867492676e-01 -1.815594136714935303e-01 -7.020841538906097412e-02
8.702294230461120605e-01 -1.885167211294174194e-01 -4.369358718395233154e-02
-5.680204629898071289e-01 -3.215820491313934326e-01 -2.627160847187042236e-01
-5.693207383155822754e-01 -3.284479677677154541e-01 -2.411960661411285400e-01
-5.847575664520263672e-01 -3.090064227581024170e-01 -2.529357075691223145e-01
-5.857715010643005371e-01 -3.162726163864135742e-01 -2.314696162939071655e-01
5.173186659812927246e-01 3.236534595489501953e-01 2.811310887336730957e-01
5.104605555534362793e-01 3.145967423915863037e-01 3.031195998191833496e-01
4.977513253688812256e-01 3.387144207954406738e-01 2.948291301727294922e-01
4.909658133983612061e-01 3.307940363883972168e-01 3.178911805152893066e-01
1.096114516258239746e-01 9.022822231054306030e-02 9.257255792617797852e-01
9.671702980995178223e-02 8.400304615497589111e-02 9.413372278213500977e-01
9.628063440322875977e-02 1.069041937589645386e-01 9.356089234352111816e-01
8.364597707986831665e-02 9.828314185142517090e-02 9.500391483306884766e-01
-5.187712311744689941e-01 -3.108234405517578125e-01 -3.280742764472961426e-01
-5.220701694488525391e-01 -3.178520500659942627e-01 -3.075456619262695312e-01
-5.328699946403503418e-01 -2.954068779945373535e-01 -3.219698071479797363e-01
-5.347242355346679688e-01 -3.027043640613555908e-01 -3.009413778781890869e-01
4.397120177745819092e-01 -2.412807643413543701e-01 4.334869980812072754e-01
4.250822365283966064e-01 -2.406465560197830200e-01 4.519867002964019775e-01
4.363251328468322754e-01 -2.247299253940582275e-01 4.531118571758270264e-01
4.211481809616088867e-01 -2.245085388422012329e-01 4.729952812194824219e-01
-5.393545031547546387e-01 4.187076091766357422e-01 -5.084138736128807068e-02
-5.448982119560241699e-01 4.147876203060150146e-01 -3.050066903233528137e-02
-5.350245833396911621e-01 4.289231300354003906e-01 -2.992404438555240631e-02
-5.401988625526428223e-01 4.247396290302276611e-01 -1.001328881829977036e-02
-1.260388791561126709e-01 9.069864153861999512e-01 8.317556232213973999e-02
-1.334825605154037476e-01 8.944764733314514160e-01 1.098424866795539856e-01
-1.181299537420272827e-01 9.212670326232910156e-01 1.010115295648574829e-01
-1.281933486461639404e-01 9.097096920013427734e-01 1.278831809759140015e-01
2.450180053710937500e-02 -6.964050531387329102e-01 3.073351383209228516e-01
1.634524948894977570e-02 -6.853581070899963379e-01 3.214285075664520264e-01
-1.013344619423151016e-03 -6.724192500114440918e-01 3.247680962085723877e-01
-8.267275989055633545e-04 -6.581085920333862305e-01 3.427531123161315918e-01
3.493517637252807617e-01 3.523738980293273926e-01 4.226957559585571289e-01
3.447568416595458984e-01 3.469874560832977295e-01 4.440455734729766846e-01
3.291692733764648438e-01 3.629148304462432861e-01 4.371933937072753906e-01
3.249600529670715332e-01 3.578459620475769043e-01 4.578528404235839844e-01
-1.521465927362442017e-01 -4.994515776634216309e-01 -4.382197260856628418e-01
-1.614188700914382935e-01 -5.120726823806762695e-01 -4.187313616275787354e-01
-1.692123711109161377e-01 -4.908950924873352051e-01 -4.360706806182861328e-01
-1.779318749904632568e-01 -5.022518038749694824e-01 -4.171631038188934326e-01
6.295755505561828613e-01 -3.051900863647460938e-01 1.970365196466445923e-01
6.205899119377136230e-01 -3.075680732727050781e-01 2.179541885852813721e-01
6.272449493408203125e-01 -2.901037335395812988e-01 2.172239571809768677e-01
6.164031028747558594e-01 -2.894675433635711670e-01 2.366235703229904175e-01
-1.033489499241113663e-02 7.392764091491699219e-01 2.813763320446014404e-01
-1.836941763758659363e-02 7.234151959419250488e-01 2.960535883903503418e-01
-3.721148520708084106e-02 7.518799901008605957e-01 2.754798233509063721e-01
-4.314728453755378723e-02 7.320508956909179688e-01 2.924275100231170654e-01
3.276427984237670898e-01 -6.450411081314086914e-01 -1.387832313776016235e-01
3.259331583976745605e-01 -6.547978520393371582e-01 -1.153789758682250977e-01
3.351381123065948486e-01 -6.366122961044311523e-01 -1.179717332124710083e-01
3.333240449428558350e-01 -6.441506147384643555e-01 -9.640017151832580566e-02
-2.690464854240417480e-01 -7.318643927574157715e-01 -1.390879899263381958e-01
-2.714650928974151611e-01 -7.378758788108825684e-01 -1.152790188789367676e-01
-2.839965522289276123e-01 -7.189205288887023926e-01 -1.236275881528854370e-01
-2.863061428070068359e-01 -7.241859436035156250e-01 -1.001009941101074219e-01
2.663921751081943512e-02 -2.579702734947204590e-01 7.942501306533813477e-01
2.299519628286361694e-02 -2.497734725475311279e-01 8.109729886054992676e-01
1.887588575482368469e-02 -2.419715672731399536e-01 8.203454613685607910e-01
1.515962742269039154e-02 -2.336511760950088501e-01 8.364791870117187500e-01
1.505403518676757812e-01 4.993807151913642883e-02 9.084466695785522461e-01
1.374937295913696289e-01 4.667190462350845337e-02 9.246022105216979980e-01
1.367908269166946411e-01 6.781265139579772949e-02 9.177325963973999023e-01
1.238305717706680298e-01 6.343910098075866699e-02 9.330747127532958984e-01
-7.050759792327880859e-01 -2.994346022605895996e-01 7.086706161499023438e-02
-7.017806768417358398e-01 -2.980183660984039307e-01 9.598425030708312988e-02
-7.202855348587036133e-01 -2.866572141647338867e-01 9.235048294067382812e-02
-7.165529131889343262e-01 -2.849221229553222656e-01 1.175973191857337952e-01
-1.404700428247451782e-01 -8.737150430679321289e-01 -1.498003900051116943e-01
-1.455130577087402344e-01 -8.810051083564758301e-01 -1.262046992778778076e-01
-1.580558121204376221e-01 -8.653253316879272461e-01 -1.344679445028305054e-01
-1.632636487483978271e-01 -8.723237514495849609e-01 -1.104314550757408142e-01
4.549593329429626465e-01 -4.355778694152832031e-01 -2.272385805845260620e-01
4.545199573040008545e-01 -4.447357058525085449e-01 -2.094339430332183838e-01
4.650996029376983643e-01 -4.314037561416625977e-01 -2.114353924989700317e-01
4.645973145961761475e-01 -4.404191374778747559e-01 -1.938463300466537476e-01
6.955872774124145508e-01 -1.177291050553321838e-01 -3.041602969169616699e-01
7.064538002014160156e-01 -1.198964118957519531e-01 -2.889723181724548340e-01
7.028172016143798828e-01 -1.023279130458831787e-01 -2.997083961963653564e-01
7.141757607460021973e-01 -1.050876602530479431e-01 -2.852222919464111328e-01
-4.149561226367950439e-01 3.211555480957031250e-01 3.926731944084167480e-01
-4.039546549320220947e-01 3.102541565895080566e-01 4.170654416084289551e-01
-3.954994678497314453e-01 3.317551016807556152e-01 4.075330793857574463e-01
-3.840106129646301270e-01 3.199293017387390137e-01 4.320578575134277344e-01
9.441129863262176514e-02 8.128886818885803223e-01 2.204879820346832275e-01
8.223833143711090088e-02 8.030678033828735352e-01 2.351792603731155396e-01
7.607311755418777466e-02 8.148337602615356445e-01 2.267380505800247192e-01
6.375361979007720947e-02 8.053449988365173340e-01 2.407985776662826538e-01
3.170202672481536865e-01 6.705258041620254517e-02 -6.909385323524475098e-01
3.304193317890167236e-01 6.570328027009963989e-02 -6.578399538993835449e-01
3.156926631927490234e-01 8.656176924705505371e-02 -6.705769896507263184e-01
3.296536803245544434e-01 8.312325924634933472e-02 -6.400558352470397949e-01
-4.966417849063873291e-01 1.329184025526046753e-01 4.341485500335693359e-01
-4.852923750877380371e-01 1.310317963361740112e-01 4.535857737064361572e-01
-4.882202446460723877e-01 1.524175852537155151e-01 4.445929825305938721e-01
-4.769548177719116211e-01 1.502852290868759155e-01 4.642118811607360840e-01
3.970072269439697266e-01 -5.667221546173095703e-01 -8.646102994680404663e-02
3.940386474132537842e-01 -5.732298493385314941e-01 -6.283804029226303101e-02
4.047434628009796143e-01 -5.545176267623901367e-01 -6.453578919172286987e-02
4.014852643013000488e-01 -5.606179237365722656e-01 -3.981931880116462708e-02
6.085128784179687500e-01 2.877835929393768311e-01 -2.555906772613525391e-01
6.169528961181640625e-01 2.959656119346618652e-01 -2.283130139112472534e-01
5.993031263351440430e-01 3.045569658279418945e-01 -2.380257248878479004e-01
6.069296002388000488e-01 3.120891153812408447e-01 -2.081901729106903076e-01
-5.454281568527221680e-01 -3.445546329021453857e-01 2.440017163753509521e-01
-5.361171960830688477e-01 -3.399888277053833008e-01 2.697173357009887695e-01
-5.526271462440490723e-01 -3.263636529445648193e-01 2.646082043647766113e-01
-5.416070222854614258e-01 -3.230381906032562256e-01 2.905879616737365723e-01
-5.725085735321044922e-01 2.588375806808471680e-01 -3.169355094432830811e-01
-5.893509984016418457e-01 2.595704197883605957e-01 -2.969726622104644775e-01
-5.766284465789794922e-01 2.765142917633056641e-01 -2.967269718647003174e-01
-5.928677916526794434e-01 2.777941524982452393e-01 -2.761433720588684082e-01
